ply
format ascii 1.0
comment VCGLIB generated
element vertex 1190
property float x
property float y
property float z
element face 0
property list uchar int vertex_indices
end_header
5.47827 -14.127 0.095993 
5.62872 -14.1102 0.0969849 
5.77917 -14.0933 0.0979919 
6.09063 -14.2014 0.103989 
6.24108 -14.1846 0.104996 
6.39152 -14.1677 0.105988 
6.54197 -14.1509 0.107986 
6.77293 -14.1965 0.110992 
6.84287 -14.1172 0.109985 
6.91281 -14.0379 0.107986 
7.06326 -14.021 0.108994 
7.1332 -13.9417 0.107986 
7.20314 -13.8624 0.106995 
7.27309 -13.7831 0.104996 
7.34303 -13.7038 0.103989 
7.49348 -13.6869 0.104996 
7.56342 -13.6076 0.103989 
7.71387 -13.5908 0.104996 
7.78381 -13.5114 0.102997 
7.93426 -13.4946 0.103989 
8.0042 -13.4153 0.102997 
8.07414 -13.336 0.10199 
8.14409 -13.2566 0.0999908 
8.21403 -13.1773 0.0989838 
8.28397 -13.098 0.0969849 
8.35392 -13.0187 0.095993 
8.42386 -12.9394 0.094986 
8.4938 -12.8601 0.0929871 
8.56375 -12.7808 0.0919952 
8.7142 -12.7639 0.0929871 
8.78414 -12.6846 0.0919952 
8.85408 -12.6053 0.0899963 
8.92402 -12.526 0.0889893 
8.99397 -12.4466 0.0879822 
9.06391 -12.3673 0.0859833 
9.21436 -12.3505 0.0869904 
9.2843 -12.2712 0.0859833 
9.35425 -12.1919 0.0849915 
9.42419 -12.1125 0.0829926 
9.49413 -12.0332 0.0819855 
9.56408 -11.9539 0.0799866 
9.63402 -11.8746 0.0789948 
9.70396 -11.7953 0.0779877 
9.7739 -11.716 0.0759888 
9.92435 -11.6991 0.0769958 
10.0748 -11.6823 0.0779877 
10.1447 -11.603 0.0769958 
10.2147 -11.5236 0.0759888 
10.3651 -11.5068 0.0769958 
10.4351 -11.4275 0.0749817 
10.505 -11.3482 0.0739899 
10.575 -11.2688 0.0729828 
10.7254 -11.252 0.0739899 
10.7954 -11.1727 0.071991 
10.9458 -11.1558 0.0729828 
11.0157 -11.0765 0.071991 
11.0857 -10.9972 0.0709839 
11.1556 -10.9179 0.068985 
11.3061 -10.901 0.0699921 
11.376 -10.8217 0.068985 
11.5265 -10.8049 0.0699921 
11.5964 -10.7256 0.068985 
11.7469 -10.7087 0.0699921 
11.8168 -10.6294 0.0679932 
11.8867 -10.5501 0.0669861 
12.0372 -10.5332 0.0679932 
12.1071 -10.4539 0.0669861 
12.1771 -10.3746 0.0649872 
12.3275 -10.3578 0.0659943 
12.3975 -10.2784 0.0649872 
12.4674 -10.1991 0.0639954 
12.6179 -10.1823 0.0649872 
12.6878 -10.103 0.0629883 
12.9188 -10.1486 0.0669861 
12.9887 -10.0693 0.0659943 
13.1392 -10.0524 0.0669861 
13.2091 -9.9731 0.0649872 
13.279 -9.89378 0.0639954 
13.349 -9.81447 0.0619965 
13.4994 -9.79762 0.0639954 
13.5694 -9.7183 0.0619965 
13.6393 -9.63899 0.0609894 
13.7898 -9.62214 0.0619965 
13.8597 -9.54282 0.0609894 
13.9296 -9.46351 0.0589905 
13.9996 -9.3842 0.0579834 
14.15 -9.36735 0.0589905 
14.22 -9.28803 0.0569916 
14.2899 -9.20872 0.0559845 
14.3599 -9.1294 0.0549927 
14.4298 -9.05009 0.0529938 
14.4998 -8.97077 0.0519867 
14.5697 -8.89146 0.0509949 
14.6396 -8.81214 0.048996 
14.7096 -8.73283 0.0479889 
14.7795 -8.65351 0.0469818 
14.8495 -8.5742 0.0449829 
14.9194 -8.49489 0.0439911 
14.9894 -8.41557 0.0419922 
15.0593 -8.33626 0.0409851 
15.1292 -8.25694 0.0399933 
15.1992 -8.17763 0.0379944 
15.3496 -8.16078 0.0389862 
15.4196 -8.08146 0.0379944 
15.4895 -8.00215 0.0369873 
15.5595 -7.92283 0.0349884 
15.6294 -7.84352 0.0339966 
15.7799 -7.82667 0.0349884 
15.8498 -7.74735 0.0339966 
15.9197 -7.66804 0.0319824 
15.9897 -7.58873 0.0309906 
15.9791 -7.44694 0.0269928 
16.0491 -7.36763 0.0259857 
16.119 -7.28831 0.0239868 
16.1084 -7.14654 0.0209961 
16.1784 -7.06722 0.0189819 
16.1678 -6.92544 0.0149841 
16.2378 -6.84613 0.0139923 
16.2272 -6.70435 0.00999451 
16.2167 -6.56257 0.0059967 
16.2866 -6.48325 0.00498962 
16.3565 -6.40393 0.00398254 
16.346 -6.26216 -1.52588e-005 
16.4159 -6.18284 -0.00100708 
16.4054 -6.04106 -0.00500488 
16.3948 -5.89928 -0.00901794 
16.3842 -5.7575 -0.0130157 
16.2127 -5.49079 -0.0210114 
16.0411 -5.22408 -0.030014 
16.0305 -5.0823 -0.0340118 
16.1005 -5.00298 -0.0350037 
7.21149 -13.7652 0.071991 
7.33336 -13.6754 0.0729828 
7.45523 -13.5856 0.0739899 
8.18281 -13.5788 0.0899963 
8.30467 -13.489 0.0909882 
8.42654 -13.3992 0.0919952 
8.44746 -13.2955 0.0899963 
8.56932 -13.2057 0.0909882 
8.69119 -13.1159 0.0929871 
8.81306 -13.0261 0.0939941 
8.93493 -12.9363 0.094986 
9.05679 -12.8465 0.095993 
9.07771 -12.7428 0.0939941 
9.19957 -12.653 0.094986 
9.22049 -12.5493 0.0939941 
9.34236 -12.4595 0.094986 
9.56517 -12.3835 0.0989838 
9.58609 -12.2799 0.0969849 
9.70796 -12.1901 0.0979919 
9.82982 -12.1002 0.0989838 
10.0526 -12.0243 0.102997 
10.0736 -11.9206 0.100983 
10.1954 -11.8308 0.10199 
10.2163 -11.7271 0.100983 
10.2373 -11.6235 0.0999908 
10.3591 -11.5337 0.100983 
10.38 -11.43 0.0989838 
10.5019 -11.3402 0.0999908 
10.7247 -11.2642 0.103989 
10.8466 -11.1744 0.104996 
10.9685 -11.0846 0.105988 
10.9894 -10.9809 0.104996 
11.1112 -10.8911 0.105988 
11.1322 -10.7874 0.103989 
11.5569 -10.7392 0.112991 
11.6787 -10.6493 0.113983 
11.8006 -10.5595 0.11499 
12.0234 -10.4836 0.117996 
12.1453 -10.3937 0.118988 
12.2672 -10.3039 0.119995 
12.49 -10.228 0.123993 
12.6119 -10.1381 0.124985 
12.7337 -10.0483 0.125992 
12.9565 -9.97235 0.12999 
13.0784 -9.88253 0.130997 
13.2003 -9.79272 0.131989 
13.3221 -9.7029 0.132996 
13.444 -9.61309 0.133987 
13.5659 -9.52327 0.134995 
13.6877 -9.43346 0.135986 
13.8096 -9.34364 0.136993 
14.0324 -9.26767 0.139984 
14.1543 -9.17785 0.140991 
14.2762 -9.08804 0.14299 
14.398 -8.99822 0.143982 
14.5199 -8.90841 0.144989 
14.5408 -8.80474 0.14299 
14.6627 -8.71493 0.143982 
14.6836 -8.61127 0.14299 
14.8055 -8.52145 0.143982 
14.9273 -8.43164 0.144989 
15.352 -8.38335 0.152985 
15.5749 -8.30738 0.156982 
15.5958 -8.20372 0.155991 
15.7176 -8.1139 0.156982 
15.7386 -8.01025 0.154984 
15.8604 -7.92043 0.155991 
15.8813 -7.81677 0.154984 
16.0032 -7.72695 0.155991 
16.0241 -7.62329 0.154984 
16.045 -7.51963 0.152985 
16.1669 -7.42982 0.153992 
16.1878 -7.32616 0.152985 
16.2087 -7.2225 0.151993 
16.2297 -7.11884 0.149994 
16.3515 -7.02902 0.150986 
16.3724 -6.92536 0.149994 
16.3934 -6.8217 0.148987 
16.4143 -6.71804 0.146988 
16.4352 -6.61438 0.145996 
16.4561 -6.51072 0.143982 
16.477 -6.40706 0.14299 
16.4979 -6.3034 0.141983 
16.5188 -6.19974 0.139984 
16.5398 -6.09608 0.138992 
16.5607 -5.99242 0.137985 
16.5816 -5.88876 0.135986 
16.6025 -5.7851 0.134995 
16.5225 -5.66759 0.130997 
16.5434 -5.56393 0.12999 
16.5643 -5.46028 0.127991 
16.4843 -5.34277 0.124985 
16.5052 -5.23911 0.122986 
16.5261 -5.13545 0.121994 
16.547 -5.03179 0.119995 
16.5679 -4.92813 0.118988 
16.5888 -4.82447 0.117996 
16.6097 -4.72081 0.115982 
16.6307 -4.61715 0.11499 
16.6516 -4.51349 0.113983 
16.5715 -4.39599 0.109985 
16.1887 -4.23695 0.0989838 
16.2096 -4.13329 0.0969849 
16.2305 -4.02963 0.095993 
16.2514 -3.92597 0.094986 
16.1714 -3.80846 0.0909882 
14.0723 -3.41407 0.0389862 
14.0932 -3.31041 0.0369873 
14.1141 -3.20675 0.0359955 
14.0341 -3.08924 0.0319824 
14.055 -2.98558 0.0309906 
13.975 -2.86808 0.0269928 
13.9959 -2.76442 0.0259857 
13.9158 -2.64692 0.0219879 
13.9368 -2.54326 0.019989 
13.8567 -2.42575 0.016983 
13.8776 -2.32209 0.0149841 
13.7976 -2.20459 0.0109863 
13.7176 -2.08708 0.00799561 
13.7385 -1.98342 0.0059967 
13.6584 -1.86592 0.00299072 
13.5784 -1.74841 -0.00100708 
13.4984 -1.63091 -0.00500488 
13.4183 -1.5134 -0.00901794 
13.4392 -1.40974 -0.0100098 
13.3592 -1.29224 -0.0140076 
13.2792 -1.17474 -0.0180054 
13.3001 -1.07108 -0.0190125 
13.22 -0.953571 -0.0230103 
13.241 -0.849909 -0.0240173 
13.1609 -0.732408 -0.0280151 
12.9799 -0.601057 -0.0340118 
12.8999 -0.483553 -0.0380096 
12.9208 -0.379894 -0.0390167 
12.9417 -0.276232 -0.0410156 
12.9626 -0.172573 -0.0420074 
12.9836 -0.0689135 -0.0440063 
13.0045 0.0347468 -0.0450134 
13.0254 0.138406 -0.0460052 
12.9454 0.255911 -0.0500183 
12.9663 0.359572 -0.0510101 
12.9872 0.463233 -0.053009 
12.9071 0.580736 -0.0570068 
12.8271 0.69824 -0.0600128 
12.848 0.801902 -0.0620117 
12.768 0.919405 -0.0660095 
12.7889 1.02307 -0.0670166 
12.8098 1.12673 -0.0680084 
12.7298 1.24423 -0.0720062 
12.7507 1.34789 -0.0730133 
12.6707 1.4654 -0.0770111 
12.6916 1.56906 -0.07901 
12.7125 1.67272 -0.0800171 
12.7334 1.77638 -0.0810089 
12.7543 1.88004 -0.0830078 
12.6743 1.99754 -0.0860138 
12.5942 2.11505 -0.0900116 
12.5142 2.23255 -0.0940094 
12.5351 2.33621 -0.0950165 
12.556 2.43987 -0.0970154 
12.577 2.54353 -0.0980072 
12.5979 2.64719 -0.100006 
12.6188 2.75085 -0.101013 
12.6397 2.85451 -0.102005 
12.6606 2.95817 -0.104004 
12.5806 3.07567 -0.10701 
12.6015 3.17934 -0.109009 
12.6224 3.283 -0.110016 
12.6433 3.38665 -0.111008 
12.5633 3.50416 -0.115005 
12.5842 3.60782 -0.117004 
12.5042 3.72533 -0.12001 
12.5251 3.82899 -0.122009 
12.546 3.93265 -0.123016 
12.466 4.05015 -0.127014 
12.4869 4.15381 -0.128006 
12.5078 4.25747 -0.130005 
12.5287 4.36113 -0.131012 
12.5496 4.46479 -0.132004 
12.4696 4.5823 -0.136017 
12.4905 4.68596 -0.138016 
12.5114 4.78962 -0.139008 
12.4314 4.90712 -0.143005 
12.4523 5.01078 -0.144012 
12.4732 5.11444 -0.145004 
12.4941 5.2181 -0.147003 
12.515 5.32176 -0.14801 
12.5359 5.42542 -0.150009 
12.5569 5.52908 -0.151016 
12.4768 5.64658 -0.155014 
12.4977 5.75024 -0.156006 
12.4177 5.86775 -0.160004 
12.4386 5.97141 -0.161011 
12.4595 6.07507 -0.16301 
12.4805 6.17873 -0.164017 
12.5014 6.28239 -0.165009 
12.5223 6.38605 -0.167007 
12.4422 6.50355 -0.171005 
12.4632 6.60722 -0.172012 
12.3831 6.72472 -0.17601 
11.7983 6.91145 -0.192017 
11.7183 7.02895 -0.195007 
11.7392 7.13261 -0.197006 
10.9525 7.34703 -0.21701 
15.2501 -3.46021 0.108994 
15.122 -3.39847 0.104996 
15.1826 -3.25975 0.105988 
14.9602 -3.23649 0.0999908 
14.7378 -3.21324 0.0939941 
14.6097 -3.15149 0.0899963 
14.576 -3.05126 0.0889893 
14.4479 -2.98952 0.0849915 
14.4142 -2.88929 0.0829926 
14.3805 -2.78906 0.0819855 
14.3468 -2.68883 0.0809937 
14.3131 -2.5886 0.0789948 
14.2794 -2.48837 0.0779877 
14.2456 -2.38814 0.0769958 
14.2119 -2.28791 0.0749817 
14.1782 -2.18768 0.0739899 
14.1445 -2.08745 0.0729828 
14.1108 -1.98722 0.0709839 
14.0771 -1.88699 0.0699921 
14.0433 -1.78676 0.0679932 
14.0096 -1.68653 0.0669861 
13.9759 -1.5863 0.0659943 
13.9422 -1.48607 0.0639954 
13.9085 -1.38584 0.0629883 
13.8748 -1.28561 0.0619965 
13.841 -1.18538 0.0599823 
13.8073 -1.08515 0.0589905 
13.7736 -0.984921 0.0579834 
13.7399 -0.88469 0.0559845 
13.7062 -0.784459 0.0549927 
13.6725 -0.684232 0.0529938 
13.6387 -0.584001 0.0519867 
13.605 -0.483771 0.0509949 
13.5713 -0.38354 0.048996 
13.5376 -0.28331 0.0479889 
13.5039 -0.183082 0.0469818 
13.4702 -0.0828517 0.0449829 
13.4364 0.0173788 0.0439911 
13.4027 0.117609 0.042984 
13.369 0.217839 0.0409851 
13.3353 0.318068 0.0399933 
13.3959 0.456784 0.0409851 
13.3622 0.557013 0.0389862 
13.3285 0.657243 0.0379944 
13.2948 0.757474 0.0369873 
13.2611 0.857704 0.0349884 
13.3217 0.99642 0.0359955 
13.288 1.09665 0.0349884 
13.2543 1.19688 0.0339966 
13.2205 1.29711 0.0319824 
13.1868 1.39734 0.0309906 
13.1531 1.49757 0.0299835 
13.1194 1.5978 0.0279846 
12.9913 1.65954 0.0239868 
12.9576 1.75977 0.022995 
12.9239 1.86 0.0219879 
12.8902 1.96023 0.019989 
12.9508 2.09895 0.0209961 
12.9171 2.19918 0.019989 
12.8834 2.29941 0.0189819 
12.944 2.43813 0.019989 
12.9103 2.53836 0.0179901 
12.8766 2.63859 0.016983 
12.8428 2.73882 0.0159912 
12.9035 2.87753 0.016983 
12.8698 2.97776 0.0149841 
12.836 3.07799 0.0139923 
12.8023 3.17822 0.0129852 
12.7686 3.27845 0.0109863 
12.7349 3.37868 0.00999451 
12.7955 3.5174 0.0109863 
12.7618 3.61763 0.00999451 
12.7281 3.71786 0.00799561 
12.6944 3.81809 0.00698853 
12.6607 3.91832 0.00498962 
12.6269 4.01855 0.00398254 
12.5932 4.11878 0.00299072 
12.6539 4.25749 0.00398254 
12.6201 4.35772 0.00198364 
12.5864 4.45795 0.000991821 
12.5527 4.55818 -1.52588e-005 
12.519 4.65841 -0.00201416 
12.5796 4.79713 -0.00100708 
12.5459 4.89736 -0.00201416 
12.5122 4.99759 -0.00300598 
12.5728 5.13631 -0.00201416 
12.5391 5.23653 -0.00401306 
12.5054 5.33677 -0.00500488 
12.4717 5.43699 -0.00601196 
12.4379 5.53722 -0.00801086 
12.4042 5.63745 -0.00901794 
12.3705 5.73768 -0.0110168 
12.3368 5.83792 -0.0120087 
12.3974 5.97663 -0.0110168 
12.3637 6.07686 -0.0120087 
12.33 6.17709 -0.0140076 
12.2963 6.27732 -0.0150146 
12.2626 6.37755 -0.0160065 
12.2288 6.47778 -0.0180054 
12.1951 6.57801 -0.0190125 
12.2558 6.71673 -0.0180054 
12.222 6.81696 -0.0190125 
12.1883 6.91719 -0.0210114 
12.1546 7.01742 -0.0220032 
12.1209 7.11765 -0.0230103 
12.0872 7.21788 -0.0250092 
12.0535 7.31811 -0.0260162 
12.0197 7.41834 -0.0280151 
11.986 7.51857 -0.029007 
11.9523 7.6188 -0.030014 
11.9186 7.71903 -0.0320129 
11.8849 7.81926 -0.0330048 
11.8512 7.91949 -0.0340118 
11.7231 7.98123 -0.0380096 
11.6894 8.08146 -0.0400085 
11.5613 8.1432 -0.0430145 
11.5276 8.24343 -0.0450134 
11.3995 8.30518 -0.0480042 
11.2715 8.36692 -0.0520172 
11.1434 8.42866 -0.056015 
11.0153 8.49041 -0.0600128 
10.8873 8.55215 -0.0640106 
10.8535 8.65238 -0.0650177 
10.7255 8.71412 -0.0690155 
10.5974 8.77587 -0.0730133 
10.4693 8.83761 -0.076004 
10.3413 8.89935 -0.0800171 
10.1189 8.92261 -0.0860138 
9.9908 8.98435 -0.0900116 
9.86273 9.0461 -0.0940094 
9.73466 9.10784 -0.0980072 
9.51225 9.1311 -0.104004 
9.38418 9.19284 -0.108017 
9.16177 9.2161 -0.114014 
9.0337 9.27784 -0.118011 
8.90563 9.33959 -0.121017 
8.77757 9.40133 -0.125015 
8.17776 9.27064 -0.141006 
8.14404 9.37088 -0.143005 
8.01597 9.43262 -0.146011 
7.88791 9.49436 -0.150009 
7.19375 9.32518 -0.168015 
7.16003 9.42541 -0.170013 
7.03196 9.48716 -0.174011 
6.99824 9.58739 -0.175018 
16.9742 -4.62543 0.0699921 
16.8949 -4.55549 0.068985 
16.878 -4.40504 0.0699921 
16.7987 -4.3351 0.0679932 
16.7194 -4.26515 0.0669861 
16.6401 -4.19521 0.0659943 
16.5607 -4.12527 0.0639954 
16.5439 -3.97482 0.0649872 
16.4646 -3.90488 0.0639954 
16.8225 -3.2714 0.0789948 
16.8057 -3.12095 0.0809937 
16.7264 -3.05101 0.0789948 
16.647 -2.98107 0.0779877 
16.5677 -2.91112 0.0759888 
16.4884 -2.84118 0.0749817 
16.3466 -2.85174 0.0709839 
16.1424 -2.94281 0.0649872 
16.0631 -2.87287 0.0639954 
15.9838 -2.80292 0.0619965 
15.9044 -2.73298 0.0609894 
15.8251 -2.66304 0.0599823 
15.7458 -2.59309 0.0579834 
15.604 -2.60366 0.0539856 
15.5247 -2.53371 0.0529938 
15.3829 -2.54427 0.048996 
15.2412 -2.55483 0.0449829 
15.0994 -2.5654 0.0419922 
14.9576 -2.57596 0.0379944 
14.8783 -2.50602 0.0369873 
14.799 -2.43607 0.0349884 
14.7197 -2.36613 0.0339966 
14.6403 -2.29618 0.0319824 
14.561 -2.22624 0.0309906 
14.5442 -2.07579 0.0319824 
14.4649 -2.00585 0.0309906 
14.3855 -1.93591 0.0289917 
14.3062 -1.86597 0.0279846 
14.2269 -1.79602 0.0269928 
14.2725 -1.56507 0.0299835 
14.3181 -1.33412 0.0339966 
14.2388 -1.26417 0.0319824 
14.222 -1.11373 0.0329895 
14.1427 -1.04378 0.0319824 
14.0634 -0.97384 0.0309906 
13.984 -0.903897 0.0289917 
13.9047 -0.833952 0.0279846 
13.8254 -0.764009 0.0259857 
13.7461 -0.694065 0.0249939 
13.6043 -0.704628 0.0209961 
13.4625 -0.715192 0.0179901 
13.3208 -0.72575 0.0139923 
13.179 -0.736313 0.00999451 
13.4864 0.348506 0.0289917 
13.532 0.57946 0.0319824 
13.5151 0.729908 0.0329895 
13.4358 0.799851 0.0319824 
13.419 0.9503 0.0329895 
13.3397 1.02024 0.0319824 
13.3228 1.17069 0.0329895 
13.2435 1.24063 0.0309906 
13.1642 1.31058 0.0299835 
13.1473 1.46102 0.0309906 
13.068 1.53097 0.0299835 
13.0512 1.68142 0.0309906 
13.0343 1.83186 0.0319824 
12.955 1.90181 0.0299835 
12.9382 2.05225 0.0309906 
12.8588 2.1222 0.0299835 
12.842 2.27265 0.0309906 
12.8251 2.42309 0.0319824 
12.8708 2.65404 0.0359955 
12.8539 2.8045 0.0369873 
12.8371 2.95494 0.0379944 
12.8202 3.10539 0.0389862 
12.8034 3.25584 0.0399933 
12.7865 3.40629 0.0409851 
12.7072 3.47623 0.0399933 
12.6903 3.62667 0.0409851 
12.611 3.69662 0.0389862 
12.5317 3.76656 0.0379944 
12.5149 3.91701 0.0389862 
12.4356 3.98695 0.0379944 
12.6061 4.37892 0.04599 
12.5893 4.52937 0.0469818 
12.5099 4.59931 0.04599 
12.4931 4.74975 0.0469818 
12.4762 4.9002 0.0479889 
12.4594 5.05065 0.048996 
12.505 5.2816 0.0519867 
12.4882 5.43205 0.0529938 
12.4713 5.5825 0.0539856 
12.392 5.65244 0.0529938 
12.3751 5.80289 0.0539856 
12.2958 5.87283 0.0529938 
12.279 6.02328 0.0539856 
12.1997 6.09323 0.0519867 
12.1828 6.24367 0.0529938 
12.2284 6.47463 0.0569916 
12.2116 6.62507 0.0579834 
12.1947 6.77552 0.0589905 
12.1779 6.92597 0.0599823 
12.2235 7.15692 0.0639954 
12.1442 7.22686 0.0619965 
12.1273 7.37731 0.0629883 
12.048 7.44726 0.0619965 
12.0312 7.5977 0.0629883 
11.9519 7.66765 0.0619965 
11.935 7.8181 0.0629883 
11.9182 7.96854 0.0639954 
11.9013 8.11899 0.0649872 
11.822 8.18893 0.0629883 
11.8051 8.33938 0.0639954 
11.7258 8.40933 0.0629883 
11.6465 8.47927 0.0619965 
11.5672 8.54921 0.0599823 
11.4254 8.53865 0.0569916 
11.3461 8.60859 0.0549927 
11.2668 8.67854 0.0539856 
11.1875 8.74848 0.0519867 
11.0457 8.73792 0.048996 
10.9664 8.80786 0.0469818 
10.8871 8.8778 0.04599 
10.8077 8.94775 0.0449829 
10.7284 9.01769 0.042984 
10.6491 9.08763 0.0419922 
10.5698 9.15758 0.0399933 
10.428 9.14702 0.0369873 
10.3487 9.21696 0.0349884 
10.2694 9.2869 0.0339966 
10.1901 9.35684 0.0329895 
10.1108 9.42679 0.0309906 
9.96899 9.41623 0.0269928 
9.88967 9.48617 0.0259857 
9.81036 9.55611 0.0249939 
9.66858 9.54555 0.0209961 
9.58926 9.61549 0.019989 
9.44748 9.60493 0.0159912 
9.36817 9.67488 0.0139923 
9.22639 9.66432 0.0109863 
9.14707 9.73426 0.00898743 
9.00529 9.7237 0.00498962 
8.92597 9.79364 0.00398254 
8.78419 9.78307 -1.52588e-005 
8.70488 9.85302 -0.00100708 
8.5631 9.84246 -0.00500488 
8.42132 9.8319 -0.00901794 
8.27954 9.82133 -0.0120087 
8.13776 9.81078 -0.0160065 
8.05845 9.88072 -0.0180054 
7.91667 9.87016 -0.0210114 
7.83735 9.9401 -0.0230103 
7.69557 9.92954 -0.0270081 
7.61625 9.99948 -0.0280151 
7.47447 9.98892 -0.0320129 
7.39516 10.0589 -0.0330048 
7.31584 10.1288 -0.0340118 
7.17406 10.1182 -0.0380096 
7.09475 10.1882 -0.0400085 
6.95297 10.1776 -0.0430145 
6.81119 10.1671 -0.0470123 
6.66941 10.1565 -0.0510101 
6.52763 10.1459 -0.0550079 
6.44831 10.2159 -0.056015 
6.30653 10.2053 -0.0600128 
6.22722 10.2753 -0.0610046 
6.08544 10.2647 -0.0650177 
5.88119 10.1736 -0.0710144 
5.67695 10.0826 -0.0770111 
5.53517 10.072 -0.0810089 
5.39339 10.0614 -0.0850067 
5.2516 10.0509 -0.0890045 
5.04736 9.95982 -0.0950165 
4.90558 9.94926 -0.0990143 
4.7638 9.9387 -0.103012 
4.62202 9.92813 -0.106018 
4.48024 9.91757 -0.110016 
4.15106 9.6655 -0.121017 
3.94681 9.57443 -0.127014 
3.80503 9.56387 -0.131012 
3.66326 9.55331 -0.13501 
3.52148 9.54275 -0.139008 
3.44216 9.61269 -0.140015 
11.7889 8.33646 0.0619965 
11.6991 8.45833 0.0629883 
11.6093 8.5802 0.0639954 
11.5195 8.70206 0.0649872 
11.4297 8.82393 0.0659943 
11.3398 8.9458 0.0669861 
11.25 9.06766 0.0679932 
11.1602 9.18953 0.068985 
11.0565 9.21044 0.0679932 
10.9529 9.23136 0.0659943 
10.8492 9.25227 0.0649872 
10.7456 9.27319 0.0639954 
10.6419 9.29411 0.0619965 
10.5382 9.31502 0.0609894 
10.4484 9.43689 0.0619965 
10.3448 9.4578 0.0599823 
10.255 9.57967 0.0619965 
10.1513 9.60058 0.0599823 
10.0476 9.6215 0.0589905 
9.94397 9.64241 0.0569916 
9.85416 9.76428 0.0579834 
9.73665 9.68425 0.0549927 
9.63299 9.70516 0.0529938 
9.52933 9.72607 0.0519867 
9.42567 9.74699 0.0509949 
9.32201 9.76791 0.048996 
9.21835 9.78882 0.0479889 
9.12854 9.91069 0.048996 
9.02487 9.9316 0.0479889 
8.93506 10.0535 0.048996 
8.8314 10.0744 0.0469818 
8.74158 10.1963 0.0479889 
8.63792 10.2172 0.0469818 
8.53426 10.2381 0.04599 
8.4306 10.259 0.0439911 
8.32694 10.2799 0.042984 
8.20944 10.1999 0.0389862 
8.10578 10.2208 0.0379944 
8.00212 10.2417 0.0359955 
7.89846 10.2626 0.0349884 
7.7948 10.2835 0.0339966 
7.69114 10.3045 0.0319824 
7.60132 10.4263 0.0329895 
7.49766 10.4472 0.0319824 
7.394 10.4682 0.0309906 
7.29034 10.4891 0.0289917 
7.18668 10.51 0.0279846 
7.08302 10.5309 0.0259857 
6.97936 10.5518 0.0249939 
6.86186 10.4718 0.0209961 
6.7582 10.4927 0.019989 
6.65454 10.5136 0.0189819 
6.55088 10.5345 0.016983 
6.44722 10.5554 0.0159912 
6.34356 10.5763 0.0139923 
6.22605 10.4963 0.0109863 
6.12239 10.5172 0.00898743 
6.01873 10.5381 0.00799561 
5.91507 10.5591 0.00698853 
5.81141 10.58 0.00498962 
5.70775 10.6009 0.00398254 
5.60409 10.6218 0.00198364 
5.50043 10.6427 0.000991821 
5.39677 10.6636 -1.52588e-005 
5.27927 10.5836 -0.00401306 
5.16176 10.5036 -0.00801086 
5.0581 10.5245 -0.00901794 
4.95444 10.5454 -0.0110168 
4.83694 10.4654 -0.0140076 
4.73327 10.4863 -0.0160065 
4.62961 10.5072 -0.0170135 
4.52596 10.5281 -0.0180054 
4.40845 10.4481 -0.0220032 
4.30479 10.469 -0.0240173 
4.18729 10.3889 -0.0270081 
4.08363 10.4099 -0.029007 
3.96612 10.3298 -0.0330048 
3.86246 10.3507 -0.0340118 
3.7588 10.3716 -0.0350037 
3.6413 10.2916 -0.0390167 
3.53764 10.3125 -0.0400085 
3.43398 10.3334 -0.0420074 
3.31647 10.2534 -0.0460052 
3.21281 10.2743 -0.0470123 
3.09531 10.1943 -0.0510101 
2.9778 10.1142 -0.0550079 
2.8603 10.0342 -0.0580139 
2.75664 10.0551 -0.0600128 
2.62529 9.87414 -0.0660095 
2.50778 9.7941 -0.0700073 
2.39028 9.71406 -0.0730133 
2.27278 9.63403 -0.0770111 
2.15527 9.55399 -0.0810089 
2.03777 9.47395 -0.0850067 
1.90642 9.29296 -0.0910034 
9.4851 9.9807 -0.00901794 
9.3079 10.1357 -0.00601196 
9.20767 10.102 -0.00700378 
9.10744 10.0682 -0.00901794 
9.00721 10.0345 -0.0100098 
8.86849 10.0952 -0.00901794 
8.76826 10.0614 -0.0100098 
8.62955 10.1221 -0.00901794 
8.49083 10.1827 -0.00801086 
8.35211 10.2433 -0.00700378 
8.25188 10.2096 -0.00901794 
8.11317 10.2703 -0.00700378 
7.93597 10.4252 -0.00401306 
7.79725 10.4859 -0.00300598 
7.65853 10.5465 -0.00201416 
7.51982 10.6071 -0.00100708 
7.41959 10.5734 -0.00201416 
7.31936 10.5397 -0.00401306 
7.18064 10.6003 -0.00201416 
7.04192 10.661 -0.00100708 
6.94169 10.6272 -0.00300598 
6.84146 10.5935 -0.00401306 
6.70275 10.6542 -0.00300598 
6.60252 10.6204 -0.00401306 
6.4638 10.6811 -0.00300598 
6.32508 10.7417 -0.00201416 
6.18637 10.8023 -0.00100708 
6.04765 10.863 -1.52588e-005 
5.94742 10.8293 -0.00201416 
5.84719 10.7955 -0.00300598 
5.74696 10.7618 -0.00401306 
5.60825 10.8225 -0.00300598 
5.50802 10.7887 -0.00500488 
5.40779 10.755 -0.00601196 
5.30756 10.7213 -0.00700378 
5.16884 10.7819 -0.00601196 
5.06861 10.7482 -0.00801086 
4.96838 10.7145 -0.00901794 
4.86815 10.6808 -0.0100098 
4.72943 10.7414 -0.00901794 
4.6292 10.7077 -0.0110168 
4.52897 10.674 -0.0120087 
4.42874 10.6403 -0.0130157 
4.29003 10.7009 -0.0120087 
4.1898 10.6672 -0.0140076 
4.08957 10.6335 -0.0150146 
3.98934 10.5997 -0.0160065 
3.88911 10.566 -0.0180054 
3.78888 10.5323 -0.0190125 
3.68865 10.4986 -0.0210114 
3.58842 10.4649 -0.0220032 
3.48819 10.4312 -0.0230103 
3.38796 10.3974 -0.0250092 
3.24924 10.4581 -0.0240173 
3.14901 10.4244 -0.0250092 
3.04878 10.3906 -0.0260162 
2.91007 10.4513 -0.0250092 
2.84832 10.3232 -0.029007 
2.74809 10.2895 -0.030014 
2.64786 10.2558 -0.0320129 
2.54763 10.2221 -0.0330048 
2.4474 10.1883 -0.0350037 
2.34717 10.1546 -0.0360107 
2.24694 10.1209 -0.0370178 
2.14671 10.0872 -0.0390167 
2.04648 10.0535 -0.0400085 
1.94625 10.0198 -0.0410156 
1.84602 9.98604 -0.0430145 
1.74579 9.95232 -0.0440063 
1.64556 9.91861 -0.0450134 
1.54533 9.88489 -0.0470123 
1.4451 9.85117 -0.0480042 
1.38336 9.72311 -0.0520172 
1.32162 9.59504 -0.056015 
1.22139 9.56132 -0.0570068 
1.12116 9.52761 -0.0590057 
1.02093 9.49389 -0.0600128 
0.920698 9.46017 -0.0610046 
0.78198 9.52081 -0.0600128 
0.681752 9.48709 -0.0620117 
0.620008 9.35902 -0.0650177 
0.519777 9.3253 -0.0670166 
0.419548 9.29158 -0.0680084 
0.319318 9.25787 -0.0690155 
0.257574 9.1298 -0.0730133 
0.157344 9.09609 -0.0750122 
0.0571141 9.06237 -0.076004 
-0.00462844 8.9343 -0.0800171 
-0.104859 8.90059 -0.0810089 
-0.205089 8.86687 -0.082016 
-0.266831 8.7388 -0.0860138 
-0.367062 8.70508 -0.0880127 
-0.428807 8.57702 -0.0910034 
-0.490549 8.44896 -0.0950165 
4.88689 11.4279 -0.0770111 
4.73645 11.411 -0.076004 
4.58599 11.3942 -0.0750122 
4.43555 11.3773 -0.0740051 
4.2851 11.3605 -0.0730133 
4.13465 11.3436 -0.0720062 
4.06471 11.2643 -0.0730133 
3.91426 11.2475 -0.0720062 
3.84432 11.1681 -0.0730133 
3.69387 11.1513 -0.0720062 
3.62393 11.072 -0.0730133 
3.47348 11.0551 -0.0720062 
3.40354 10.9758 -0.0740051 
3.25309 10.959 -0.0730133 
3.10264 10.9421 -0.0720062 
2.95219 10.9253 -0.0710144 
2.88225 10.846 -0.0720062 
2.81231 10.7666 -0.0730133 
2.74236 10.6873 -0.0750122 
2.67242 10.608 -0.076004 
2.52197 10.5912 -0.0750122 
2.29102 10.6368 -0.0720062 
2.06007 10.6824 -0.0680084 
1.90962 10.6655 -0.0670166 
1.83968 10.5862 -0.0680084 
1.68923 10.5694 -0.0670166 
1.61928 10.4901 -0.0690155 
1.46884 10.4732 -0.0680084 
1.39889 10.3939 -0.0690155 
1.32895 10.3146 -0.0700073 
1.1785 10.2977 -0.0690155 
1.10856 10.2184 -0.0710144 
0.877608 10.264 -0.0670166 
0.72716 10.2472 -0.0660095 
0.657216 10.1679 -0.0670166 
0.506771 10.151 -0.0660095 
0.436827 10.0717 -0.0680084 
0.366883 9.9924 -0.0690155 
0.29694 9.91309 -0.0710144 
0.146491 9.89624 -0.0690155 
0.0765475 9.81693 -0.0710144 
0.00660651 9.73761 -0.0720062 
-0.143842 9.72076 -0.0710144 
-0.213785 9.64145 -0.0730133 
-0.283729 9.56213 -0.0740051 
-0.353673 9.48282 -0.0750122 
-0.423617 9.4035 -0.0770111 
-0.493558 9.32419 -0.0780182 
-0.563501 9.24487 -0.07901 
-0.633445 9.16556 -0.0810089 
-0.78389 9.14871 -0.0800171 
-0.853834 9.06939 -0.0810089 
-0.923777 8.99008 -0.082016 
-1.07423 8.97323 -0.0810089 
-1.14417 8.89392 -0.0830078 
-1.21411 8.8146 -0.0840149 
-1.28405 8.73528 -0.0850067 
-1.354 8.65597 -0.0870056 
-1.42394 8.57666 -0.0880127 
-1.49388 8.49734 -0.0900116 
-1.56383 8.41803 -0.0910034 
-1.63377 8.33871 -0.0920105 
-1.70371 8.2594 -0.0940094 
-1.77366 8.18008 -0.0950165 
-1.8436 8.10077 -0.0960083 
-1.91354 8.02145 -0.0980072 
-1.98349 7.94214 -0.0990143 
-2.05343 7.86282 -0.100006 
-2.12337 7.78351 -0.102005 
-2.19332 7.7042 -0.103012 
-2.26326 7.62488 -0.105011 
-2.3332 7.54557 -0.106018 
-2.40315 7.46625 -0.10701 
-2.47309 7.38694 -0.109009 
-2.54303 7.30762 -0.110016 
-2.61297 7.22831 -0.111008 
-2.68292 7.14899 -0.113007 
-2.75286 7.06968 -0.114014 
-2.82281 6.99036 -0.115005 
-2.89275 6.91105 -0.117004 
-2.96269 6.83173 -0.118011 
-3.03263 6.75242 -0.12001 
-3.10258 6.6731 -0.121017 
-3.17252 6.59379 -0.122009 
-3.24246 6.51447 -0.124008 
-3.31241 6.43516 -0.125015 
-3.30185 6.29338 -0.129013 
-3.37179 6.21406 -0.130005 
-3.44173 6.13475 -0.132004 
-3.51167 6.05543 -0.133011 
-3.50111 5.91365 -0.137009 
-3.57106 5.83434 -0.138016 
-3.641 5.75503 -0.139008 
-3.71094 5.67571 -0.141006 
-3.78089 5.5964 -0.142014 
-3.85083 5.51708 -0.144012 
-3.92077 5.43777 -0.145004 
-4.07122 5.42092 -0.144012 
-4.14116 5.3416 -0.145004 
-4.21111 5.26229 -0.147003 
-4.20054 5.12051 -0.150009 
-4.27049 5.04119 -0.152008 
-4.34043 4.96188 -0.153015 
-4.41038 4.88257 -0.154007 
-4.39981 4.74078 -0.158005 
-4.46976 4.66147 -0.160004 
-4.5397 4.58216 -0.161011 
-4.60964 4.50284 -0.162018 
-4.67959 4.42352 -0.164017 
-4.74953 4.34421 -0.165009 
-4.81947 4.2649 -0.166016 
-4.80891 4.12312 -0.170013 
-4.87885 4.0438 -0.172012 
-4.9488 3.96449 -0.173004 
-4.93824 3.82271 -0.177017 
-5.00818 3.74339 -0.178009 
-4.99762 3.60161 -0.182007 
-5.06756 3.5223 -0.183014 
-5.1375 3.44298 -0.185013 
-5.20745 3.36367 -0.186005 
-5.27739 3.28436 -0.187012 
-5.26683 3.14257 -0.19101 
-5.33677 3.06326 -0.193008 
-5.48722 3.04641 -0.192017 
-5.55716 2.9671 -0.193008 
-5.6271 2.88778 -0.194016 
-5.61654 2.746 -0.198013 
-5.68649 2.66669 -0.199005 
-5.67592 2.5249 -0.203018 
-5.34335 2.13326 -0.21701 
-5.33278 1.99148 -0.220016 
-2.56574 7.48209 -0.139008 
-2.6876 7.39228 -0.138016 
-2.70852 7.28862 -0.139008 
-2.72943 7.18496 -0.140015 
-3.25511 7.15052 -0.129013 
-3.37697 7.0607 -0.128006 
-3.49885 6.97089 -0.127014 
-3.51976 6.86723 -0.129013 
-3.64163 6.77741 -0.128006 
-3.66254 6.67375 -0.129013 
-3.68345 6.57009 -0.130005 
-3.80532 6.48028 -0.129013 
-3.82624 6.37662 -0.131012 
-3.84715 6.27296 -0.132004 
-3.96902 6.18314 -0.131012 
-3.98994 6.07948 -0.132004 
-4.01085 5.97582 -0.134018 
-4.03176 5.87216 -0.13501 
-4.15364 5.78234 -0.134018 
-4.17455 5.67868 -0.13501 
-4.19546 5.57502 -0.137009 
-4.21638 5.47136 -0.138016 
-4.33824 5.38155 -0.137009 
-4.35916 5.27789 -0.138016 
-4.27912 5.16038 -0.142014 
-4.30004 5.05672 -0.144012 
-4.72476 5.00844 -0.13501 
-4.84663 4.91862 -0.134018 
-4.9685 4.82881 -0.133011 
-5.09036 4.73899 -0.132004 
-5.11128 4.63533 -0.134018 
-5.13219 4.53167 -0.13501 
-5.1531 4.42801 -0.136017 
-5.27498 4.3382 -0.13501 
-5.39684 4.24838 -0.134018 
-5.41776 4.14472 -0.13501 
-5.53963 4.0549 -0.134018 
-5.66149 3.96509 -0.133011 
-5.68241 3.86143 -0.13501 
-5.70332 3.75777 -0.136017 
-5.82519 3.66795 -0.13501 
-5.8461 3.56429 -0.136017 
-5.86702 3.46063 -0.138016 
-5.98889 3.37082 -0.137009 
-6.0098 3.26715 -0.138016 
-6.03072 3.1635 -0.139008 
-6.15258 3.07368 -0.138016 
-6.1735 2.97002 -0.140015 
-6.19441 2.86636 -0.141006 
-6.21533 2.7627 -0.143005 
-6.23624 2.65904 -0.144012 
-6.25716 2.55538 -0.145004 
-6.27807 2.45172 -0.147003 
-6.29899 2.34806 -0.14801 
-6.3199 2.2444 -0.149017 
-6.34082 2.14074 -0.151016 
-6.36173 2.03708 -0.152008 
-6.2817 1.91957 -0.156006 
-6.30261 1.81591 -0.157013 
-6.22258 1.69841 -0.161011 
-6.24349 1.59475 -0.162018 
-6.26441 1.49109 -0.164017 
-6.28532 1.38743 -0.165009 
-6.30624 1.28377 -0.166016 
-6.32715 1.18011 -0.168015 
-6.34806 1.07645 -0.169006 
-6.36898 0.972787 -0.171005 
-6.3899 0.869128 -0.172012 
-6.41081 0.765468 -0.173004 
-6.33077 0.647961 -0.177017 
-6.35169 0.544302 -0.178009 
-6.3726 0.440643 -0.180008 
-6.39352 0.336984 -0.181015 
-6.31349 0.219479 -0.185013 
-6.3344 0.115817 -0.186005 
-6.25436 -0.00168666 -0.190018 
-6.27528 -0.105348 -0.192017 
-6.19524 -0.22285 -0.195007 
-6.1152 -0.340357 -0.199005 
-6.03517 -0.45786 -0.203018 
-6.05608 -0.56152 -0.20401 
-5.97604 -0.679026 -0.208008 
-5.89601 -0.796531 -0.212006 
-5.81597 -0.914034 -0.216003 
-5.73594 -1.03154 -0.219009 
-5.75685 -1.1352 -0.221008 
-5.67681 -1.2527 -0.225006 
-5.69773 -1.35636 -0.226013 
-6.57587 2.55318 -0.133011 
-6.6365 2.41446 -0.132004 
-6.69713 2.27575 -0.131012 
-6.75776 2.13703 -0.130005 
-6.72405 2.0368 -0.132004 
-6.78468 1.89809 -0.130005 
-6.75096 1.79786 -0.132004 
-6.81159 1.65914 -0.131012 
-6.87223 1.52042 -0.130005 
-6.83851 1.42019 -0.131012 
-6.89914 1.28148 -0.130005 
-6.86543 1.18125 -0.131012 
-6.83171 1.08102 -0.133011 
-6.79799 0.980787 -0.134018 
-6.85863 0.84207 -0.133011 
-6.82491 0.741839 -0.134018 
-6.88554 0.603125 -0.133011 
-6.85182 0.502895 -0.13501 
-6.8181 0.402666 -0.136017 
-6.87874 0.263949 -0.13501 
-6.84502 0.16372 -0.136017 
-6.8113 0.0634888 -0.138016 
-6.77759 -0.0367408 -0.139008 
-6.83822 -0.175458 -0.138016 
-6.8045 -0.275688 -0.139008 
-6.77079 -0.375918 -0.141006 
-6.73707 -0.476149 -0.142014 
-6.70335 -0.576377 -0.144012 
-6.66963 -0.676609 -0.145004 
-6.63592 -0.776837 -0.146011 
-6.6022 -0.877069 -0.14801 
-6.56848 -0.977297 -0.149017 
-6.53477 -1.07753 -0.150009 
-6.50105 -1.17776 -0.152008 
-6.46733 -1.27799 -0.153015 
-6.43362 -1.37822 -0.154007 
-6.3999 -1.47845 -0.156006 
-6.36618 -1.57868 -0.157013 
-6.33246 -1.67891 -0.159012 
-6.29875 -1.77914 -0.160004 
-6.26503 -1.87937 -0.161011 
-6.23131 -1.9796 -0.16301 
-6.1976 -2.07983 -0.164017 
-6.16388 -2.18006 -0.165009 
-6.13016 -2.28029 -0.167007 
-6.09645 -2.38052 -0.168015 
-6.06273 -2.48075 -0.170013 
-6.02901 -2.58098 -0.171005 
-5.90095 -2.64272 -0.175018 
-5.86723 -2.74295 -0.17601 
-5.83351 -2.84318 -0.177017 
-5.79979 -2.94341 -0.179016 
-5.76608 -3.04364 -0.180008 
-5.73236 -3.14387 -0.181015 
-5.69864 -3.2441 -0.183014 
-5.66492 -3.34433 -0.184006 
-5.63121 -3.44456 -0.186005 
-5.50314 -3.5063 -0.189011 
-5.46942 -3.60653 -0.19101 
-5.43571 -3.70676 -0.192017 
-5.40199 -3.80699 -0.193008 
-5.27393 -3.86874 -0.197006 
-5.24021 -3.96897 -0.199005 
-5.20649 -4.0692 -0.200012 
-5.17277 -4.16942 -0.201004 
-5.13906 -4.26966 -0.203018 
-5.10534 -4.36989 -0.20401 
-4.97727 -4.43163 -0.208008 
-4.94356 -4.53186 -0.209015 
-4.90984 -4.63209 -0.211014 
-4.78177 -4.69383 -0.214005 
-4.74806 -4.79406 -0.216003 
-4.71434 -4.89429 -0.21701 
-4.58627 -4.95604 -0.221008 
-4.55255 -5.05626 -0.222015 
-4.51884 -5.15649 -0.224014 
-4.48512 -5.25672 -0.225006 
-4.45141 -5.35696 -0.226013 
-4.41769 -5.45718 -0.228012 
-4.38397 -5.55741 -0.229004 
-4.2559 -5.61916 -0.233017 
-4.22219 -5.71939 -0.234009 
-4.09412 -5.78113 -0.238007 
-4.06041 -5.88136 -0.239014 
-4.02669 -5.98159 -0.241013 
-3.99297 -6.08182 -0.242004 
-3.86491 -6.14357 -0.246017 
-3.83119 -6.24379 -0.247009 
-3.79747 -6.34402 -0.249008 
-3.76375 -6.44425 -0.250015 
-3.73004 -6.54449 -0.251007 
-3.60197 -6.60623 -0.255005 
-3.56826 -6.70646 -0.257004 
-3.53454 -6.80669 -0.258011 
-3.50082 -6.90692 -0.259018 
-3.37276 -6.96866 -0.263016 
-3.33904 -7.06889 -0.264008 
-3.30532 -7.16912 -0.266006 
-3.2716 -7.26935 -0.267014 
-3.23789 -7.36958 -0.269012 
-3.10982 -7.43132 -0.272003 
-3.0761 -7.53155 -0.274017 
-3.04238 -7.63178 -0.275009 
-3.00867 -7.73201 -0.276016 
-2.97495 -7.83225 -0.278015 
-2.84689 -7.89399 -0.282013 
-2.81317 -7.99422 -0.283005 
-2.77945 -8.09445 -0.284012 
-2.74574 -8.19468 -0.286011 
-2.61767 -8.25642 -0.289017 
-2.58395 -8.35665 -0.291016 
-2.55023 -8.45688 -0.292007 
-2.42217 -8.51863 -0.296005 
-2.38845 -8.61885 -0.297012 
-2.35473 -8.71908 -0.299011 
-2.22667 -8.78083 -0.303009 
-2.19295 -8.88106 -0.304016 
-2.15923 -8.98129 -0.305008 
-2.03117 -9.04303 -0.309006 
-1.99745 -9.14326 -0.310013 
