ply
format ascii 1.0
comment VCGLIB generated
element vertex 872
property float x
property float y
property float z
element face 0
property list uchar int vertex_indices
end_header
17.7073 -50.2033 -179.532 
17.8154 -50.151 -179.532 
17.9235 -50.0987 -179.532 
18.0316 -50.0464 -179.532 
18.1397 -49.9941 -179.532 
18.2479 -49.9418 -179.532 
18.356 -49.8895 -179.533 
18.4641 -49.8372 -179.533 
18.5722 -49.785 -179.533 
18.6803 -49.7327 -179.533 
18.7884 -49.6804 -179.533 
18.8966 -49.6281 -179.533 
19.0552 -49.6698 -179.527 
19.1634 -49.6175 -179.527 
19.2715 -49.5652 -179.528 
19.3796 -49.5129 -179.528 
19.4877 -49.4606 -179.528 
19.5958 -49.4083 -179.528 
19.704 -49.356 -179.528 
19.8121 -49.3037 -179.528 
19.9708 -49.3454 -179.522 
20.0789 -49.2931 -179.522 
20.187 -49.2408 -179.523 
20.2951 -49.1885 -179.523 
20.4032 -49.1362 -179.523 
20.5113 -49.0839 -179.523 
20.67 -49.1256 -179.517 
20.7781 -49.0733 -179.517 
20.8863 -49.021 -179.517 
20.9944 -48.9687 -179.517 
21.1531 -49.0104 -179.511 
21.2612 -48.9581 -179.511 
21.3693 -48.9058 -179.512 
21.528 -48.9475 -179.505 
21.6361 -48.8952 -179.506 
21.7948 -48.9369 -179.499 
21.9029 -48.8846 -179.5 
22.0616 -48.9263 -179.493 
22.2203 -48.9679 -179.487 
22.3284 -48.9156 -179.487 
22.4365 -48.8633 -179.488 
22.5952 -48.905 -179.481 
22.7033 -48.8527 -179.482 
22.862 -48.8944 -179.475 
22.9701 -48.8421 -179.476 
23.1288 -48.8838 -179.469 
23.2369 -48.8315 -179.47 
23.3956 -48.8732 -179.463 
23.5543 -48.9148 -179.457 
23.6624 -48.8626 -179.457 
23.8211 -48.9042 -179.451 
23.9798 -48.9459 -179.445 
24.1385 -48.9876 -179.439 
24.2972 -49.0293 -179.433 
24.4053 -48.977 -179.433 
24.564 -49.0186 -179.427 
24.7227 -49.0603 -179.421 
24.8308 -49.008 -179.421 
24.9895 -49.0497 -179.415 
25.0976 -48.9974 -179.415 
25.2563 -49.0391 -179.408 
25.3644 -48.9868 -179.409 
25.4725 -48.9345 -179.409 
25.6312 -48.9762 -179.403 
25.7899 -49.0179 -179.396 
25.898 -48.9656 -179.397 
26.0567 -49.0072 -179.39 
26.2154 -49.0489 -179.384 
26.3235 -48.9966 -179.384 
26.4822 -49.0383 -179.378 
26.5903 -48.986 -179.378 
26.749 -49.0277 -179.372 
26.8571 -48.9754 -179.372 
27.0158 -49.0171 -179.366 
27.1239 -48.9648 -179.366 
27.232 -48.9125 -179.367 
27.3907 -48.9542 -179.36 
27.4988 -48.9019 -179.361 
27.6575 -48.9435 -179.354 
27.7656 -48.8913 -179.355 
27.9243 -48.9329 -179.348 
28.0324 -48.8806 -179.349 
28.1911 -48.9223 -179.342 
28.3498 -48.964 -179.336 
28.5085 -49.0057 -179.33 
28.6166 -48.9534 -179.33 
28.7753 -48.9951 -179.324 
28.934 -49.0367 -179.318 
29.0926 -49.0784 -179.312 
29.2008 -49.0261 -179.312 
29.3595 -49.0678 -179.306 
29.5181 -49.1095 -179.3 
29.6263 -49.0572 -179.3 
29.7849 -49.0988 -179.294 
29.8931 -49.0466 -179.294 
30.0012 -48.9943 -179.294 
30.1093 -48.942 -179.294 
30.2174 -48.8897 -179.294 
30.3255 -48.8374 -179.294 
30.4336 -48.7851 -179.295 
30.5418 -48.7328 -179.295 
30.7005 -48.7745 -179.289 
30.8591 -48.8162 -179.282 
31.0178 -48.8578 -179.276 
31.2271 -48.9935 -179.264 
31.4363 -49.1291 -179.251 
31.6456 -49.2648 -179.239 
31.9054 -49.4944 -179.22 
32.1147 -49.63 -179.207 
32.3239 -49.7657 -179.195 
32.5332 -49.9013 -179.182 
32.7424 -50.037 -179.17 
32.9011 -50.0787 -179.164 
33.0598 -50.1203 -179.157 
33.1679 -50.068 -179.158 
33.276 -50.0157 -179.158 
33.3842 -49.9634 -179.158 
33.4923 -49.9112 -179.158 
33.5498 -49.7649 -179.165 
33.6579 -49.7126 -179.165 
33.7661 -49.6603 -179.165 
33.8742 -49.608 -179.165 
33.9317 -49.4618 -179.172 
34.0398 -49.4095 -179.172 
34.148 -49.3572 -179.172 
34.2561 -49.3049 -179.172 
34.3642 -49.2526 -179.172 
34.4723 -49.2003 -179.172 
34.5804 -49.148 -179.173 
34.6885 -49.0957 -179.173 
34.7967 -49.0434 -179.173 
34.8542 -48.8971 -179.179 
34.9623 -48.8448 -179.18 
35.0704 -48.7926 -179.18 
35.1786 -48.7403 -179.18 
35.2867 -48.688 -179.18 
35.3948 -48.6357 -179.18 
35.5029 -48.5834 -179.18 
35.611 -48.5311 -179.181 
35.7192 -48.4788 -179.181 
35.8273 -48.4265 -179.181 
35.9354 -48.3742 -179.181 
36.0435 -48.3219 -179.181 
36.1516 -48.2696 -179.181 
36.2597 -48.2173 -179.182 
36.3679 -48.165 -179.182 
36.476 -48.1127 -179.182 
36.5841 -48.0605 -179.182 
36.6922 -48.0082 -179.182 
36.8003 -47.9559 -179.182 
36.9084 -47.9036 -179.183 
37.0166 -47.8513 -179.183 
37.1247 -47.799 -179.183 
37.2328 -47.7467 -179.183 
37.3915 -47.7884 -179.177 
37.4996 -47.7361 -179.177 
37.6077 -47.6838 -179.177 
37.7664 -47.7255 -179.171 
37.8745 -47.6732 -179.171 
37.9826 -47.6209 -179.171 
38.0908 -47.5686 -179.172 
38.1989 -47.5163 -179.172 
38.307 -47.464 -179.172 
38.4151 -47.4117 -179.172 
38.5232 -47.3594 -179.172 
38.6313 -47.3071 -179.172 
38.7395 -47.2548 -179.173 
38.8476 -47.2025 -179.173 
38.9557 -47.1502 -179.173 
39.0638 -47.098 -179.173 
39.1719 -47.0457 -179.173 
39.28 -46.9934 -179.173 
39.3376 -46.8471 -179.18 
39.4457 -46.7948 -179.18 
39.5538 -46.7425 -179.18 
39.6619 -46.6902 -179.18 
39.7701 -46.6379 -179.181 
39.8782 -46.5856 -179.181 
39.9863 -46.5333 -179.181 
40.0944 -46.481 -179.181 
40.152 -46.3348 -179.188 
40.2601 -46.2825 -179.188 
40.3682 -46.2302 -179.188 
40.4763 -46.1779 -179.188 
40.5844 -46.1256 -179.188 
40.6926 -46.0733 -179.188 
40.7501 -45.9271 -179.195 
40.8582 -45.8748 -179.195 
40.9663 -45.8225 -179.195 
41.0745 -45.7702 -179.195 
41.132 -45.6239 -179.202 
41.2401 -45.5716 -179.202 
41.3482 -45.5193 -179.202 
41.4058 -45.3731 -179.209 
41.5139 -45.3208 -179.209 
41.622 -45.2685 -179.209 
41.7301 -45.2162 -179.209 
41.7877 -45.0699 -179.216 
41.8958 -45.0176 -179.216 
42.0039 -44.9653 -179.216 
42.112 -44.913 -179.216 
42.2202 -44.8608 -179.216 
42.3283 -44.8085 -179.217 
42.4364 -44.7562 -179.217 
42.5445 -44.7039 -179.217 
42.6526 -44.6516 -179.217 
42.7607 -44.5993 -179.217 
42.8689 -44.547 -179.217 
42.977 -44.4947 -179.218 
43.0851 -44.4424 -179.218 
43.1932 -44.3901 -179.218 
43.3013 -44.3378 -179.218 
43.4094 -44.2855 -179.218 
43.467 -44.1393 -179.225 
43.5751 -44.087 -179.225 
43.6832 -44.0347 -179.225 
43.7914 -43.9824 -179.225 
43.8489 -43.8361 -179.232 
43.957 -43.7838 -179.232 
44.0651 -43.7315 -179.232 
44.1227 -43.5853 -179.239 
44.2308 -43.533 -179.239 
44.2883 -43.3867 -179.245 
44.3965 -43.3344 -179.246 
44.5046 -43.2821 -179.246 
44.5621 -43.1359 -179.252 
44.6702 -43.0836 -179.252 
44.7784 -43.0313 -179.253 
44.8359 -42.885 -179.259 
44.944 -42.8327 -179.259 
45.0016 -42.6865 -179.266 
45.1097 -42.6342 -179.266 
45.2178 -42.5819 -179.266 
45.2754 -42.4356 -179.273 
45.3835 -42.3833 -179.273 
45.441 -42.2371 -179.279 
45.5491 -42.1848 -179.279 
45.6573 -42.1325 -179.28 
45.7148 -41.9862 -179.286 
45.8229 -41.9339 -179.286 
45.931 -41.8816 -179.286 
46.0392 -41.8293 -179.287 
46.1473 -41.777 -179.287 
46.2048 -41.6308 -179.293 
46.313 -41.5785 -179.293 
46.4211 -41.5262 -179.294 
46.5292 -41.4739 -179.294 
46.6373 -41.4216 -179.294 
46.7454 -41.3693 -179.294 
46.803 -41.2231 -179.301 
46.9111 -41.1708 -179.301 
47.0192 -41.1185 -179.301 
47.0768 -40.9722 -179.307 
47.1849 -40.9199 -179.308 
47.2424 -40.7736 -179.314 
47.3505 -40.7214 -179.314 
47.4587 -40.6691 -179.314 
47.5162 -40.5228 -179.321 
47.6243 -40.4705 -179.321 
47.6819 -40.3242 -179.328 
47.7394 -40.178 -179.334 
47.8475 -40.1257 -179.334 
47.9051 -39.9794 -179.341 
47.9626 -39.8332 -179.347 
48.0202 -39.6869 -179.354 
48.0777 -39.5406 -179.36 
48.1353 -39.3944 -179.367 
48.1928 -39.2481 -179.373 
48.2504 -39.1018 -179.38 
48.3079 -38.9556 -179.386 
48.3655 -38.8093 -179.393 
48.423 -38.6631 -179.399 
48.4806 -38.5168 -179.406 
48.5887 -38.4645 -179.406 
48.6968 -38.4122 -179.406 
48.7544 -38.2659 -179.413 
48.8625 -38.2137 -179.413 
48.9706 -38.1614 -179.413 
49.0281 -38.0151 -179.419 
49.1363 -37.9628 -179.42 
49.2444 -37.9105 -179.42 
49.3019 -37.7643 -179.426 
49.3595 -37.618 -179.433 
49.4676 -37.5657 -179.433 
49.5251 -37.4194 -179.439 
49.6333 -37.3671 -179.44 
49.6908 -37.2209 -179.446 
49.7989 -37.1686 -179.446 
49.8565 -37.0223 -179.453 
49.9646 -36.97 -179.453 
50.0727 -36.9177 -179.453 
0.422342 -59.779 -179.139 
0.541826 -59.7668 -179.139 
0.661307 -59.7547 -179.139 
0.780789 -59.7425 -179.139 
0.90027 -59.7304 -179.139 
1.01975 -59.7182 -179.139 
1.13923 -59.706 -179.14 
1.25872 -59.6939 -179.14 
1.3782 -59.6817 -179.14 
1.4823 -59.564 -179.146 
1.60179 -59.5518 -179.147 
1.72127 -59.5396 -179.147 
1.82537 -59.4219 -179.153 
1.94485 -59.4097 -179.153 
2.04896 -59.292 -179.16 
2.16844 -59.2798 -179.16 
2.28792 -59.2676 -179.16 
2.4074 -59.2555 -179.16 
2.52689 -59.2433 -179.161 
2.63099 -59.1256 -179.167 
2.75047 -59.1134 -179.167 
2.86995 -59.1012 -179.167 
2.98944 -59.0891 -179.168 
3.10892 -59.0769 -179.168 
3.2284 -59.0648 -179.168 
3.3325 -58.947 -179.174 
3.45199 -58.9348 -179.175 
3.57147 -58.9227 -179.175 
3.67557 -58.8049 -179.181 
3.79505 -58.7928 -179.181 
3.89915 -58.675 -179.188 
4.01864 -58.6628 -179.188 
4.13812 -58.6507 -179.188 
4.24222 -58.5329 -179.195 
4.36171 -58.5208 -179.195 
4.48119 -58.5086 -179.195 
4.58529 -58.3908 -179.202 
4.70478 -58.3787 -179.202 
4.80888 -58.2609 -179.208 
4.92836 -58.2487 -179.208 
5.04784 -58.2366 -179.209 
5.15194 -58.1188 -179.215 
5.27143 -58.1067 -179.215 
5.37553 -57.9889 -179.222 
5.49501 -57.9767 -179.222 
5.59912 -57.859 -179.229 
5.7186 -57.8468 -179.229 
5.83808 -57.8347 -179.229 
5.95756 -57.8225 -179.229 
6.07705 -57.8103 -179.229 
6.19653 -57.7982 -179.229 
6.31601 -57.786 -179.23 
6.43549 -57.7739 -179.23 
6.55498 -57.7617 -179.23 
6.65908 -57.6439 -179.236 
6.77856 -57.6318 -179.237 
6.89805 -57.6196 -179.237 
7.00215 -57.5019 -179.243 
7.10625 -57.3841 -179.25 
7.21035 -57.2663 -179.256 
7.32983 -57.2542 -179.256 
7.43394 -57.1364 -179.263 
7.53804 -57.0187 -179.269 
7.64214 -56.9009 -179.276 
7.74624 -56.7831 -179.282 
7.86573 -56.771 -179.283 
7.96983 -56.6532 -179.289 
8.07393 -56.5355 -179.296 
8.19342 -56.5233 -179.296 
8.29752 -56.4055 -179.302 
8.417 -56.3934 -179.302 
8.5211 -56.2756 -179.309 
8.62521 -56.1579 -179.315 
8.74469 -56.1457 -179.316 
8.84879 -56.028 -179.322 
8.96827 -56.0158 -179.322 
9.07238 -55.898 -179.329 
9.19186 -55.8859 -179.329 
9.29596 -55.7681 -179.335 
9.41545 -55.7559 -179.336 
9.53493 -55.7438 -179.336 
9.65441 -55.7316 -179.336 
9.75851 -55.6139 -179.342 
9.878 -55.6017 -179.343 
9.99748 -55.5895 -179.343 
10.117 -55.5774 -179.343 
10.2211 -55.4596 -179.349 
10.3405 -55.4475 -179.35 
10.46 -55.4353 -179.35 
10.5641 -55.3175 -179.356 
10.6682 -55.1998 -179.363 
10.7877 -55.1876 -179.363 
10.8918 -55.0699 -179.369 
10.9959 -54.9521 -179.376 
11.1154 -54.9399 -179.376 
11.2195 -54.8222 -179.383 
11.3236 -54.7044 -179.389 
11.4431 -54.6923 -179.389 
11.5626 -54.6801 -179.389 
11.6667 -54.5623 -179.396 
11.7862 -54.5502 -179.396 
11.8903 -54.4324 -179.403 
12.0098 -54.4203 -179.403 
12.1139 -54.3025 -179.409 
12.218 -54.1847 -179.416 
12.3221 -54.067 -179.422 
12.4262 -53.9492 -179.429 
12.5456 -53.9371 -179.429 
12.6497 -53.8193 -179.436 
12.7538 -53.7015 -179.442 
12.858 -53.5838 -179.449 
12.9621 -53.466 -179.455 
13.0662 -53.3483 -179.462 
13.1856 -53.3361 -179.462 
13.2897 -53.2183 -179.468 
13.4092 -53.2062 -179.468 
13.5133 -53.0884 -179.475 
13.6174 -52.9707 -179.481 
13.7369 -52.9585 -179.482 
13.841 -52.8408 -179.488 
13.9451 -52.723 -179.495 
14.0492 -52.6052 -179.501 
14.1533 -52.4875 -179.508 
14.2574 -52.3697 -179.514 
14.3615 -52.2519 -179.521 
14.4656 -52.1342 -179.527 
14.5697 -52.0164 -179.534 
14.6738 -51.8987 -179.54 
14.7779 -51.7809 -179.547 
14.8974 -51.7688 -179.547 
15.0015 -51.651 -179.553 
15.121 -51.6388 -179.553 
15.2251 -51.5211 -179.56 
15.3446 -51.5089 -179.56 
15.4487 -51.3912 -179.567 
15.5682 -51.379 -179.567 
15.6723 -51.2612 -179.573 
15.7918 -51.2491 -179.573 
15.8959 -51.1313 -179.58 
16.0153 -51.1192 -179.58 
16.1195 -51.0014 -179.587 
16.2236 -50.8836 -179.593 
16.343 -50.8715 -179.593 
16.4471 -50.7537 -179.6 
16.5512 -50.636 -179.606 
16.6707 -50.6238 -179.606 
16.7748 -50.506 -179.613 
16.8943 -50.4939 -179.613 
16.9984 -50.3761 -179.62 
17.1179 -50.364 -179.62 
17.222 -50.2462 -179.626 
17.3415 -50.234 -179.627 
17.461 -50.2219 -179.627 
17.5651 -50.1041 -179.633 
17.6845 -50.092 -179.633 
17.804 -50.0798 -179.634 
17.9081 -49.962 -179.64 
18.0276 -49.9499 -179.64 
18.1317 -49.8321 -179.647 
18.2512 -49.82 -179.647 
18.3707 -49.8078 -179.647 
18.4748 -49.69 -179.654 
18.5789 -49.5723 -179.66 
18.6984 -49.5601 -179.66 
18.8025 -49.4424 -179.667 
18.922 -49.4302 -179.667 
19.0261 -49.3124 -179.673 
19.1455 -49.3003 -179.674 
19.265 -49.2881 -179.674 
19.3691 -49.1703 -179.68 
19.4886 -49.1582 -179.68 
19.6081 -49.146 -179.681 
19.7276 -49.1339 -179.681 
19.8471 -49.1217 -179.681 
19.9665 -49.1095 -179.681 
20.086 -49.0974 -179.681 
20.2055 -49.0852 -179.681 
20.325 -49.0731 -179.682 
20.4445 -49.0609 -179.682 
20.564 -49.0487 -179.682 
20.6834 -49.0366 -179.682 
20.8029 -49.0244 -179.682 
20.9224 -49.0123 -179.682 
21.0419 -49.0001 -179.683 
21.1614 -48.9879 -179.683 
21.2808 -48.9758 -179.683 
21.4003 -48.9636 -179.683 
21.5044 -48.8459 -179.69 
21.6239 -48.8337 -179.69 
21.7434 -48.8215 -179.69 
21.8629 -48.8094 -179.69 
21.9824 -48.7972 -179.69 
22.1018 -48.785 -179.69 
22.2213 -48.7729 -179.691 
22.3408 -48.7607 -179.691 
22.4757 -48.8542 -179.685 
22.5952 -48.842 -179.685 
22.7146 -48.8298 -179.685 
22.8495 -48.9233 -179.679 
22.969 -48.9111 -179.679 
23.0885 -48.899 -179.679 
23.2233 -48.9924 -179.673 
23.3428 -48.9802 -179.673 
23.4623 -48.9681 -179.673 
23.5818 -48.9559 -179.673 
23.7013 -48.9438 -179.674 
23.8361 -49.0372 -179.667 
23.9556 -49.025 -179.668 
24.0751 -49.0129 -179.668 
24.2099 -49.1063 -179.662 
24.3294 -49.0942 -179.662 
24.4489 -49.082 -179.662 
24.5684 -49.0698 -179.662 
24.7033 -49.1633 -179.656 
24.8227 -49.1511 -179.656 
24.9422 -49.1389 -179.656 
25.0617 -49.1268 -179.656 
25.1812 -49.1146 -179.657 
25.3007 -49.1025 -179.657 
25.4201 -49.0903 -179.657 
25.5396 -49.0781 -179.657 
25.6591 -49.066 -179.657 
25.7786 -49.0538 -179.657 
25.8981 -49.0417 -179.658 
26.0176 -49.0295 -179.658 
26.137 -49.0173 -179.658 
26.2565 -49.0052 -179.658 
26.376 -48.993 -179.658 
26.4955 -48.9809 -179.658 
26.6304 -49.0743 -179.652 
26.7498 -49.0621 -179.652 
26.8693 -49.05 -179.653 
26.9888 -49.0378 -179.653 
27.1237 -49.1312 -179.647 
27.2431 -49.1191 -179.647 
27.3626 -49.1069 -179.647 
27.4821 -49.0948 -179.647 
27.617 -49.1882 -179.641 
27.7365 -49.176 -179.641 
27.8559 -49.1639 -179.641 
27.9754 -49.1517 -179.641 
28.0949 -49.1396 -179.642 
28.2144 -49.1274 -179.642 
28.3339 -49.1152 -179.642 
28.4533 -49.1031 -179.642 
28.5728 -49.0909 -179.642 
28.6923 -49.0788 -179.642 
28.8118 -49.0666 -179.643 
28.9313 -49.0544 -179.643 
29.0508 -49.0423 -179.643 
29.1702 -49.0301 -179.643 
29.3051 -49.1235 -179.637 
29.4246 -49.1114 -179.637 
29.5441 -49.0992 -179.637 
29.6789 -49.1927 -179.631 
29.7984 -49.1805 -179.631 
29.9179 -49.1683 -179.631 
30.0528 -49.2618 -179.625 
30.1722 -49.2496 -179.625 
30.3071 -49.3431 -179.619 
30.4266 -49.3309 -179.619 
30.5461 -49.3187 -179.619 
30.6809 -49.4122 -179.613 
30.8004 -49.4 -179.613 
30.9199 -49.3878 -179.614 
31.0548 -49.4813 -179.607 
31.1742 -49.4691 -179.608 
31.2937 -49.457 -179.608 
31.4286 -49.5504 -179.602 
31.5481 -49.5382 -179.602 
31.6675 -49.5261 -179.602 
31.8024 -49.6195 -179.596 
31.9373 -49.713 -179.59 
32.0568 -49.7008 -179.59 
32.1916 -49.7942 -179.584 
32.3265 -49.8877 -179.577 
32.4613 -49.9811 -179.571 
32.5962 -50.0745 -179.565 
32.7157 -50.0624 -179.565 
32.8505 -50.1558 -179.559 
32.97 -50.1437 -179.559 
33.1049 -50.2371 -179.553 
33.2244 -50.2249 -179.553 
33.3438 -50.2128 -179.553 
33.4633 -50.2006 -179.554 
33.5828 -50.1885 -179.554 
33.7023 -50.1763 -179.554 
33.8218 -50.1641 -179.554 
33.9413 -50.152 -179.554 
34.0607 -50.1398 -179.554 
34.1802 -50.1276 -179.555 
-17.254 -42.8391 -179.956 
-17.1376 -42.8686 -179.956 
-17.0428 -43.0025 -179.95 
-16.948 -43.1364 -179.944 
-16.8532 -43.2704 -179.938 
-16.7801 -43.5088 -179.925 
-16.6854 -43.6427 -179.919 
-16.6123 -43.8811 -179.907 
-16.5175 -44.0151 -179.901 
-16.4444 -44.2535 -179.888 
-16.3496 -44.3874 -179.882 
-16.2548 -44.5213 -179.876 
-16.1817 -44.7598 -179.863 
-16.087 -44.8937 -179.857 
-15.9922 -45.0276 -179.851 
-15.8974 -45.1615 -179.845 
-15.8026 -45.2955 -179.839 
-15.7079 -45.4294 -179.832 
-15.6131 -45.5633 -179.826 
-15.5183 -45.6973 -179.82 
-15.4236 -45.8312 -179.814 
-15.3288 -45.9651 -179.808 
-15.234 -46.099 -179.801 
-15.1392 -46.233 -179.795 
-15.0445 -46.3669 -179.789 
-14.9497 -46.5008 -179.783 
-14.8549 -46.6347 -179.777 
-14.7602 -46.7687 -179.771 
-14.6654 -46.9026 -179.764 
-14.5706 -47.0365 -179.758 
-14.4758 -47.1705 -179.752 
-14.3811 -47.3044 -179.746 
-14.2863 -47.4383 -179.74 
-14.1915 -47.5722 -179.734 
-14.0968 -47.7062 -179.727 
-14.002 -47.8401 -179.721 
-13.9072 -47.974 -179.715 
-13.8125 -48.108 -179.709 
-13.7177 -48.2419 -179.703 
-13.6229 -48.3758 -179.697 
-13.5281 -48.5097 -179.69 
-13.4334 -48.6437 -179.684 
-13.3386 -48.7776 -179.678 
-13.2438 -48.9115 -179.672 
-13.1491 -49.0455 -179.666 
-13.0543 -49.1794 -179.66 
-12.9595 -49.3133 -179.653 
-12.8647 -49.4472 -179.647 
-12.77 -49.5812 -179.641 
-12.6969 -49.8196 -179.629 
-12.6021 -49.9535 -179.622 
-12.5073 -50.0874 -179.616 
-12.4125 -50.2214 -179.61 
-12.3394 -50.4598 -179.597 
-12.2447 -50.5937 -179.591 
-12.1499 -50.7276 -179.585 
-12.0551 -50.8616 -179.579 
-11.9604 -50.9955 -179.573 
-11.8656 -51.1294 -179.567 
-11.7708 -51.2633 -179.56 
-11.6544 -51.2928 -179.561 
-11.5596 -51.4267 -179.554 
-11.4648 -51.5606 -179.548 
-11.3701 -51.6946 -179.542 
-11.2753 -51.8285 -179.536 
-11.1805 -51.9624 -179.53 
-11.0857 -52.0964 -179.524 
-11.0126 -52.3348 -179.511 
-10.9179 -52.4687 -179.505 
-10.8231 -52.6026 -179.499 
-10.7283 -52.7366 -179.493 
-10.6336 -52.8705 -179.486 
-10.5388 -53.0044 -179.48 
-10.444 -53.1383 -179.474 
-10.3276 -53.1678 -179.474 
-10.2328 -53.3017 -179.468 
-10.138 -53.4356 -179.462 
-10.0216 -53.4651 -179.462 
-9.92683 -53.599 -179.456 
-9.83205 -53.7329 -179.45 
-9.73728 -53.8669 -179.444 
-9.64252 -54.0008 -179.437 
-9.54774 -54.1347 -179.431 
-9.45297 -54.2686 -179.425 
-9.37987 -54.5071 -179.413 
-9.28509 -54.641 -179.406 
-9.19032 -54.7749 -179.4 
-9.09555 -54.9088 -179.394 
-9.00078 -55.0428 -179.388 
-8.90601 -55.1767 -179.382 
-8.81124 -55.3106 -179.375 
-8.71646 -55.4446 -179.369 
-8.62169 -55.5785 -179.363 
-8.50526 -55.6079 -179.363 
-8.41048 -55.7419 -179.357 
-8.31571 -55.8758 -179.351 
-8.22094 -56.0097 -179.345 
-8.12617 -56.1436 -179.339 
-8.00973 -56.1731 -179.339 
-7.91496 -56.307 -179.333 
-7.8202 -56.4409 -179.326 
-7.72542 -56.5749 -179.32 
-7.63065 -56.7088 -179.314 
-7.53588 -56.8427 -179.308 
-7.44111 -56.9766 -179.302 
-7.34634 -57.1106 -179.296 
-7.25156 -57.2445 -179.289 
-7.15679 -57.3784 -179.283 
-7.06202 -57.5124 -179.277 
-6.96725 -57.6463 -179.271 
-6.87248 -57.7802 -179.265 
-6.77771 -57.9141 -179.259 
-6.68294 -58.0481 -179.252 
-6.5665 -58.0775 -179.253 
-6.47173 -58.2114 -179.246 
-6.35529 -58.2409 -179.247 
-6.26052 -58.3748 -179.24 
-6.16575 -58.5087 -179.234 
-6.04931 -58.5382 -179.234 
-5.95455 -58.6721 -179.228 
-5.85977 -58.806 -179.222 
-5.765 -58.9399 -179.216 
-5.67023 -59.0739 -179.21 
-5.57546 -59.2078 -179.203 
-5.48069 -59.3417 -179.197 
-5.38592 -59.4757 -179.191 
-5.29114 -59.6096 -179.185 
-5.19637 -59.7435 -179.179 
-5.1016 -59.8774 -179.173 
-4.98517 -59.9069 -179.173 
-4.8904 -60.0408 -179.167 
-4.79562 -60.1747 -179.16 
-4.67919 -60.2042 -179.161 
-4.56275 -60.2336 -179.161 
-4.46798 -60.3675 -179.155 
-4.35154 -60.397 -179.155 
-4.23511 -60.4264 -179.155 
-4.14034 -60.5603 -179.149 
-4.0239 -60.5898 -179.149 
-3.90746 -60.6192 -179.149 
-3.81269 -60.7531 -179.143 
-3.69626 -60.7826 -179.143 
-3.57982 -60.812 -179.143 
-3.46338 -60.8415 -179.143 
-3.34695 -60.8709 -179.144 
-3.23051 -60.9003 -179.144 
-3.11408 -60.9298 -179.144 
-2.99764 -60.9592 -179.144 
-2.85954 -60.8842 -179.151 
-2.7431 -60.9136 -179.151 
-2.62667 -60.943 -179.151 
-2.48857 -60.868 -179.157 
-2.35047 -60.7929 -179.164 
-2.23403 -60.8224 -179.164 
-2.09593 -60.7473 -179.171 
-1.95783 -60.6723 -179.177 
-1.81973 -60.5972 -179.184 
-1.68162 -60.5222 -179.19 
-1.56519 -60.5516 -179.19 
-1.42709 -60.4765 -179.197 
-1.31066 -60.506 -179.197 
-1.17255 -60.4309 -179.203 
-1.05612 -60.4604 -179.204 
-0.939679 -60.4898 -179.204 
-0.823246 -60.5192 -179.204 
-0.706809 -60.5487 -179.204 
-0.568707 -60.4736 -179.211 
-0.452269 -60.5031 -179.211 
-0.314168 -60.428 -179.217 
-0.197736 -60.4575 -179.217 
-0.0596345 -60.3824 -179.224 
0.0784679 -60.3074 -179.23 
0.216569 -60.2323 -179.237 
0.333001 -60.2617 -179.237 
0.471105 -60.1867 -179.244 
0.609205 -60.1116 -179.25 
0.747307 -60.0366 -179.257 
0.863743 -60.066 -179.257 
1.00184 -59.991 -179.263 
1.13994 -59.9159 -179.27 
1.25638 -59.9454 -179.27 
1.39448 -59.8703 -179.277 
1.51091 -59.8997 -179.277 
1.64902 -59.8247 -179.283 
1.78712 -59.7496 -179.29 
1.90355 -59.7791 -179.29 
2.04166 -59.704 -179.296 
2.17976 -59.629 -179.303 
2.29619 -59.6584 -179.303 
2.43429 -59.5833 -179.31 
2.55073 -59.6128 -179.31 
2.68883 -59.5377 -179.316 
2.80526 -59.5672 -179.316 
2.94337 -59.4921 -179.323 
3.0598 -59.5216 -179.323 
3.1979 -59.4465 -179.33 
3.31434 -59.4759 -179.33 
3.45244 -59.4009 -179.336 
3.56888 -59.4303 -179.336 
3.70698 -59.3553 -179.343 
3.84508 -59.2802 -179.349 
3.98318 -59.2052 -179.356 
4.12128 -59.1301 -179.362 
4.25938 -59.0551 -179.369 
4.39748 -58.98 -179.375 
4.55725 -58.8005 -179.388 
4.69535 -58.7254 -179.395 
4.83345 -58.6504 -179.401 
4.97155 -58.5753 -179.408 
5.10965 -58.5003 -179.414 
5.24775 -58.4252 -179.421 
5.38585 -58.3502 -179.427 
5.52395 -58.2751 -179.434 
5.66205 -58.2001 -179.44 
5.80015 -58.125 -179.447 
5.93826 -58.0499 -179.453 
6.07636 -57.9749 -179.46 
6.21446 -57.8998 -179.466 
6.37422 -57.7203 -179.479 
6.51232 -57.6452 -179.486 
6.65043 -57.5702 -179.492 
6.78852 -57.4951 -179.499 
6.92662 -57.4201 -179.505 
7.06473 -57.345 -179.512 
7.20283 -57.27 -179.518 
7.34093 -57.1949 -179.525 
7.45737 -57.2244 -179.525 
7.59547 -57.1493 -179.531 
7.73356 -57.0743 -179.538 
7.85 -57.1037 -179.538 
7.9881 -57.0287 -179.545 
8.1262 -56.9536 -179.551 
8.26431 -56.8786 -179.558 
8.40241 -56.8035 -179.564 
8.56218 -56.624 -179.577 
8.70027 -56.5489 -179.583 
8.83838 -56.4739 -179.59 
8.99814 -56.2943 -179.603 
9.13624 -56.2193 -179.609 
9.27434 -56.1442 -179.616 
9.41244 -56.0692 -179.622 
9.55054 -55.9941 -179.629 
9.68864 -55.919 -179.635 
9.82675 -55.844 -179.642 
9.94318 -55.8734 -179.642 
10.0813 -55.7984 -179.649 
10.2194 -55.7233 -179.655 
10.3575 -55.6483 -179.662 
10.4956 -55.5732 -179.668 
10.6337 -55.4982 -179.675 
10.7935 -55.3186 -179.687 
10.9316 -55.2436 -179.694 
11.0913 -55.064 -179.707 
11.2294 -54.989 -179.713 
11.3892 -54.8094 -179.726 
11.5273 -54.7344 -179.733 
11.6654 -54.6593 -179.739 
11.8252 -54.4798 -179.752 
11.9632 -54.4047 -179.758 
12.123 -54.2252 -179.771 
12.2611 -54.1501 -179.778 
12.4209 -53.9706 -179.791 
12.5806 -53.7911 -179.803 
12.7404 -53.6115 -179.816 
12.9002 -53.432 -179.829 
13.0816 -53.1479 -179.848 
13.2414 -52.9684 -179.861 
13.4011 -52.7889 -179.874 
13.5826 -52.5048 -179.893 
13.7423 -52.3253 -179.906 
13.9021 -52.1457 -179.919 
14.0619 -51.9662 -179.932 
14.2216 -51.7867 -179.945 
14.3597 -51.7116 -179.951 
14.4978 -51.6366 -179.958 
14.6359 -51.5615 -179.964 
14.774 -51.4865 -179.971 
14.9121 -51.4114 -179.977 
15.0502 -51.3363 -179.984 
15.1883 -51.2613 -179.99 
15.3264 -51.1862 -179.997 
15.4862 -51.0067 -180.009 
15.6243 -50.9316 -180.016 
15.7841 -50.7521 -180.029 
15.9222 -50.6771 -180.035 
16.0819 -50.4975 -180.048 
16.22 -50.4225 -180.055 
16.3798 -50.2429 -180.068 
16.5179 -50.1679 -180.074 
16.656 -50.0928 -180.081 
