ply
format ascii 1.0
comment VCGLIB generated
element vertex 868
property float x
property float y
property float z
element face 0
property list uchar int vertex_indices
end_header
19.2749 -53.1164 -165.335 
19.383 -53.0641 -165.335 
19.4911 -53.0118 -165.335 
19.5993 -52.9595 -165.336 
19.6568 -52.8132 -165.342 
19.7649 -52.7609 -165.342 
19.873 -52.7086 -165.342 
19.9812 -52.6563 -165.343 
20.0893 -52.6041 -165.343 
20.1974 -52.5518 -165.343 
20.3055 -52.4995 -165.343 
20.4136 -52.4472 -165.343 
20.5217 -52.3949 -165.343 
20.6299 -52.3426 -165.344 
20.6874 -52.1963 -165.35 
20.7955 -52.144 -165.35 
20.9036 -52.0917 -165.35 
20.9612 -51.9455 -165.357 
21.0187 -51.7992 -165.363 
21.1269 -51.7469 -165.364 
21.1844 -51.6007 -165.37 
21.242 -51.4544 -165.377 
21.3501 -51.4021 -165.377 
21.4076 -51.2558 -165.383 
21.5157 -51.2035 -165.383 
21.5733 -51.0573 -165.39 
21.6814 -51.005 -165.39 
21.739 -50.8587 -165.397 
21.8471 -50.8064 -165.397 
21.9552 -50.7541 -165.397 
22.0127 -50.6079 -165.404 
22.1209 -50.5556 -165.404 
22.1784 -50.4093 -165.41 
22.2865 -50.357 -165.41 
22.3441 -50.2108 -165.417 
22.4016 -50.0645 -165.423 
22.5097 -50.0122 -165.424 
22.5673 -49.8659 -165.43 
22.6248 -49.7197 -165.437 
22.733 -49.6674 -165.437 
22.8411 -49.6151 -165.437 
22.8986 -49.4688 -165.443 
23.0067 -49.4165 -165.444 
23.1148 -49.3642 -165.444 
23.223 -49.312 -165.444 
23.3311 -49.2597 -165.444 
23.4392 -49.2074 -165.444 
23.5473 -49.1551 -165.444 
23.6554 -49.1028 -165.445 
23.7636 -49.0505 -165.445 
23.8717 -48.9982 -165.445 
23.9798 -48.9459 -165.445 
24.0879 -48.8936 -165.445 
24.196 -48.8413 -165.445 
24.3041 -48.789 -165.446 
24.4123 -48.7367 -165.446 
24.5204 -48.6844 -165.446 
24.6285 -48.6321 -165.446 
24.7366 -48.5799 -165.446 
24.8447 -48.5276 -165.446 
24.9528 -48.4753 -165.447 
25.061 -48.423 -165.447 
25.1691 -48.3707 -165.447 
25.2772 -48.3184 -165.447 
25.3853 -48.2661 -165.447 
25.4934 -48.2138 -165.447 
25.6521 -48.2555 -165.441 
25.7602 -48.2032 -165.441 
25.8684 -48.1509 -165.442 
26.027 -48.1926 -165.435 
26.1352 -48.1403 -165.436 
26.2938 -48.182 -165.429 
26.4525 -48.2236 -165.423 
26.5606 -48.1713 -165.423 
26.7193 -48.213 -165.417 
26.878 -48.2547 -165.411 
26.9861 -48.2024 -165.411 
27.1448 -48.2441 -165.405 
27.3035 -48.2858 -165.399 
27.4116 -48.2335 -165.399 
27.5197 -48.1812 -165.399 
27.6784 -48.2228 -165.393 
27.7866 -48.1706 -165.393 
27.8947 -48.1183 -165.393 
28.0028 -48.066 -165.393 
28.1615 -48.1076 -165.387 
28.2696 -48.0554 -165.387 
28.3777 -48.0031 -165.388 
28.4858 -47.9508 -165.388 
28.6445 -47.9924 -165.382 
28.7526 -47.9401 -165.382 
28.8607 -47.8879 -165.382 
29.0194 -47.9295 -165.376 
29.1275 -47.8772 -165.376 
29.2862 -47.9189 -165.37 
29.3944 -47.8666 -165.37 
29.553 -47.9083 -165.364 
29.6612 -47.856 -165.364 
29.8198 -47.8977 -165.358 
29.928 -47.8454 -165.358 
30.0866 -47.8871 -165.352 
30.1948 -47.8348 -165.352 
30.3535 -47.8765 -165.346 
30.4616 -47.8242 -165.346 
30.5697 -47.7719 -165.346 
30.7284 -47.8135 -165.34 
30.8365 -47.7613 -165.34 
30.9446 -47.709 -165.34 
31.1033 -47.7506 -165.334 
31.2114 -47.6983 -165.334 
31.3195 -47.646 -165.334 
31.4276 -47.5938 -165.335 
31.5358 -47.5415 -165.335 
31.6439 -47.4892 -165.335 
31.752 -47.4369 -165.335 
31.9107 -47.4785 -165.329 
32.0188 -47.4263 -165.329 
32.1269 -47.374 -165.329 
32.235 -47.3217 -165.329 
32.3937 -47.3634 -165.323 
32.5524 -47.405 -165.317 
32.6605 -47.3527 -165.317 
32.8192 -47.3944 -165.311 
32.9779 -47.4361 -165.305 
33.1366 -47.4778 -165.299 
33.2953 -47.5194 -165.293 
33.4034 -47.4671 -165.293 
33.5621 -47.5088 -165.287 
33.6702 -47.4565 -165.287 
33.8289 -47.4982 -165.281 
33.937 -47.4459 -165.281 
34.0451 -47.3936 -165.281 
34.1532 -47.3413 -165.281 
34.2613 -47.289 -165.281 
34.3695 -47.2367 -165.281 
34.4776 -47.1845 -165.282 
34.5857 -47.1322 -165.282 
34.7444 -47.1738 -165.276 
34.8525 -47.1215 -165.276 
34.9606 -47.0693 -165.276 
35.1193 -47.1109 -165.27 
35.2274 -47.0586 -165.27 
35.3861 -47.1003 -165.264 
35.4942 -47.048 -165.264 
35.6023 -46.9957 -165.264 
35.7105 -46.9434 -165.264 
35.8691 -46.9851 -165.258 
35.9773 -46.9328 -165.258 
36.0854 -46.8805 -165.258 
36.1935 -46.8282 -165.259 
36.3016 -46.7759 -165.259 
36.4097 -46.7236 -165.259 
36.5179 -46.6714 -165.259 
36.626 -46.6191 -165.259 
36.7341 -46.5668 -165.259 
36.8928 -46.6084 -165.253 
37.0009 -46.5561 -165.253 
37.109 -46.5039 -165.254 
37.2677 -46.5455 -165.247 
37.3758 -46.4932 -165.248 
37.4839 -46.4409 -165.248 
37.6426 -46.4826 -165.242 
37.7507 -46.4303 -165.242 
37.9094 -46.472 -165.236 
38.0175 -46.4197 -165.236 
38.1257 -46.3674 -165.236 
38.2843 -46.4091 -165.23 
38.3925 -46.3568 -165.23 
38.5006 -46.3045 -165.23 
38.6087 -46.2522 -165.23 
38.7168 -46.1999 -165.23 
38.8249 -46.1476 -165.23 
38.933 -46.0953 -165.231 
39.0412 -46.043 -165.231 
39.1493 -45.9908 -165.231 
39.2574 -45.9385 -165.231 
39.3655 -45.8862 -165.231 
39.4736 -45.8339 -165.232 
39.5817 -45.7816 -165.232 
39.6899 -45.7293 -165.232 
39.798 -45.677 -165.232 
39.9061 -45.6247 -165.232 
40.0142 -45.5724 -165.232 
40.1223 -45.5201 -165.232 
40.2305 -45.4678 -165.233 
40.3386 -45.4155 -165.233 
40.4467 -45.3632 -165.233 
40.5548 -45.311 -165.233 
40.6629 -45.2587 -165.233 
40.7205 -45.1124 -165.24 
40.8286 -45.0601 -165.24 
40.9367 -45.0078 -165.24 
41.0448 -44.9555 -165.24 
41.1024 -44.8092 -165.247 
41.2105 -44.757 -165.247 
41.3186 -44.7047 -165.247 
41.4267 -44.6524 -165.247 
41.4843 -44.5061 -165.254 
41.5924 -44.4538 -165.254 
41.7005 -44.4015 -165.254 
41.8086 -44.3492 -165.254 
41.9167 -44.2969 -165.255 
42.0249 -44.2446 -165.255 
42.133 -44.1924 -165.255 
42.2411 -44.1401 -165.255 
42.3492 -44.0878 -165.255 
42.4573 -44.0355 -165.255 
42.5654 -43.9832 -165.256 
42.6736 -43.9309 -165.256 
42.7817 -43.8786 -165.256 
42.8898 -43.8263 -165.256 
42.9474 -43.68 -165.263 
43.0555 -43.6277 -165.263 
43.1636 -43.5755 -165.263 
43.2211 -43.4292 -165.269 
43.3293 -43.3769 -165.27 
43.4374 -43.3246 -165.27 
43.4949 -43.1783 -165.276 
43.603 -43.126 -165.276 
43.6606 -42.9798 -165.283 
43.7687 -42.9275 -165.283 
43.8262 -42.7812 -165.29 
43.8838 -42.635 -165.296 
43.9919 -42.5827 -165.296 
44.1 -42.5304 -165.296 
44.1576 -42.3841 -165.303 
44.2657 -42.3318 -165.303 
44.3232 -42.1856 -165.31 
44.4314 -42.1333 -165.31 
44.5395 -42.081 -165.31 
44.597 -41.9347 -165.316 
44.7051 -41.8824 -165.317 
44.8133 -41.8301 -165.317 
44.8708 -41.6839 -165.323 
44.9789 -41.6316 -165.323 
45.0871 -41.5793 -165.324 
45.1446 -41.433 -165.33 
45.2527 -41.3807 -165.33 
45.3103 -41.2345 -165.337 
45.4184 -41.1822 -165.337 
45.5265 -41.1299 -165.337 
45.584 -40.9836 -165.344 
45.6922 -40.9313 -165.344 
45.7497 -40.785 -165.35 
45.8578 -40.7328 -165.35 
45.9154 -40.5865 -165.357 
46.0235 -40.5342 -165.357 
46.081 -40.3879 -165.364 
46.1386 -40.2417 -165.37 
46.2467 -40.1894 -165.37 
46.3043 -40.0431 -165.377 
46.3618 -39.8969 -165.383 
46.4194 -39.7506 -165.39 
46.5275 -39.6983 -165.39 
46.585 -39.552 -165.396 
46.6426 -39.4058 -165.403 
46.7001 -39.2595 -165.409 
46.7577 -39.1133 -165.416 
46.8658 -39.061 -165.416 
46.9233 -38.9147 -165.423 
46.9809 -38.7684 -165.429 
47.089 -38.7161 -165.429 
47.1465 -38.5699 -165.436 
47.2041 -38.4236 -165.442 
47.2616 -38.2774 -165.449 
47.3192 -38.1311 -165.455 
47.4273 -38.0788 -165.456 
47.4849 -37.9325 -165.462 
47.5424 -37.7863 -165.469 
47.6 -37.64 -165.475 
47.7081 -37.5877 -165.475 
47.7656 -37.4415 -165.482 
47.8232 -37.2952 -165.488 
47.9313 -37.2429 -165.488 
47.9888 -37.0966 -165.495 
48.097 -37.0443 -165.495 
48.1545 -36.8981 -165.502 
48.2121 -36.7518 -165.508 
48.3202 -36.6995 -165.508 
48.3777 -36.5533 -165.515 
48.4353 -36.407 -165.521 
48.4928 -36.2607 -165.528 
48.5504 -36.1145 -165.534 
48.6079 -35.9682 -165.541 
48.6655 -35.8219 -165.547 
48.7736 -35.7697 -165.547 
48.8311 -35.6234 -165.554 
48.8887 -35.4771 -165.56 
48.9968 -35.4248 -165.561 
49.0543 -35.2786 -165.567 
49.1625 -35.2263 -165.567 
0.699169 -61.6798 -165.025 
0.818654 -61.6676 -165.025 
0.938137 -61.6555 -165.025 
1.05762 -61.6433 -165.025 
1.1771 -61.6311 -165.025 
1.29658 -61.619 -165.025 
1.41606 -61.6068 -165.026 
1.53555 -61.5947 -165.026 
1.65503 -61.5825 -165.026 
1.77452 -61.5703 -165.026 
1.894 -61.5582 -165.026 
2.01348 -61.546 -165.026 
2.13296 -61.5339 -165.027 
2.25244 -61.5217 -165.027 
2.37192 -61.5095 -165.027 
2.49141 -61.4974 -165.027 
2.61089 -61.4852 -165.027 
2.73037 -61.473 -165.027 
2.84985 -61.4609 -165.028 
2.96934 -61.4487 -165.028 
3.08882 -61.4366 -165.028 
3.2083 -61.4244 -165.028 
3.32779 -61.4122 -165.028 
3.44727 -61.4001 -165.028 
3.56675 -61.3879 -165.029 
3.68623 -61.3758 -165.029 
3.79034 -61.258 -165.035 
3.90982 -61.2458 -165.035 
4.0293 -61.2337 -165.036 
4.14878 -61.2215 -165.036 
4.25289 -61.1038 -165.042 
4.37237 -61.0916 -165.042 
4.49185 -61.0794 -165.043 
4.61133 -61.0673 -165.043 
4.71544 -60.9495 -165.049 
4.83492 -60.9374 -165.049 
4.9544 -60.9252 -165.05 
5.07388 -60.913 -165.05 
5.19337 -60.9009 -165.05 
5.31285 -60.8887 -165.05 
5.43233 -60.8765 -165.05 
5.55181 -60.8644 -165.05 
5.67129 -60.8522 -165.051 
5.79078 -60.8401 -165.051 
5.91026 -60.8279 -165.051 
6.01436 -60.7101 -165.057 
6.13384 -60.698 -165.058 
6.25333 -60.6858 -165.058 
6.37281 -60.6737 -165.058 
6.47691 -60.5559 -165.064 
6.59639 -60.5437 -165.065 
6.7005 -60.426 -165.071 
6.81998 -60.4138 -165.071 
6.93946 -60.4017 -165.071 
7.04356 -60.2839 -165.078 
7.16305 -60.2717 -165.078 
7.28253 -60.2596 -165.078 
7.40201 -60.2474 -165.078 
7.52149 -60.2353 -165.079 
7.64097 -60.2231 -165.079 
7.74508 -60.1053 -165.085 
7.86456 -60.0932 -165.085 
7.98405 -60.081 -165.086 
8.08815 -59.9633 -165.092 
8.19225 -59.8455 -165.099 
8.29636 -59.7277 -165.105 
8.40046 -59.61 -165.112 
8.50456 -59.4922 -165.118 
8.60866 -59.3745 -165.125 
8.71276 -59.2567 -165.131 
8.81687 -59.1389 -165.138 
8.92097 -59.0212 -165.144 
9.02507 -58.9034 -165.151 
9.14456 -58.8913 -165.151 
9.26404 -58.8791 -165.151 
9.38352 -58.8669 -165.151 
9.50301 -58.8548 -165.151 
9.62249 -58.8426 -165.151 
9.74197 -58.8305 -165.152 
9.86145 -58.8183 -165.152 
9.98093 -58.8061 -165.152 
10.1004 -58.794 -165.152 
10.2045 -58.6762 -165.159 
10.324 -58.6641 -165.159 
10.4281 -58.5463 -165.165 
10.5476 -58.5341 -165.165 
10.6671 -58.522 -165.166 
10.7712 -58.4042 -165.172 
10.8753 -58.2865 -165.179 
10.9948 -58.2743 -165.179 
11.0989 -58.1565 -165.185 
11.2183 -58.1444 -165.185 
11.3224 -58.0266 -165.192 
11.4419 -58.0145 -165.192 
11.546 -57.8967 -165.199 
11.6655 -57.8845 -165.199 
11.785 -57.8724 -165.199 
11.8891 -57.7546 -165.205 
12.0086 -57.7425 -165.206 
12.1127 -57.6247 -165.212 
12.2322 -57.6125 -165.212 
12.3363 -57.4948 -165.219 
12.4558 -57.4826 -165.219 
12.5599 -57.3649 -165.226 
12.664 -57.2471 -165.232 
12.7834 -57.2349 -165.232 
12.8875 -57.1172 -165.239 
12.9916 -56.9994 -165.245 
13.1111 -56.9873 -165.245 
13.2152 -56.8695 -165.252 
13.3193 -56.7517 -165.258 
13.4388 -56.7396 -165.259 
13.5583 -56.7274 -165.259 
13.6624 -56.6097 -165.265 
13.7819 -56.5975 -165.265 
13.9014 -56.5853 -165.266 
14.0055 -56.4676 -165.272 
14.125 -56.4554 -165.272 
14.2444 -56.4433 -165.272 
14.3485 -56.3255 -165.279 
14.4526 -56.2077 -165.285 
14.5721 -56.1956 -165.286 
14.6762 -56.0778 -165.292 
14.7803 -55.9601 -165.299 
14.8844 -55.8423 -165.305 
14.9885 -55.7245 -165.312 
15.108 -55.7124 -165.312 
15.2121 -55.5946 -165.318 
15.3316 -55.5825 -165.318 
15.4357 -55.4647 -165.325 
15.5552 -55.4525 -165.325 
15.6747 -55.4404 -165.325 
15.7942 -55.4282 -165.325 
15.9136 -55.4161 -165.326 
16.0177 -55.2983 -165.332 
16.1372 -55.2861 -165.332 
16.2413 -55.1684 -165.339 
16.3608 -55.1562 -165.339 
16.4649 -55.0385 -165.345 
16.569 -54.9207 -165.352 
16.6731 -54.8029 -165.358 
16.7772 -54.6852 -165.365 
16.8967 -54.673 -165.365 
17.0008 -54.5553 -165.372 
17.1049 -54.4375 -165.378 
17.2244 -54.4253 -165.378 
17.3439 -54.4132 -165.378 
17.448 -54.2954 -165.385 
17.5675 -54.2833 -165.385 
17.6869 -54.2711 -165.385 
17.791 -54.1533 -165.392 
17.9105 -54.1412 -165.392 
18.03 -54.129 -165.392 
18.1341 -54.0113 -165.399 
18.2536 -53.9991 -165.399 
18.3577 -53.8813 -165.405 
18.4618 -53.7636 -165.412 
18.5813 -53.7514 -165.412 
18.6854 -53.6337 -165.419 
18.7895 -53.5159 -165.425 
18.8936 -53.3981 -165.432 
18.9977 -53.2804 -165.438 
19.1018 -53.1626 -165.445 
19.2059 -53.0449 -165.451 
19.31 -52.9271 -165.458 
19.4141 -52.8093 -165.464 
19.5336 -52.7972 -165.464 
19.6377 -52.6794 -165.471 
19.7418 -52.5617 -165.477 
19.8613 -52.5495 -165.477 
19.9654 -52.4317 -165.484 
20.0849 -52.4196 -165.484 
20.2043 -52.4074 -165.484 
20.3084 -52.2897 -165.491 
20.4279 -52.2775 -165.491 
20.532 -52.1597 -165.497 
20.6361 -52.042 -165.504 
20.7402 -51.9242 -165.51 
20.8443 -51.8065 -165.517 
20.9484 -51.6887 -165.523 
21.0525 -51.5709 -165.53 
21.1566 -51.4532 -165.536 
21.2607 -51.3354 -165.543 
21.3649 -51.2177 -165.549 
21.469 -51.0999 -165.556 
21.5731 -50.9821 -165.562 
21.6772 -50.8644 -165.569 
21.7813 -50.7466 -165.575 
21.8854 -50.6289 -165.582 
21.9895 -50.5111 -165.588 
22.0936 -50.3934 -165.595 
22.1977 -50.2756 -165.601 
22.3018 -50.1578 -165.608 
22.4059 -50.0401 -165.615 
22.51 -49.9223 -165.621 
22.6141 -49.8046 -165.628 
22.7182 -49.6868 -165.634 
22.8377 -49.6746 -165.634 
22.9418 -49.5569 -165.641 
23.0459 -49.4391 -165.647 
23.15 -49.3214 -165.654 
23.2695 -49.3092 -165.654 
23.3736 -49.1914 -165.66 
23.493 -49.1793 -165.661 
23.5972 -49.0615 -165.667 
23.7166 -49.0494 -165.667 
23.8207 -48.9316 -165.674 
23.9402 -48.9194 -165.674 
24.0597 -48.9073 -165.674 
24.1638 -48.7895 -165.681 
24.2833 -48.7774 -165.681 
24.4028 -48.7652 -165.681 
24.5223 -48.753 -165.681 
24.6264 -48.6353 -165.688 
24.7458 -48.6231 -165.688 
24.8653 -48.611 -165.688 
24.9848 -48.5988 -165.688 
25.1043 -48.5866 -165.688 
25.2084 -48.4689 -165.695 
25.3279 -48.4567 -165.695 
25.4474 -48.4445 -165.695 
25.5668 -48.4324 -165.695 
25.6863 -48.4202 -165.695 
25.8058 -48.4081 -165.696 
25.9253 -48.3959 -165.696 
26.0448 -48.3837 -165.696 
26.1642 -48.3716 -165.696 
26.2837 -48.3594 -165.696 
26.4032 -48.3473 -165.696 
26.5381 -48.4407 -165.69 
26.6576 -48.4285 -165.69 
26.777 -48.4164 -165.691 
26.8965 -48.4042 -165.691 
27.016 -48.3921 -165.691 
27.1509 -48.4855 -165.685 
27.2703 -48.4733 -165.685 
27.3898 -48.4612 -165.685 
27.5093 -48.449 -165.685 
27.6288 -48.4369 -165.685 
27.7483 -48.4247 -165.686 
27.8678 -48.4125 -165.686 
27.9872 -48.4004 -165.686 
28.1067 -48.3882 -165.686 
28.2262 -48.376 -165.686 
28.3303 -48.2583 -165.693 
28.4498 -48.2461 -165.693 
28.5693 -48.234 -165.693 
28.6888 -48.2218 -165.693 
28.8082 -48.2096 -165.693 
28.9277 -48.1975 -165.694 
29.0472 -48.1853 -165.694 
29.1667 -48.1732 -165.694 
29.2862 -48.161 -165.694 
29.4057 -48.1488 -165.694 
29.5251 -48.1367 -165.694 
29.6446 -48.1245 -165.695 
29.7641 -48.1124 -165.695 
29.8836 -48.1002 -165.695 
30.0031 -48.088 -165.695 
30.1225 -48.0759 -165.695 
30.242 -48.0637 -165.695 
30.3615 -48.0515 -165.696 
30.481 -48.0394 -165.696 
30.6005 -48.0272 -165.696 
30.72 -48.0151 -165.696 
30.8394 -48.0029 -165.696 
30.9589 -47.9907 -165.696 
31.0784 -47.9786 -165.697 
31.1979 -47.9664 -165.697 
31.3174 -47.9543 -165.697 
31.4369 -47.9421 -165.697 
31.5563 -47.9299 -165.697 
31.6758 -47.9178 -165.697 
31.7953 -47.9056 -165.698 
31.9148 -47.8935 -165.698 
32.0496 -47.9869 -165.692 
32.1691 -47.9747 -165.692 
32.2886 -47.9626 -165.692 
32.4081 -47.9504 -165.692 
32.5276 -47.9383 -165.692 
32.6471 -47.9261 -165.692 
32.7665 -47.9139 -165.693 
32.886 -47.9018 -165.693 
33.0055 -47.8896 -165.693 
33.125 -47.8774 -165.693 
33.2291 -47.7597 -165.7 
33.3486 -47.7475 -165.7 
33.4681 -47.7354 -165.7 
33.5875 -47.7232 -165.7 
33.707 -47.711 -165.7 
33.8265 -47.6989 -165.7 
-16.7151 -43.1953 -165.944 
-16.5987 -43.2248 -165.945 
-16.5039 -43.3587 -165.938 
-16.4308 -43.5971 -165.926 
-16.3361 -43.731 -165.92 
-16.263 -43.9694 -165.907 
-16.1898 -44.2079 -165.895 
-16.1167 -44.4463 -165.882 
-16.0436 -44.6847 -165.87 
-15.9489 -44.8186 -165.864 
-15.8541 -44.9526 -165.857 
-15.7593 -45.0865 -165.851 
-15.6645 -45.2204 -165.845 
-15.5698 -45.3543 -165.839 
-15.475 -45.4883 -165.833 
-15.3802 -45.6222 -165.827 
-15.2855 -45.7561 -165.82 
-15.1907 -45.8901 -165.814 
-15.0743 -45.9195 -165.814 
-14.9795 -46.0534 -165.808 
-14.8847 -46.1873 -165.802 
-14.7683 -46.2168 -165.802 
-14.6735 -46.3507 -165.796 
-14.5571 -46.3802 -165.796 
-14.4406 -46.4096 -165.796 
-14.3242 -46.439 -165.796 
-14.2294 -46.573 -165.79 
-14.113 -46.6024 -165.79 
-13.9966 -46.6318 -165.791 
-13.9018 -46.7658 -165.784 
-13.807 -46.8997 -165.778 
-13.7122 -47.0336 -165.772 
-13.6391 -47.272 -165.76 
-13.5444 -47.406 -165.753 
-13.4713 -47.6444 -165.741 
-13.4198 -47.9873 -165.722 
-13.3467 -48.2257 -165.71 
-13.2736 -48.4641 -165.697 
-13.2005 -48.7025 -165.685 
-13.1274 -48.941 -165.672 
-13.0543 -49.1794 -165.66 
-12.9595 -49.3133 -165.653 
-12.8647 -49.4472 -165.647 
-12.77 -49.5812 -165.641 
-12.6752 -49.7151 -165.635 
-12.5804 -49.849 -165.629 
-12.464 -49.8785 -165.629 
-12.3692 -50.0124 -165.623 
-12.2744 -50.1463 -165.617 
-12.158 -50.1757 -165.617 
-12.0632 -50.3097 -165.611 
-11.9685 -50.4436 -165.604 
-11.852 -50.473 -165.605 
-11.7573 -50.607 -165.598 
-11.6625 -50.7409 -165.592 
-11.5677 -50.8748 -165.586 
-11.4729 -51.0088 -165.58 
-11.3782 -51.1427 -165.574 
-11.2834 -51.2766 -165.567 
-11.2103 -51.515 -165.555 
-11.1155 -51.649 -165.549 
-11.0208 -51.7829 -165.543 
-10.9476 -52.0213 -165.53 
-10.8529 -52.1552 -165.524 
-10.7581 -52.2892 -165.518 
-10.6633 -52.4231 -165.512 
-10.5902 -52.6615 -165.499 
-10.4955 -52.7954 -165.493 
-10.4007 -52.9294 -165.487 
-10.2842 -52.9588 -165.487 
-10.1895 -53.0927 -165.481 
-10.0947 -53.2267 -165.475 
-9.99993 -53.3606 -165.468 
-9.8835 -53.39 -165.469 
-9.78873 -53.5239 -165.462 
-9.67229 -53.5534 -165.463 
-9.57752 -53.6873 -165.456 
-9.46109 -53.7168 -165.457 
-9.36631 -53.8507 -165.45 
-9.27154 -53.9846 -165.444 
-9.17677 -54.1185 -165.438 
-9.082 -54.2525 -165.432 
-8.98723 -54.3864 -165.426 
-8.89245 -54.5203 -165.42 
-8.81935 -54.7587 -165.407 
-8.72458 -54.8927 -165.401 
-8.62981 -55.0266 -165.395 
-8.53503 -55.1605 -165.388 
-8.44026 -55.2944 -165.382 
-8.34549 -55.4284 -165.376 
-8.22906 -55.4578 -165.376 
-8.13428 -55.5917 -165.37 
-8.01785 -55.6212 -165.37 
-7.92308 -55.7551 -165.364 
-7.80664 -55.7845 -165.364 
-7.71187 -55.9185 -165.358 
-7.6171 -56.0524 -165.352 
-7.50066 -56.0818 -165.352 
-7.40589 -56.2158 -165.346 
-7.31112 -56.3497 -165.34 
-7.21635 -56.4836 -165.334 
-7.09991 -56.5131 -165.334 
-7.00514 -56.647 -165.328 
-6.91037 -56.7809 -165.321 
-6.8156 -56.9148 -165.315 
-6.69916 -56.9443 -165.315 
-6.60439 -57.0782 -165.309 
-6.50962 -57.2121 -165.303 
-6.39319 -57.2416 -165.303 
-6.29841 -57.3755 -165.297 
-6.20364 -57.5094 -165.291 
-6.08721 -57.5389 -165.291 
-5.97077 -57.5683 -165.291 
-5.876 -57.7022 -165.285 
-5.75956 -57.7317 -165.285 
-5.66479 -57.8656 -165.279 
-5.54835 -57.895 -165.279 
-5.43192 -57.9245 -165.279 
-5.33715 -58.0584 -165.273 
-5.22071 -58.0878 -165.273 
-5.10427 -58.1173 -165.274 
-5.0095 -58.2512 -165.267 
-4.89307 -58.2807 -165.268 
-4.7983 -58.4146 -165.261 
-4.70352 -58.5485 -165.255 
-4.58709 -58.5779 -165.255 
-4.49232 -58.7119 -165.249 
-4.37588 -58.7413 -165.249 
-4.25945 -58.7707 -165.25 
-4.16467 -58.9047 -165.243 
-4.04824 -58.9341 -165.244 
-3.9318 -58.9636 -165.244 
-3.83703 -59.0975 -165.238 
-3.72059 -59.1269 -165.238 
-3.62582 -59.2608 -165.232 
-3.50938 -59.2903 -165.232 
-3.39295 -59.3197 -165.232 
-3.29818 -59.4537 -165.226 
-3.20341 -59.5876 -165.219 
-3.08697 -59.617 -165.22 
-2.9922 -59.7509 -165.213 
-2.87577 -59.7804 -165.214 
-2.78099 -59.9143 -165.207 
-2.66456 -59.9437 -165.208 
-2.54812 -59.9732 -165.208 
-2.45335 -60.1071 -165.202 
-2.33691 -60.1366 -165.202 
-2.22047 -60.166 -165.202 
-2.10404 -60.1954 -165.202 
-2.00927 -60.3294 -165.196 
-1.89283 -60.3588 -165.196 
-1.7764 -60.3882 -165.196 
-1.65996 -60.4177 -165.196 
-1.54353 -60.4471 -165.197 
-1.44875 -60.581 -165.19 
-1.33232 -60.6105 -165.191 
-1.21588 -60.6399 -165.191 
-1.09944 -60.6694 -165.191 
-1.00467 -60.8033 -165.185 
-0.888238 -60.8327 -165.185 
-0.771801 -60.8622 -165.185 
-0.677031 -60.9961 -165.179 
-0.560594 -61.0255 -165.179 
-0.444156 -61.055 -165.179 
-0.327723 -61.0844 -165.179 
-0.232954 -61.2183 -165.173 
-0.116516 -61.2478 -165.173 
-7.83023e-005 -61.2772 -165.174 
0.116355 -61.3066 -165.174 
0.232792 -61.3361 -165.174 
0.349225 -61.3655 -165.174 
0.443999 -61.4994 -165.168 
0.560436 -61.5289 -165.168 
0.67687 -61.5583 -165.168 
0.793307 -61.5878 -165.168 
0.909745 -61.6172 -165.169 
1.02618 -61.6466 -165.169 
1.14261 -61.6761 -165.169 
1.25905 -61.7055 -165.169 
1.37549 -61.7349 -165.169 
1.49192 -61.7644 -165.169 
1.60836 -61.7938 -165.17 
1.72479 -61.8233 -165.17 
1.84123 -61.8527 -165.17 
1.95767 -61.8821 -165.17 
2.09577 -61.8071 -165.177 
2.2122 -61.8365 -165.177 
2.32864 -61.866 -165.177 
2.46674 -61.7909 -165.183 
2.58318 -61.8203 -165.184 
2.72128 -61.7453 -165.19 
2.83772 -61.7747 -165.19 
2.95416 -61.8042 -165.19 
3.09225 -61.7291 -165.197 
3.20869 -61.7586 -165.197 
3.34679 -61.6835 -165.204 
3.46323 -61.7129 -165.204 
3.60133 -61.6379 -165.21 
3.71776 -61.6673 -165.21 
3.85586 -61.5923 -165.217 
3.99396 -61.5172 -165.223 
4.1104 -61.5467 -165.224 
4.2485 -61.4716 -165.23 
4.3866 -61.3965 -165.237 
4.5247 -61.3215 -165.243 
4.6628 -61.2464 -165.25 
4.77924 -61.2759 -165.25 
4.91734 -61.2008 -165.256 
5.05544 -61.1258 -165.263 
5.17188 -61.1552 -165.263 
5.30998 -61.0802 -165.27 
5.42641 -61.1096 -165.27 
5.54285 -61.139 -165.27 
5.68095 -61.064 -165.276 
5.79739 -61.0934 -165.277 
5.93549 -61.0184 -165.283 
6.07359 -60.9433 -165.29 
6.19002 -60.9728 -165.29 
6.32813 -60.8977 -165.296 
6.46623 -60.8227 -165.303 
6.60433 -60.7476 -165.309 
6.74243 -60.6726 -165.316 
6.88053 -60.5975 -165.322 
7.01863 -60.5224 -165.329 
7.15673 -60.4474 -165.335 
7.29483 -60.3723 -165.342 
7.43293 -60.2973 -165.348 
7.54937 -60.3267 -165.348 
7.68747 -60.2517 -165.355 
7.82557 -60.1766 -165.361 
7.96367 -60.1016 -165.368 
8.10177 -60.0265 -165.374 
8.23987 -59.9515 -165.381 
8.37797 -59.8764 -165.387 
8.51607 -59.8014 -165.394 
8.65417 -59.7263 -165.4 
8.81394 -59.5468 -165.413 
8.95204 -59.4717 -165.42 
9.09015 -59.3967 -165.426 
9.22824 -59.3216 -165.433 
9.36635 -59.2466 -165.439 
9.50444 -59.1715 -165.446 
9.64254 -59.0965 -165.452 
9.78064 -59.0214 -165.459 
9.91875 -58.9463 -165.465 
10.0568 -58.8713 -165.472 
10.1949 -58.7962 -165.478 
10.3331 -58.7212 -165.485 
10.4712 -58.6461 -165.491 
10.6093 -58.5711 -165.498 
10.7473 -58.496 -165.504 
10.8855 -58.421 -165.511 
11.0236 -58.3459 -165.517 
11.1617 -58.2709 -165.524 
11.2998 -58.1958 -165.53 
11.4379 -58.1208 -165.537 
11.576 -58.0457 -165.543 
11.7357 -57.8662 -165.556 
11.8738 -57.7911 -165.563 
12.0119 -57.7161 -165.569 
12.1717 -57.5365 -165.582 
12.3098 -57.4615 -165.589 
12.4696 -57.2819 -165.601 
12.6077 -57.2069 -165.608 
12.7458 -57.1318 -165.614 
12.9055 -56.9523 -165.627 
13.0436 -56.8772 -165.634 
13.2034 -56.6977 -165.647 
13.3415 -56.6226 -165.653 
13.4796 -56.5476 -165.66 
13.6394 -56.368 -165.673 
13.7775 -56.293 -165.679 
13.9156 -56.2179 -165.686 
14.0537 -56.1429 -165.692 
14.1918 -56.0678 -165.699 
14.3299 -55.9928 -165.705 
14.468 -55.9177 -165.712 
14.6061 -55.8427 -165.718 
14.7442 -55.7676 -165.725 
14.8823 -55.6926 -165.731 
15.0204 -55.6175 -165.738 
15.1585 -55.5425 -165.744 
15.2966 -55.4674 -165.751 
15.4347 -55.3924 -165.757 
15.5728 -55.3173 -165.764 
15.7109 -55.2423 -165.77 
