ply
format ascii 1.0
comment VCGLIB generated
element vertex 855
property float x
property float y
property float z
element face 0
property list uchar int vertex_indices
end_header
18.8198 -52.2706 -174.392 
18.9279 -52.2183 -174.392 
19.036 -52.1661 -174.392 
19.1441 -52.1138 -174.393 
19.2523 -52.0615 -174.393 
19.3604 -52.0092 -174.393 
19.4685 -51.9569 -174.393 
19.5766 -51.9046 -174.393 
19.6847 -51.8523 -174.393 
19.7928 -51.8 -174.394 
19.901 -51.7477 -174.394 
20.0091 -51.6954 -174.394 
20.1172 -51.6431 -174.394 
20.2253 -51.5908 -174.394 
20.3334 -51.5385 -174.394 
20.4415 -51.4862 -174.395 
20.5497 -51.4339 -174.395 
20.6578 -51.3817 -174.395 
20.7659 -51.3294 -174.395 
20.874 -51.2771 -174.395 
20.9821 -51.2248 -174.395 
21.0902 -51.1725 -174.396 
21.1984 -51.1202 -174.396 
21.3065 -51.0679 -174.396 
21.4146 -51.0156 -174.396 
21.5227 -50.9633 -174.396 
21.6308 -50.911 -174.396 
21.739 -50.8587 -174.397 
21.8976 -50.9004 -174.39 
22.0058 -50.8481 -174.391 
22.1139 -50.7958 -174.391 
22.222 -50.7435 -174.391 
22.3301 -50.6912 -174.391 
22.4382 -50.6389 -174.391 
22.5463 -50.5866 -174.391 
22.6545 -50.5344 -174.392 
22.7626 -50.4821 -174.392 
22.8707 -50.4298 -174.392 
23.0294 -50.4714 -174.386 
23.1375 -50.4192 -174.386 
23.2456 -50.3669 -174.386 
23.4043 -50.4085 -174.38 
23.5124 -50.3562 -174.38 
23.6711 -50.3979 -174.374 
23.7792 -50.3456 -174.374 
23.9379 -50.3873 -174.368 
24.0966 -50.429 -174.362 
24.2047 -50.3767 -174.362 
24.3128 -50.3244 -174.362 
24.4715 -50.3661 -174.356 
24.5796 -50.3138 -174.356 
24.6878 -50.2615 -174.356 
24.7959 -50.2092 -174.356 
24.9546 -50.2509 -174.35 
25.0627 -50.1986 -174.35 
25.1708 -50.1463 -174.351 
25.2789 -50.094 -174.351 
25.4376 -50.1357 -174.345 
25.5457 -50.0834 -174.345 
25.6538 -50.0311 -174.345 
25.8125 -50.0728 -174.339 
25.9206 -50.0205 -174.339 
26.0793 -50.0621 -174.333 
26.1874 -50.0098 -174.333 
26.2956 -49.9576 -174.333 
26.4542 -49.9992 -174.327 
26.5624 -49.9469 -174.327 
26.721 -49.9886 -174.321 
26.8292 -49.9363 -174.321 
26.9373 -49.884 -174.321 
27.096 -49.9257 -174.315 
27.2041 -49.8734 -174.315 
27.3122 -49.8211 -174.315 
27.4203 -49.7688 -174.316 
27.579 -49.8105 -174.309 
27.6871 -49.7582 -174.31 
27.7952 -49.7059 -174.31 
27.9034 -49.6536 -174.31 
28.0115 -49.6013 -174.31 
28.1196 -49.549 -174.31 
28.2277 -49.4967 -174.31 
28.3358 -49.4445 -174.311 
28.4439 -49.3922 -174.311 
28.5521 -49.3399 -174.311 
28.7107 -49.3815 -174.305 
28.8189 -49.3293 -174.305 
28.927 -49.277 -174.305 
29.0351 -49.2247 -174.305 
29.1432 -49.1724 -174.305 
29.2513 -49.1201 -174.306 
29.3595 -49.0678 -174.306 
29.4676 -49.0155 -174.306 
29.6263 -49.0572 -174.3 
29.7344 -49.0049 -174.3 
29.8425 -48.9526 -174.3 
29.9506 -48.9003 -174.3 
30.0587 -48.848 -174.3 
30.1668 -48.7957 -174.301 
30.3255 -48.8374 -174.294 
30.4336 -48.7851 -174.295 
30.5418 -48.7328 -174.295 
30.6499 -48.6805 -174.295 
30.8086 -48.7222 -174.289 
30.9167 -48.6699 -174.289 
31.0248 -48.6176 -174.289 
31.1329 -48.5653 -174.289 
31.2916 -48.607 -174.283 
31.3997 -48.5547 -174.283 
31.5078 -48.5024 -174.283 
31.616 -48.4501 -174.284 
31.7746 -48.4918 -174.277 
31.8828 -48.4395 -174.278 
31.9909 -48.3872 -174.278 
32.1496 -48.4289 -174.272 
32.2577 -48.3766 -174.272 
32.4164 -48.4183 -174.266 
32.5245 -48.366 -174.266 
32.6326 -48.3137 -174.266 
32.7913 -48.3553 -174.26 
32.8994 -48.3031 -174.26 
33.0075 -48.2508 -174.26 
33.1156 -48.1985 -174.26 
33.2238 -48.1462 -174.26 
33.3319 -48.0939 -174.261 
33.44 -48.0416 -174.261 
33.5481 -47.9893 -174.261 
33.7068 -48.031 -174.255 
33.8149 -47.9787 -174.255 
33.923 -47.9264 -174.255 
34.0817 -47.9681 -174.249 
34.2404 -48.0097 -174.243 
34.3485 -47.9574 -174.243 
34.5072 -47.9991 -174.237 
34.6659 -48.0408 -174.231 
34.774 -47.9885 -174.231 
34.9327 -48.0302 -174.225 
35.0408 -47.9779 -174.225 
35.1995 -48.0196 -174.218 
35.3076 -47.9673 -174.219 
35.4157 -47.915 -174.219 
35.5744 -47.9567 -174.213 
35.6825 -47.9044 -174.213 
35.7907 -47.8521 -174.213 
35.8988 -47.7998 -174.213 
36.0069 -47.7475 -174.213 
36.115 -47.6952 -174.213 
36.2737 -47.7369 -174.207 
36.3818 -47.6846 -174.207 
36.4899 -47.6323 -174.208 
36.5981 -47.58 -174.208 
36.7567 -47.6217 -174.202 
36.8649 -47.5694 -174.202 
36.973 -47.5171 -174.202 
37.1317 -47.5588 -174.196 
37.2398 -47.5065 -174.196 
37.3479 -47.4542 -174.196 
37.456 -47.4019 -174.196 
37.6147 -47.4436 -174.19 
37.7228 -47.3913 -174.19 
37.8309 -47.339 -174.19 
37.939 -47.2867 -174.191 
38.0472 -47.2344 -174.191 
38.2059 -47.2761 -174.185 
38.314 -47.2238 -174.185 
38.4221 -47.1715 -174.185 
38.5302 -47.1192 -174.185 
38.6889 -47.1609 -174.179 
38.797 -47.1086 -174.179 
38.9051 -47.0563 -174.179 
39.0638 -47.098 -174.173 
39.1719 -47.0457 -174.173 
39.3306 -47.0873 -174.167 
39.4387 -47.035 -174.167 
39.5469 -46.9827 -174.167 
39.7055 -47.0244 -174.161 
39.8137 -46.9721 -174.161 
39.9218 -46.9198 -174.162 
40.0299 -46.8675 -174.162 
40.138 -46.8153 -174.162 
40.2461 -46.763 -174.162 
40.3542 -46.7107 -174.162 
40.4624 -46.6584 -174.162 
40.5705 -46.6061 -174.163 
40.6786 -46.5538 -174.163 
40.7867 -46.5015 -174.163 
40.8948 -46.4492 -174.163 
41.0029 -46.3969 -174.163 
41.1111 -46.3446 -174.163 
41.1686 -46.1984 -174.17 
41.2767 -46.1461 -174.17 
41.3848 -46.0938 -174.17 
41.493 -46.0415 -174.17 
41.6011 -45.9892 -174.171 
41.7092 -45.9369 -174.171 
41.8173 -45.8846 -174.171 
41.9254 -45.8323 -174.171 
41.983 -45.686 -174.178 
42.0911 -45.6337 -174.178 
42.1992 -45.5815 -174.178 
42.3073 -45.5292 -174.178 
42.4155 -45.4769 -174.178 
42.5236 -45.4246 -174.178 
42.6317 -45.3723 -174.179 
42.6892 -45.226 -174.185 
42.7974 -45.1737 -174.185 
42.9055 -45.1214 -174.185 
43.0136 -45.0691 -174.186 
43.1217 -45.0168 -174.186 
43.2298 -44.9646 -174.186 
43.3379 -44.9123 -174.186 
43.4461 -44.86 -174.186 
43.5542 -44.8077 -174.186 
43.6623 -44.7554 -174.187 
43.7704 -44.7031 -174.187 
43.8785 -44.6508 -174.187 
43.9866 -44.5985 -174.187 
44.0948 -44.5462 -174.187 
44.2029 -44.4939 -174.187 
44.2604 -44.3477 -174.194 
44.3685 -44.2954 -174.194 
44.4767 -44.2431 -174.194 
44.5848 -44.1908 -174.194 
44.6423 -44.0445 -174.201 
44.7504 -43.9922 -174.201 
44.8586 -43.9399 -174.201 
44.9161 -43.7937 -174.208 
45.0242 -43.7414 -174.208 
45.1324 -43.6891 -174.208 
45.1899 -43.5428 -174.215 
45.298 -43.4905 -174.215 
45.3556 -43.3443 -174.221 
45.4637 -43.292 -174.221 
45.5718 -43.2397 -174.222 
45.6293 -43.0934 -174.228 
45.7375 -43.0411 -174.228 
45.795 -42.8949 -174.235 
45.9031 -42.8426 -174.235 
45.9607 -42.6963 -174.242 
46.0688 -42.644 -174.242 
46.1263 -42.4977 -174.248 
46.1839 -42.3515 -174.255 
46.292 -42.2992 -174.255 
46.3496 -42.1529 -174.261 
46.4577 -42.1006 -174.262 
46.5152 -41.9544 -174.268 
46.6233 -41.9021 -174.268 
46.6809 -41.7558 -174.275 
46.789 -41.7035 -174.275 
46.8971 -41.6512 -174.275 
46.9547 -41.505 -174.282 
47.0628 -41.4527 -174.282 
47.1709 -41.4004 -174.282 
47.279 -41.3481 -174.282 
47.3366 -41.2018 -174.289 
47.4447 -41.1495 -174.289 
47.5022 -41.0033 -174.295 
47.5598 -40.857 -174.302 
47.6173 -40.7107 -174.308 
47.6749 -40.5645 -174.315 
47.7324 -40.4182 -174.321 
47.79 -40.272 -174.328 
47.8475 -40.1257 -174.334 
47.9051 -39.9794 -174.341 
47.9626 -39.8332 -174.347 
48.0202 -39.6869 -174.354 
48.1283 -39.6346 -174.354 
48.1858 -39.4883 -174.36 
48.2434 -39.3421 -174.367 
48.3515 -39.2898 -174.367 
48.4091 -39.1435 -174.374 
48.5172 -39.0912 -174.374 
48.5747 -38.945 -174.38 
48.6323 -38.7987 -174.387 
48.6898 -38.6524 -174.393 
48.7474 -38.5062 -174.4 
48.8049 -38.3599 -174.406 
48.913 -38.3076 -174.406 
48.9706 -38.1614 -174.413 
49.0281 -38.0151 -174.419 
49.0857 -37.8688 -174.426 
49.1432 -37.7226 -174.432 
49.2514 -37.6703 -174.433 
49.3089 -37.524 -174.439 
49.417 -37.4717 -174.439 
49.5251 -37.4194 -174.439 
49.5827 -37.2732 -174.446 
49.6908 -37.2209 -174.446 
49.7483 -37.0746 -174.453 
49.8565 -37.0223 -174.453 
49.914 -36.8761 -174.459 
49.9716 -36.7298 -174.466 
0.806829 -62.419 -173.98 
0.926312 -62.4068 -173.98 
1.04579 -62.3946 -173.98 
1.14989 -62.2769 -173.987 
1.26938 -62.2647 -173.987 
1.38886 -62.2526 -173.987 
1.49296 -62.1348 -173.994 
1.61245 -62.1226 -173.994 
1.73193 -62.1105 -173.994 
1.85141 -62.0983 -173.994 
1.97089 -62.0862 -173.994 
2.075 -61.9684 -174.001 
2.19448 -61.9562 -174.001 
2.31396 -61.9441 -174.001 
2.43344 -61.9319 -174.001 
2.55293 -61.9198 -174.002 
2.67241 -61.9076 -174.002 
2.77651 -61.7898 -174.008 
2.89599 -61.7777 -174.008 
3.01548 -61.7655 -174.009 
3.11958 -61.6478 -174.015 
3.23906 -61.6356 -174.015 
3.34316 -61.5178 -174.022 
3.46265 -61.5057 -174.022 
3.58213 -61.4935 -174.022 
3.68623 -61.3758 -174.029 
3.80572 -61.3636 -174.029 
3.90982 -61.2458 -174.035 
4.0293 -61.2337 -174.036 
4.14878 -61.2215 -174.036 
4.25289 -61.1038 -174.042 
4.37237 -61.0916 -174.042 
4.49185 -61.0794 -174.043 
4.59595 -60.9617 -174.049 
4.71544 -60.9495 -174.049 
4.83492 -60.9374 -174.049 
4.93902 -60.8196 -174.056 
5.0585 -60.8074 -174.056 
5.16261 -60.6897 -174.063 
5.28209 -60.6775 -174.063 
5.40157 -60.6654 -174.063 
5.50567 -60.5476 -174.069 
5.62516 -60.5354 -174.07 
5.72926 -60.4177 -174.076 
5.84874 -60.4055 -174.076 
5.95284 -60.2878 -174.083 
6.07233 -60.2756 -174.083 
6.17643 -60.1578 -174.089 
6.28053 -60.0401 -174.096 
6.40001 -60.0279 -174.096 
6.50412 -59.9102 -174.103 
6.60822 -59.7924 -174.109 
6.7277 -59.7802 -174.109 
6.83181 -59.6625 -174.116 
6.95129 -59.6503 -174.116 
7.05539 -59.5326 -174.122 
7.1595 -59.4148 -174.129 
7.27898 -59.4026 -174.129 
7.38308 -59.2849 -174.136 
7.50256 -59.2727 -174.136 
7.62205 -59.2606 -174.136 
7.72615 -59.1428 -174.142 
7.84563 -59.1306 -174.143 
7.96511 -59.1185 -174.143 
8.08459 -59.1063 -174.143 
8.20408 -59.0942 -174.143 
8.32356 -59.082 -174.143 
8.44304 -59.0698 -174.143 
8.54714 -58.9521 -174.15 
8.66663 -58.9399 -174.15 
8.78611 -58.9277 -174.15 
8.89021 -58.81 -174.157 
8.99431 -58.6922 -174.163 
9.09842 -58.5745 -174.17 
9.20252 -58.4567 -174.176 
9.30662 -58.339 -174.183 
9.41073 -58.2212 -174.189 
9.51483 -58.1034 -174.196 
9.61893 -57.9857 -174.202 
9.72304 -57.8679 -174.209 
9.82714 -57.7502 -174.215 
9.94662 -57.738 -174.215 
10.0507 -57.6202 -174.222 
10.1702 -57.6081 -174.222 
10.2897 -57.5959 -174.222 
10.3938 -57.4782 -174.229 
10.5133 -57.466 -174.229 
10.6328 -57.4538 -174.229 
10.7522 -57.4417 -174.229 
10.8563 -57.3239 -174.236 
10.9758 -57.3118 -174.236 
11.0953 -57.2996 -174.236 
11.1994 -57.1818 -174.243 
11.3189 -57.1697 -174.243 
11.423 -57.0519 -174.249 
11.5425 -57.0398 -174.25 
11.662 -57.0276 -174.25 
11.7661 -56.9098 -174.256 
11.8855 -56.8977 -174.256 
12.005 -56.8855 -174.257 
12.1091 -56.7677 -174.263 
12.2286 -56.7556 -174.263 
12.3327 -56.6378 -174.27 
12.4522 -56.6257 -174.27 
12.5717 -56.6135 -174.27 
12.6758 -56.4958 -174.277 
12.7953 -56.4836 -174.277 
12.8994 -56.3658 -174.283 
13.0035 -56.2481 -174.29 
13.123 -56.2359 -174.29 
13.2271 -56.1181 -174.296 
13.3465 -56.106 -174.297 
13.466 -56.0938 -174.297 
13.5701 -55.9761 -174.303 
13.6896 -55.9639 -174.303 
13.7937 -55.8461 -174.31 
13.9132 -55.834 -174.31 
14.0327 -55.8218 -174.31 
14.1368 -55.7041 -174.317 
14.2563 -55.6919 -174.317 
14.3757 -55.6797 -174.317 
14.4798 -55.562 -174.324 
14.5993 -55.5498 -174.324 
14.7034 -55.4321 -174.33 
14.8229 -55.4199 -174.33 
14.927 -55.3021 -174.337 
15.0465 -55.29 -174.337 
15.1506 -55.1722 -174.344 
15.2547 -55.0545 -174.35 
15.3588 -54.9367 -174.357 
15.4629 -54.8189 -174.363 
15.567 -54.7012 -174.37 
15.6711 -54.5834 -174.376 
15.7752 -54.4657 -174.383 
15.8793 -54.3479 -174.389 
15.9834 -54.2302 -174.396 
16.0875 -54.1124 -174.402 
16.207 -54.1002 -174.402 
16.3111 -53.9825 -174.409 
16.4152 -53.8647 -174.415 
16.5347 -53.8526 -174.415 
16.6388 -53.7348 -174.422 
16.7583 -53.7226 -174.422 
16.8624 -53.6049 -174.429 
16.9665 -53.4871 -174.435 
17.086 -53.4749 -174.435 
17.1901 -53.3572 -174.442 
17.2942 -53.2394 -174.448 
17.3983 -53.1217 -174.455 
17.5024 -53.0039 -174.461 
17.6219 -52.9918 -174.462 
17.726 -52.874 -174.468 
17.8301 -52.7562 -174.475 
17.9496 -52.7441 -174.475 
18.0537 -52.6263 -174.481 
18.1578 -52.5086 -174.488 
18.2772 -52.4964 -174.488 
18.3813 -52.3786 -174.494 
18.5008 -52.3665 -174.495 
18.6049 -52.2487 -174.501 
18.709 -52.131 -174.508 
18.8285 -52.1188 -174.508 
18.9326 -52.001 -174.514 
19.0367 -51.8833 -174.521 
19.1562 -51.8711 -174.521 
19.2603 -51.7534 -174.527 
19.3644 -51.6356 -174.534 
19.4839 -51.6234 -174.534 
19.6034 -51.6113 -174.534 
19.7075 -51.4935 -174.541 
19.827 -51.4814 -174.541 
19.9464 -51.4692 -174.541 
20.0659 -51.457 -174.541 
20.17 -51.3393 -174.548 
20.2895 -51.3271 -174.548 
20.409 -51.315 -174.548 
20.5285 -51.3028 -174.548 
20.6326 -51.185 -174.555 
20.7521 -51.1729 -174.555 
20.8715 -51.1607 -174.555 
20.9756 -51.0429 -174.562 
21.0951 -51.0308 -174.562 
21.1992 -50.913 -174.568 
21.3187 -50.9009 -174.568 
21.4382 -50.8887 -174.569 
21.5423 -50.771 -174.575 
21.6618 -50.7588 -174.575 
21.7813 -50.7466 -174.575 
21.8854 -50.6289 -174.582 
22.0048 -50.6167 -174.582 
22.1243 -50.6045 -174.582 
22.2438 -50.5924 -174.582 
22.3633 -50.5802 -174.583 
22.4828 -50.5681 -174.583 
22.6023 -50.5559 -174.583 
22.7217 -50.5437 -174.583 
22.8412 -50.5316 -174.583 
22.9607 -50.5194 -174.583 
23.0802 -50.5073 -174.584 
23.1997 -50.4951 -174.584 
23.3192 -50.4829 -174.584 
23.4386 -50.4708 -174.584 
23.5581 -50.4586 -174.584 
23.6776 -50.4465 -174.584 
23.7971 -50.4343 -174.585 
23.9166 -50.4221 -174.585 
24.0361 -50.41 -174.585 
24.1555 -50.3978 -174.585 
24.275 -50.3857 -174.585 
24.3945 -50.3735 -174.585 
24.514 -50.3613 -174.586 
24.6181 -50.2436 -174.592 
24.7376 -50.2314 -174.592 
24.857 -50.2192 -174.592 
24.9765 -50.2071 -174.593 
25.096 -50.1949 -174.593 
25.2155 -50.1828 -174.593 
25.335 -50.1706 -174.593 
25.4545 -50.1584 -174.593 
25.5893 -50.2519 -174.587 
25.7088 -50.2397 -174.587 
25.8283 -50.2276 -174.587 
25.9478 -50.2154 -174.588 
26.0673 -50.2032 -174.588 
26.1867 -50.1911 -174.588 
26.3062 -50.1789 -174.588 
26.4257 -50.1668 -174.588 
26.5452 -50.1546 -174.588 
26.6493 -50.0368 -174.595 
26.7688 -50.0247 -174.595 
26.8882 -50.0125 -174.595 
27.0077 -50.0004 -174.595 
27.1272 -49.9882 -174.596 
27.2467 -49.976 -174.596 
27.3662 -49.9639 -174.596 
27.4857 -49.9517 -174.596 
27.6051 -49.9395 -174.596 
27.7246 -49.9274 -174.596 
27.8441 -49.9152 -174.597 
27.9636 -49.9031 -174.597 
28.0831 -49.8909 -174.597 
28.2026 -49.8787 -174.597 
28.322 -49.8666 -174.597 
28.4415 -49.8544 -174.597 
28.561 -49.8423 -174.598 
28.6805 -49.8301 -174.598 
28.8 -49.8179 -174.598 
28.9194 -49.8058 -174.598 
29.0389 -49.7936 -174.598 
29.1584 -49.7815 -174.598 
29.2779 -49.7693 -174.599 
29.3974 -49.7571 -174.599 
29.5169 -49.745 -174.599 
29.6363 -49.7328 -174.599 
29.7404 -49.6151 -174.606 
29.8599 -49.6029 -174.606 
29.9794 -49.5907 -174.606 
30.0835 -49.473 -174.612 
30.203 -49.4608 -174.613 
30.3071 -49.3431 -174.619 
30.4112 -49.2253 -174.626 
30.5307 -49.2131 -174.626 
30.6348 -49.0954 -174.632 
30.7543 -49.0832 -174.633 
30.8738 -49.071 -174.633 
30.9779 -48.9533 -174.639 
31.0973 -48.9411 -174.639 
31.2168 -48.929 -174.64 
31.3363 -48.9168 -174.64 
31.4558 -48.9046 -174.64 
31.5753 -48.8925 -174.64 
31.6947 -48.8803 -174.64 
31.8142 -48.8682 -174.64 
31.9337 -48.856 -174.641 
32.0532 -48.8438 -174.641 
32.1727 -48.8317 -174.641 
32.2768 -48.7139 -174.647 
32.3963 -48.7018 -174.648 
32.5157 -48.6896 -174.648 
32.6352 -48.6774 -174.648 
32.7547 -48.6653 -174.648 
32.8742 -48.6531 -174.648 
32.9937 -48.641 -174.648 
33.1132 -48.6288 -174.649 
33.2326 -48.6166 -174.649 
33.3521 -48.6045 -174.649 
33.4716 -48.5923 -174.649 
33.5911 -48.5802 -174.649 
33.7106 -48.568 -174.649 
33.8301 -48.5558 -174.65 
33.9495 -48.5437 -174.65 
-16.7206 -44.4036 -174.875 
-16.6042 -44.433 -174.875 
-16.4877 -44.4625 -174.875 
-16.3929 -44.5964 -174.869 
-16.2982 -44.7303 -174.863 
-16.2034 -44.8642 -174.857 
-16.1086 -44.9982 -174.851 
-16.0139 -45.1321 -174.845 
-15.9191 -45.266 -174.838 
-15.846 -45.5044 -174.826 
-15.7512 -45.6384 -174.82 
-15.6781 -45.8768 -174.807 
-15.5833 -46.0107 -174.801 
-15.4886 -46.1446 -174.795 
-15.4155 -46.3831 -174.782 
-15.3207 -46.517 -174.776 
-15.2259 -46.6509 -174.77 
-15.1311 -46.7849 -174.764 
-15.0364 -46.9188 -174.758 
-14.9416 -47.0527 -174.751 
-14.8468 -47.1866 -174.745 
-14.752 -47.3206 -174.739 
-14.6573 -47.4545 -174.733 
-14.5625 -47.5884 -174.727 
-14.4677 -47.7223 -174.721 
-14.373 -47.8563 -174.714 
-14.2782 -47.9902 -174.708 
-14.1834 -48.1241 -174.702 
-14.0887 -48.2581 -174.696 
-13.9939 -48.392 -174.69 
-13.8991 -48.5259 -174.684 
-13.8043 -48.6598 -174.677 
-13.7096 -48.7938 -174.671 
-13.6148 -48.9277 -174.665 
-13.52 -49.0616 -174.659 
-13.4253 -49.1956 -174.653 
-13.3305 -49.3295 -174.647 
-13.2357 -49.4634 -174.64 
-13.1409 -49.5973 -174.634 
-13.0462 -49.7313 -174.628 
-12.9514 -49.8652 -174.622 
-12.835 -49.8946 -174.622 
-12.7402 -50.0286 -174.616 
-12.6238 -50.058 -174.616 
-12.529 -50.1919 -174.61 
-12.4125 -50.2214 -174.61 
-12.3178 -50.3553 -174.604 
-12.223 -50.4892 -174.598 
-12.1282 -50.6231 -174.591 
-12.0335 -50.7571 -174.585 
-11.9604 -50.9955 -174.573 
-11.8656 -51.1294 -174.567 
-11.7925 -51.3678 -174.554 
-11.6977 -51.5018 -174.548 
-11.6246 -51.7402 -174.535 
-11.5298 -51.8741 -174.529 
-11.4351 -52.008 -174.523 
-11.3403 -52.142 -174.517 
-11.2455 -52.2759 -174.511 
-11.1507 -52.4098 -174.505 
-11.0343 -52.4393 -174.505 
-10.9395 -52.5732 -174.499 
-10.8448 -52.7071 -174.492 
-10.75 -52.841 -174.486 
-10.6552 -52.975 -174.48 
-10.5604 -53.1089 -174.474 
-10.4657 -53.2428 -174.468 
-10.3926 -53.4813 -174.455 
-10.2978 -53.6152 -174.449 
-10.203 -53.7491 -174.443 
-10.1083 -53.883 -174.437 
-10.0135 -54.017 -174.431 
-9.91871 -54.1509 -174.424 
-9.80228 -54.1803 -174.425 
-9.70751 -54.3143 -174.418 
-9.59107 -54.3437 -174.419 
-9.47464 -54.3731 -174.419 
-9.37987 -54.5071 -174.413 
-9.26343 -54.5365 -174.413 
-9.16866 -54.6704 -174.406 
-9.07389 -54.8044 -174.4 
-8.97911 -54.9383 -174.394 
-8.88434 -55.0722 -174.388 
-8.78957 -55.2061 -174.382 
-8.6948 -55.3401 -174.376 
-8.60003 -55.474 -174.369 
-8.52692 -55.7124 -174.357 
-8.43215 -55.8463 -174.351 
-8.33738 -55.9803 -174.345 
-8.26427 -56.2187 -174.332 
-8.1695 -56.3526 -174.326 
-8.07473 -56.4865 -174.32 
-7.97996 -56.6205 -174.314 
-7.88519 -56.7544 -174.307 
-7.76875 -56.7838 -174.308 
-7.67398 -56.9178 -174.301 
-7.55754 -56.9472 -174.302 
-7.44111 -56.9766 -174.302 
-7.34634 -57.1106 -174.296 
-7.2299 -57.14 -174.296 
-7.11347 -57.1694 -174.296 
-6.99703 -57.1989 -174.296 
-6.88059 -57.2283 -174.296 
-6.78582 -57.3622 -174.29 
-6.69105 -57.4962 -174.284 
-6.59628 -57.6301 -174.278 
-6.50151 -57.764 -174.272 
-6.4284 -58.0025 -174.259 
-6.33363 -58.1364 -174.253 
-6.26052 -58.3748 -174.24 
-6.18742 -58.6132 -174.228 
-6.09265 -58.7471 -174.222 
-5.99787 -58.8811 -174.215 
-5.9031 -59.015 -174.209 
-5.80833 -59.1489 -174.203 
-5.71356 -59.2829 -174.197 
-5.61879 -59.4168 -174.191 
-5.52402 -59.5507 -174.185 
-5.40758 -59.5802 -174.185 
-5.31281 -59.7141 -174.179 
-5.21804 -59.848 -174.172 
-5.1016 -59.8774 -174.173 
-5.00683 -60.0114 -174.166 
-4.8904 -60.0408 -174.167 
-4.79562 -60.1747 -174.16 
-4.67919 -60.2042 -174.161 
-4.58442 -60.3381 -174.154 
-4.46798 -60.3675 -174.155 
-4.35154 -60.397 -174.155 
-4.25677 -60.5309 -174.149 
-4.14034 -60.5603 -174.149 
-4.04557 -60.6943 -174.143 
-3.95079 -60.8282 -174.136 
-3.83435 -60.8576 -174.137 
-3.73959 -60.9916 -174.13 
-3.62315 -61.021 -174.131 
-3.50672 -61.0504 -174.131 
-3.41194 -61.1844 -174.125 
-3.29551 -61.2138 -174.125 
-3.20074 -61.3477 -174.119 
-3.0843 -61.3772 -174.119 
-2.98953 -61.5111 -174.113 
-2.87309 -61.5405 -174.113 
-2.77832 -61.6745 -174.107 
-2.68355 -61.8084 -174.1 
-2.56711 -61.8378 -174.101 
-2.47234 -61.9718 -174.094 
-2.35591 -62.0012 -174.095 
-2.26113 -62.1351 -174.088 
-2.1447 -62.1646 -174.089 
-2.04993 -62.2985 -174.082 
-1.93349 -62.3279 -174.083 
-1.81706 -62.3574 -174.083 
-1.70062 -62.3868 -174.083 
-1.58418 -62.4162 -174.083 
-1.46775 -62.4457 -174.083 
-1.35131 -62.4751 -174.083 
-1.23488 -62.5046 -174.084 
-1.11844 -62.534 -174.084 
-1.002 -62.5634 -174.084 
-0.885566 -62.5929 -174.084 
-0.769128 -62.6223 -174.084 
-0.652694 -62.6517 -174.084 
-0.557925 -62.7857 -174.078 
-0.441488 -62.8151 -174.078 
-0.32505 -62.8446 -174.079 
-0.186953 -62.7695 -174.085 
-0.0705148 -62.7989 -174.085 
0.0675857 -62.7239 -174.092 
0.184022 -62.7533 -174.092 
0.322125 -62.6783 -174.098 
0.460223 -62.6032 -174.105 
0.598328 -62.5282 -174.111 
0.736424 -62.4531 -174.118 
0.852862 -62.4826 -174.118 
0.99096 -62.4075 -174.125 
1.1074 -62.4369 -174.125 
1.22383 -62.4664 -174.125 
1.36193 -62.3913 -174.131 
1.47837 -62.4208 -174.132 
1.59481 -62.4502 -174.132 
1.71124 -62.4796 -174.132 
1.82768 -62.5091 -174.132 
1.96578 -62.434 -174.139 
2.10388 -62.359 -174.145 
2.24198 -62.2839 -174.152 
2.40175 -62.1044 -174.164 
2.53985 -62.0293 -174.171 
2.69961 -61.8498 -174.184 
2.83772 -61.7747 -174.19 
2.99748 -61.5952 -174.203 
3.13558 -61.5201 -174.21 
3.27368 -61.4451 -174.216 
3.41178 -61.37 -174.223 
3.54988 -61.295 -174.229 
3.68799 -61.2199 -174.236 
3.80442 -61.2494 -174.236 
3.94252 -61.1743 -174.242 
4.08062 -61.0993 -174.249 
4.21872 -61.0242 -174.255 
4.35682 -60.9492 -174.262 
4.49493 -60.8741 -174.268 
4.63303 -60.799 -174.275 
4.79279 -60.6195 -174.288 
4.93089 -60.5445 -174.294 
5.06899 -60.4694 -174.301 
5.20709 -60.3943 -174.307 
5.34519 -60.3193 -174.314 
5.4833 -60.2442 -174.32 
5.59973 -60.2737 -174.32 
5.73784 -60.1986 -174.327 
5.85427 -60.2281 -174.327 
5.97071 -60.2575 -174.327 
6.10881 -60.1825 -174.334 
6.22524 -60.2119 -174.334 
6.36334 -60.1368 -174.34 
6.50144 -60.0618 -174.347 
6.63954 -59.9867 -174.353 
6.77765 -59.9117 -174.36 
6.91575 -59.8366 -174.366 
7.05385 -59.7616 -174.373 
7.21361 -59.582 -174.386 
7.35172 -59.507 -174.392 
7.48981 -59.4319 -174.399 
7.62791 -59.3569 -174.405 
7.76602 -59.2818 -174.412 
7.90412 -59.2068 -174.418 
8.04222 -59.1317 -174.425 
8.18032 -59.0567 -174.431 
8.31842 -58.9816 -174.438 
8.45652 -58.9066 -174.444 
8.59462 -58.8315 -174.451 
8.73272 -58.7565 -174.457 
8.89248 -58.5769 -174.47 
9.05225 -58.3974 -174.483 
9.19036 -58.3223 -174.49 
9.35012 -58.1428 -174.502 
9.50988 -57.9632 -174.515 
9.64799 -57.8882 -174.522 
9.78609 -57.8131 -174.528 
9.92419 -57.7381 -174.535 
10.0406 -57.7675 -174.535 
10.1787 -57.6925 -174.541 
10.2952 -57.7219 -174.542 
10.4116 -57.7513 -174.542 
10.5497 -57.6763 -174.548 
10.6661 -57.7057 -174.548 
10.8042 -57.6307 -174.555 
10.9423 -57.5556 -174.561 
11.0804 -57.4806 -174.568 
11.2185 -57.4055 -174.574 
11.3783 -57.226 -174.587 
11.5164 -57.1509 -174.594 
11.6762 -56.9714 -174.607 
11.8359 -56.7918 -174.619 
11.974 -56.7168 -174.626 
12.1121 -56.6417 -174.633 
12.2719 -56.4622 -174.645 
12.41 -56.3871 -174.652 
12.5481 -56.3121 -174.658 
12.6862 -56.237 -174.665 
12.8243 -56.162 -174.671 
12.9624 -56.0869 -174.678 
13.1005 -56.0119 -174.684 
13.2386 -55.9368 -174.691 
13.3767 -55.8618 -174.697 
13.5148 -55.7867 -174.704 
13.6529 -55.7117 -174.71 
13.8127 -55.5321 -174.723 
13.9508 -55.4571 -174.73 
14.0889 -55.382 -174.736 
14.227 -55.307 -174.743 
14.3651 -55.2319 -174.749 
