ply
format ascii 1.0
comment VCGLIB generated
element vertex 871
property float x
property float y
property float z
element face 0
property list uchar int vertex_indices
end_header
17.9601 -50.6731 -178.5 
18.0682 -50.6209 -178.5 
18.1763 -50.5686 -178.5 
18.2845 -50.5163 -178.5 
18.3926 -50.464 -178.501 
18.5513 -50.5057 -178.494 
18.6594 -50.4534 -178.495 
18.7675 -50.4011 -178.495 
18.8756 -50.3488 -178.495 
18.9837 -50.2965 -178.495 
19.0919 -50.2442 -178.495 
19.2 -50.1919 -178.495 
19.3081 -50.1396 -178.496 
19.4162 -50.0873 -178.496 
19.5243 -50.035 -178.496 
19.6324 -49.9827 -178.496 
19.7406 -49.9304 -178.496 
19.8487 -49.8781 -178.496 
19.9568 -49.8258 -178.497 
20.0649 -49.7736 -178.497 
20.173 -49.7213 -178.497 
20.2811 -49.669 -178.497 
20.3893 -49.6167 -178.497 
20.4974 -49.5644 -178.497 
20.6055 -49.5121 -178.498 
20.7136 -49.4598 -178.498 
20.8217 -49.4075 -178.498 
20.9804 -49.4492 -178.492 
21.0885 -49.3969 -178.492 
21.1967 -49.3446 -178.492 
21.3553 -49.3863 -178.486 
21.4635 -49.334 -178.486 
21.6221 -49.3757 -178.48 
21.7303 -49.3234 -178.48 
21.889 -49.365 -178.474 
21.9971 -49.3127 -178.474 
22.1558 -49.3544 -178.468 
22.3144 -49.3961 -178.462 
22.4226 -49.3438 -178.462 
22.5812 -49.3855 -178.456 
22.6894 -49.3332 -178.456 
22.848 -49.3749 -178.45 
22.9562 -49.3226 -178.45 
23.1148 -49.3642 -178.444 
23.223 -49.312 -178.444 
23.3311 -49.2597 -178.444 
23.4898 -49.3013 -178.438 
23.5979 -49.249 -178.438 
23.706 -49.1968 -178.438 
23.8647 -49.2384 -178.432 
23.9728 -49.1861 -178.432 
24.1315 -49.2278 -178.426 
24.2902 -49.2695 -178.42 
24.3983 -49.2172 -178.42 
24.557 -49.2589 -178.414 
24.6651 -49.2066 -178.414 
24.7732 -49.1543 -178.414 
24.9319 -49.196 -178.408 
25.04 -49.1437 -178.408 
25.1481 -49.0914 -178.408 
25.3068 -49.1331 -178.402 
25.4149 -49.0808 -178.402 
25.5231 -49.0285 -178.402 
25.6818 -49.0701 -178.396 
25.8404 -49.1118 -178.39 
25.9486 -49.0595 -178.39 
26.1072 -49.1012 -178.384 
26.2659 -49.1429 -178.378 
26.4246 -49.1846 -178.372 
26.5833 -49.2262 -178.366 
26.6914 -49.1739 -178.366 
26.8501 -49.2156 -178.36 
26.9582 -49.1633 -178.36 
27.1169 -49.205 -178.354 
27.225 -49.1527 -178.354 
27.3837 -49.1944 -178.348 
27.4918 -49.1421 -178.348 
27.5999 -49.0898 -178.348 
27.7586 -49.1315 -178.342 
27.8667 -49.0792 -178.342 
28.0254 -49.1209 -178.336 
28.1336 -49.0686 -178.336 
28.2922 -49.1103 -178.33 
28.4509 -49.1519 -178.324 
28.559 -49.0996 -178.324 
28.7177 -49.1413 -178.318 
28.8764 -49.183 -178.311 
28.9845 -49.1307 -178.312 
29.0926 -49.0784 -178.312 
29.2008 -49.0261 -178.312 
29.3089 -48.9738 -178.312 
29.4676 -49.0155 -178.306 
29.5757 -48.9632 -178.306 
29.6838 -48.9109 -178.306 
29.8425 -48.9526 -178.3 
30.0012 -48.9943 -178.294 
30.1599 -49.0359 -178.288 
30.3691 -49.1716 -178.275 
30.5784 -49.3072 -178.263 
30.7876 -49.4429 -178.25 
30.9969 -49.5785 -178.238 
31.2061 -49.7142 -178.225 
31.4154 -49.8498 -178.213 
31.5741 -49.8915 -178.206 
31.7328 -49.9332 -178.2 
31.8915 -49.9748 -178.194 
31.9996 -49.9226 -178.194 
32.1583 -49.9642 -178.188 
32.2664 -49.9119 -178.188 
32.3745 -49.8596 -178.188 
32.4826 -49.8074 -178.189 
32.5907 -49.7551 -178.189 
32.6988 -49.7028 -178.189 
32.807 -49.6505 -178.189 
32.9151 -49.5982 -178.189 
33.0738 -49.6399 -178.183 
33.1819 -49.5876 -178.183 
33.29 -49.5353 -178.183 
33.3981 -49.483 -178.184 
33.5062 -49.4307 -178.184 
33.6144 -49.3784 -178.184 
33.7225 -49.3261 -178.184 
33.8306 -49.2738 -178.184 
33.9387 -49.2215 -178.184 
34.0468 -49.1692 -178.185 
34.1044 -49.023 -178.191 
34.2125 -48.9707 -178.191 
34.3206 -48.9184 -178.191 
34.4287 -48.8661 -178.192 
34.5368 -48.8138 -178.192 
34.645 -48.7615 -178.192 
34.7025 -48.6152 -178.198 
34.8106 -48.5629 -178.199 
34.9187 -48.5106 -178.199 
35.0269 -48.4584 -178.199 
35.135 -48.4061 -178.199 
35.2431 -48.3538 -178.199 
35.3512 -48.3015 -178.199 
35.4593 -48.2492 -178.2 
35.5169 -48.1029 -178.206 
35.625 -48.0506 -178.206 
35.7331 -47.9983 -178.206 
35.8412 -47.946 -178.207 
35.9493 -47.8937 -178.207 
36.0575 -47.8415 -178.207 
36.1656 -47.7892 -178.207 
36.2737 -47.7369 -178.207 
36.3818 -47.6846 -178.207 
36.4899 -47.6323 -178.208 
36.5981 -47.58 -178.208 
36.7062 -47.5277 -178.208 
36.8143 -47.4754 -178.208 
36.9224 -47.4231 -178.208 
37.0305 -47.3708 -178.208 
37.1386 -47.3185 -178.209 
37.2973 -47.3602 -178.202 
37.4054 -47.3079 -178.203 
37.5136 -47.2556 -178.203 
37.6722 -47.2973 -178.197 
37.7804 -47.245 -178.197 
37.8885 -47.1927 -178.197 
38.0472 -47.2344 -178.191 
38.1553 -47.1821 -178.191 
38.314 -47.2238 -178.185 
38.4221 -47.1715 -178.185 
38.5302 -47.1192 -178.185 
38.6889 -47.1609 -178.179 
38.797 -47.1086 -178.179 
38.9051 -47.0563 -178.179 
39.0132 -47.004 -178.179 
39.1214 -46.9517 -178.18 
39.2295 -46.8994 -178.18 
39.3376 -46.8471 -178.18 
39.4457 -46.7948 -178.18 
39.5538 -46.7425 -178.18 
39.6619 -46.6902 -178.18 
39.7701 -46.6379 -178.181 
39.8782 -46.5856 -178.181 
39.9863 -46.5333 -178.181 
40.0438 -46.3871 -178.187 
40.152 -46.3348 -178.188 
40.2601 -46.2825 -178.188 
40.3682 -46.2302 -178.188 
40.4763 -46.1779 -178.188 
40.5844 -46.1256 -178.188 
40.6926 -46.0733 -178.188 
40.8007 -46.021 -178.189 
40.9088 -45.9687 -178.189 
41.0169 -45.9164 -178.189 
41.125 -45.8641 -178.189 
41.2331 -45.8119 -178.189 
41.3413 -45.7596 -178.189 
41.4494 -45.7073 -178.19 
41.5575 -45.655 -178.19 
41.615 -45.5087 -178.196 
41.7232 -45.4564 -178.196 
41.8313 -45.4041 -178.197 
41.9394 -45.3518 -178.197 
41.9969 -45.2056 -178.203 
42.1051 -45.1533 -178.203 
42.2132 -45.101 -178.204 
42.3213 -45.0487 -178.204 
42.4294 -44.9964 -178.204 
42.487 -44.8501 -178.21 
42.5951 -44.7978 -178.211 
42.7032 -44.7456 -178.211 
42.8113 -44.6933 -178.211 
42.9194 -44.641 -178.211 
43.0275 -44.5887 -178.211 
43.1357 -44.5364 -178.211 
43.2438 -44.4841 -178.212 
43.3013 -44.3378 -178.218 
43.4094 -44.2855 -178.218 
43.5176 -44.2332 -178.218 
43.6257 -44.1809 -178.219 
43.7338 -44.1287 -178.219 
43.8419 -44.0764 -178.219 
43.95 -44.0241 -178.219 
44.0582 -43.9718 -178.219 
44.1663 -43.9195 -178.219 
44.2744 -43.8672 -178.22 
44.3825 -43.8149 -178.22 
44.4906 -43.7626 -178.22 
44.5987 -43.7103 -178.22 
44.7069 -43.658 -178.22 
44.7644 -43.5118 -178.227 
44.8725 -43.4595 -178.227 
44.9301 -43.3132 -178.234 
45.0382 -43.2609 -178.234 
45.0957 -43.1146 -178.24 
45.2039 -43.0623 -178.24 
45.2614 -42.9161 -178.247 
45.319 -42.7698 -178.253 
45.4271 -42.7175 -178.254 
45.4846 -42.5713 -178.26 
45.5927 -42.519 -178.26 
45.6503 -42.3727 -178.267 
45.7584 -42.3204 -178.267 
45.816 -42.1742 -178.273 
45.9241 -42.1219 -178.274 
46.0322 -42.0696 -178.274 
46.0897 -41.9233 -178.28 
46.1979 -41.871 -178.28 
46.306 -41.8187 -178.281 
46.3635 -41.6725 -178.287 
46.4716 -41.6202 -178.287 
46.5292 -41.4739 -178.294 
46.6373 -41.4216 -178.294 
46.7454 -41.3693 -178.294 
46.803 -41.2231 -178.301 
46.9111 -41.1708 -178.301 
46.9686 -41.0245 -178.307 
47.0768 -40.9722 -178.307 
47.1343 -40.8259 -178.314 
47.2424 -40.7736 -178.314 
47.3505 -40.7214 -178.314 
47.4587 -40.6691 -178.314 
47.5668 -40.6168 -178.315 
47.6749 -40.5645 -178.315 
47.8336 -40.6062 -178.309 
47.9417 -40.5539 -178.309 
47.9992 -40.4076 -178.315 
48.1074 -40.3553 -178.315 
48.1649 -40.209 -178.322 
48.2225 -40.0628 -178.328 
48.2294 -39.8225 -178.341 
48.287 -39.6763 -178.348 
48.294 -39.4361 -178.361 
48.3009 -39.1958 -178.373 
48.3079 -38.9556 -178.386 
48.3149 -38.7154 -178.399 
48.3724 -38.5691 -178.406 
48.43 -38.4228 -178.412 
48.4875 -38.2766 -178.419 
48.5957 -38.2243 -178.419 
48.7038 -38.172 -178.419 
48.8119 -38.1197 -178.419 
48.92 -38.0674 -178.419 
49.0281 -38.0151 -178.419 
49.1363 -37.9628 -178.42 
49.2444 -37.9105 -178.42 
49.3525 -37.8582 -178.42 
49.4606 -37.8059 -178.42 
49.5687 -37.7536 -178.42 
49.6768 -37.7013 -178.42 
49.7344 -37.5551 -178.427 
49.8425 -37.5028 -178.427 
49.9001 -37.3565 -178.434 
49.9576 -37.2103 -178.44 
0.499236 -60.307 -178.107 
0.618721 -60.2948 -178.107 
0.738204 -60.2827 -178.107 
0.857684 -60.2705 -178.107 
0.977168 -60.2584 -178.108 
1.08127 -60.1406 -178.114 
1.20075 -60.1284 -178.114 
1.32024 -60.1163 -178.114 
1.43972 -60.1041 -178.115 
1.5592 -60.092 -178.115 
1.67868 -60.0798 -178.115 
1.79817 -60.0676 -178.115 
1.91765 -60.0555 -178.115 
2.03713 -60.0433 -178.115 
2.15661 -60.0312 -178.116 
2.2761 -60.019 -178.116 
2.39558 -60.0068 -178.116 
2.51506 -59.9947 -178.116 
2.63454 -59.9825 -178.116 
2.75402 -59.9703 -178.116 
2.85813 -59.8526 -178.123 
2.97761 -59.8404 -178.123 
3.09709 -59.8283 -178.123 
3.2012 -59.7105 -178.13 
3.3053 -59.5927 -178.136 
3.42478 -59.5806 -178.136 
3.52888 -59.4628 -178.143 
3.63299 -59.3451 -178.149 
3.75247 -59.3329 -178.15 
3.85657 -59.2151 -178.156 
3.96068 -59.0974 -178.163 
4.08016 -59.0852 -178.163 
4.19964 -59.0731 -178.163 
4.30374 -58.9553 -178.169 
4.42322 -58.9431 -178.17 
4.5427 -58.931 -178.17 
4.66219 -58.9188 -178.17 
4.78167 -58.9067 -178.17 
4.90115 -58.8945 -178.17 
5.02064 -58.8823 -178.17 
5.14012 -58.8702 -178.171 
5.2596 -58.858 -178.171 
5.36371 -58.7403 -178.177 
5.48319 -58.7281 -178.177 
5.60267 -58.7159 -178.178 
5.72215 -58.7038 -178.178 
5.82625 -58.586 -178.184 
5.94574 -58.5739 -178.184 
6.06522 -58.5617 -178.185 
6.16932 -58.4439 -178.191 
6.2888 -58.4318 -178.191 
6.40829 -58.4196 -178.191 
6.52777 -58.4075 -178.192 
6.63187 -58.2897 -178.198 
6.75136 -58.2775 -178.198 
6.85546 -58.1598 -178.205 
6.95956 -58.042 -178.211 
7.06366 -57.9243 -178.218 
7.18315 -57.9121 -178.218 
7.28725 -57.7943 -178.225 
7.39135 -57.6766 -178.231 
7.49545 -57.5588 -178.238 
7.61494 -57.5467 -178.238 
7.71904 -57.4289 -178.244 
7.83852 -57.4167 -178.244 
7.94263 -57.299 -178.251 
8.06211 -57.2868 -178.251 
8.18159 -57.2747 -178.251 
8.30107 -57.2625 -178.251 
8.42055 -57.2503 -178.252 
8.52466 -57.1326 -178.258 
8.64414 -57.1204 -178.258 
8.74824 -57.0027 -178.265 
8.86773 -56.9905 -178.265 
8.97183 -56.8727 -178.271 
9.07593 -56.755 -178.278 
9.18004 -56.6372 -178.284 
9.28414 -56.5195 -178.291 
9.40362 -56.5073 -178.291 
9.50772 -56.3895 -178.298 
9.61183 -56.2718 -178.304 
9.73131 -56.2596 -178.304 
9.85079 -56.2475 -178.304 
9.9549 -56.1297 -178.311 
10.0744 -56.1175 -178.311 
10.1939 -56.1054 -178.311 
10.298 -55.9876 -178.318 
10.4174 -55.9755 -178.318 
10.5369 -55.9633 -178.318 
10.641 -55.8455 -178.325 
10.7605 -55.8334 -178.325 
10.8646 -55.7156 -178.331 
10.9841 -55.7035 -178.331 
11.0882 -55.5857 -178.338 
11.2077 -55.5735 -178.338 
11.3118 -55.4558 -178.345 
11.4159 -55.338 -178.351 
11.5354 -55.3259 -178.351 
11.6395 -55.2081 -178.358 
11.759 -55.1959 -178.358 
11.8631 -55.0782 -178.364 
11.9672 -54.9604 -178.371 
12.0866 -54.9483 -178.371 
12.1907 -54.8305 -178.378 
12.2948 -54.7127 -178.384 
12.4143 -54.7006 -178.384 
12.5184 -54.5828 -178.391 
12.6379 -54.5707 -178.391 
12.742 -54.4529 -178.397 
12.8461 -54.3351 -178.404 
12.9656 -54.323 -178.404 
13.0697 -54.2052 -178.411 
13.1738 -54.0875 -178.417 
13.2933 -54.0753 -178.417 
13.3974 -53.9575 -178.424 
13.5015 -53.8398 -178.43 
13.6056 -53.722 -178.437 
13.7251 -53.7099 -178.437 
13.8292 -53.5921 -178.444 
13.9333 -53.4743 -178.45 
14.0374 -53.3566 -178.457 
14.1415 -53.2388 -178.463 
14.2456 -53.1211 -178.47 
14.3497 -53.0033 -178.476 
14.4538 -52.8855 -178.483 
14.5733 -52.8734 -178.483 
14.6774 -52.7556 -178.489 
14.7815 -52.6379 -178.496 
14.8856 -52.5201 -178.502 
15.0051 -52.5079 -178.502 
15.1092 -52.3902 -178.509 
15.2287 -52.378 -178.509 
15.3328 -52.2603 -178.516 
15.4523 -52.2481 -178.516 
15.5564 -52.1303 -178.522 
15.6758 -52.1182 -178.522 
15.7799 -52.0004 -178.529 
15.8994 -51.9883 -178.529 
16.0035 -51.8705 -178.536 
16.123 -51.8583 -178.536 
16.2271 -51.7406 -178.542 
16.3312 -51.6228 -178.549 
16.4507 -51.6107 -178.549 
16.5548 -51.4929 -178.555 
16.6589 -51.3751 -178.562 
16.7784 -51.363 -178.562 
16.8825 -51.2452 -178.569 
16.9866 -51.1275 -178.575 
17.0907 -51.0097 -178.582 
17.1948 -50.8919 -178.588 
17.3143 -50.8798 -178.588 
17.4184 -50.762 -178.595 
17.5225 -50.6443 -178.601 
17.642 -50.6321 -178.601 
17.7461 -50.5143 -178.608 
17.8502 -50.3966 -178.615 
17.9697 -50.3844 -178.615 
18.0738 -50.2667 -178.621 
18.1932 -50.2545 -178.621 
18.3127 -50.2423 -178.622 
18.4322 -50.2302 -178.622 
18.5517 -50.218 -178.622 
18.6712 -50.2059 -178.622 
18.7907 -50.1937 -178.622 
18.9101 -50.1815 -178.622 
19.0296 -50.1694 -178.623 
19.1491 -50.1572 -178.623 
19.2686 -50.1451 -178.623 
19.3881 -50.1329 -178.623 
19.4922 -50.0151 -178.63 
19.5963 -49.8974 -178.636 
19.7158 -49.8852 -178.636 
19.8199 -49.7675 -178.643 
19.924 -49.6497 -178.649 
20.0434 -49.6375 -178.649 
20.1475 -49.5198 -178.656 
20.267 -49.5076 -178.656 
20.3711 -49.3899 -178.663 
20.4906 -49.3777 -178.663 
20.6101 -49.3655 -178.663 
20.7296 -49.3534 -178.663 
20.8491 -49.3412 -178.663 
20.9685 -49.3291 -178.663 
21.088 -49.3169 -178.664 
21.2075 -49.3047 -178.664 
21.327 -49.2926 -178.664 
21.4465 -49.2804 -178.664 
21.566 -49.2682 -178.664 
21.6854 -49.2561 -178.664 
21.8049 -49.2439 -178.665 
21.9244 -49.2318 -178.665 
22.0439 -49.2196 -178.665 
22.1634 -49.2074 -178.665 
22.2828 -49.1953 -178.665 
22.4023 -49.1831 -178.665 
22.5218 -49.171 -178.666 
22.6567 -49.2644 -178.659 
22.7762 -49.2522 -178.66 
22.8956 -49.2401 -178.66 
23.0151 -49.2279 -178.66 
23.1346 -49.2158 -178.66 
23.2541 -49.2036 -178.66 
23.3736 -49.1914 -178.66 
23.5084 -49.2849 -178.654 
23.6279 -49.2727 -178.654 
23.7474 -49.2606 -178.655 
23.8669 -49.2484 -178.655 
23.9864 -49.2362 -178.655 
24.1058 -49.2241 -178.655 
24.2253 -49.2119 -178.655 
24.3448 -49.1997 -178.655 
24.4643 -49.1876 -178.656 
24.5991 -49.281 -178.649 
24.7186 -49.2689 -178.65 
24.8381 -49.2567 -178.65 
24.9576 -49.2445 -178.65 
25.0771 -49.2324 -178.65 
25.1966 -49.2202 -178.65 
25.316 -49.2081 -178.65 
25.4509 -49.3015 -178.644 
25.5704 -49.2893 -178.644 
25.6899 -49.2772 -178.645 
25.8094 -49.265 -178.645 
25.9288 -49.2528 -178.645 
26.0483 -49.2407 -178.645 
26.1678 -49.2285 -178.645 
26.2873 -49.2164 -178.645 
26.4068 -49.2042 -178.646 
26.5416 -49.2976 -178.639 
26.6611 -49.2855 -178.64 
26.7806 -49.2733 -178.64 
26.9001 -49.2612 -178.64 
27.0196 -49.249 -178.64 
27.139 -49.2368 -178.64 
27.2585 -49.2247 -178.64 
27.3934 -49.3181 -178.634 
27.5129 -49.306 -178.634 
27.6323 -49.2938 -178.635 
27.7518 -49.2816 -178.635 
27.8713 -49.2695 -178.635 
27.9908 -49.2573 -178.635 
28.1103 -49.2452 -178.635 
28.2298 -49.233 -178.635 
28.3492 -49.2208 -178.636 
28.4841 -49.3143 -178.629 
28.6036 -49.3021 -178.63 
28.7231 -49.2899 -178.63 
28.8426 -49.2778 -178.63 
28.962 -49.2656 -178.63 
29.0815 -49.2535 -178.63 
29.2164 -49.3469 -178.624 
29.3359 -49.3347 -178.624 
29.4553 -49.3226 -178.624 
29.5902 -49.416 -178.618 
29.7097 -49.4039 -178.618 
29.8292 -49.3917 -178.618 
29.9487 -49.3795 -178.619 
30.0681 -49.3674 -178.619 
30.1876 -49.3552 -178.619 
30.3225 -49.4487 -178.613 
30.442 -49.4365 -178.613 
30.5614 -49.4243 -178.613 
30.6963 -49.5178 -178.607 
30.8158 -49.5056 -178.607 
30.9507 -49.599 -178.601 
31.0701 -49.5869 -178.601 
31.205 -49.6803 -178.595 
31.3399 -49.7738 -178.589 
31.4747 -49.8672 -178.583 
31.6096 -49.9606 -178.576 
31.7291 -49.9485 -178.577 
31.8639 -50.0419 -178.57 
31.9988 -50.1353 -178.564 
32.1183 -50.1232 -178.564 
32.2378 -50.111 -178.565 
32.3572 -50.0989 -178.565 
32.4921 -50.1923 -178.559 
32.6116 -50.1801 -178.559 
32.7311 -50.168 -178.559 
32.8505 -50.1558 -178.559 
32.97 -50.1437 -178.559 
33.0895 -50.1315 -178.559 
33.209 -50.1193 -178.56 
33.3285 -50.1072 -178.56 
33.4633 -50.2006 -178.554 
33.5828 -50.1885 -178.554 
33.7023 -50.1763 -178.554 
33.8218 -50.1641 -178.554 
33.9413 -50.152 -178.554 
34.0607 -50.1398 -178.554 
34.1802 -50.1276 -178.555 
-17.2757 -42.9436 -178.95 
-17.1592 -42.9731 -178.95 
-17.0645 -43.107 -178.944 
-16.9913 -43.3454 -178.931 
-16.8966 -43.4793 -178.925 
-16.8235 -43.7178 -178.913 
-16.7504 -43.9562 -178.9 
-16.6773 -44.1946 -178.888 
-16.5825 -44.3285 -178.882 
-16.5094 -44.5669 -178.869 
-16.4146 -44.7009 -178.863 
-16.3198 -44.8348 -178.857 
-16.2034 -44.8642 -178.857 
-16.1086 -44.9982 -178.851 
-16.0139 -45.1321 -178.845 
-15.9191 -45.266 -178.838 
-15.8243 -45.4 -178.832 
-15.7295 -45.5339 -178.826 
-15.6564 -45.7723 -178.814 
-15.5617 -45.9062 -178.807 
-15.4669 -46.0402 -178.801 
-15.3938 -46.2786 -178.789 
-15.299 -46.4125 -178.782 
-15.2042 -46.5464 -178.776 
-15.1095 -46.6804 -178.77 
-15.0147 -46.8143 -178.764 
-14.9199 -46.9482 -178.758 
-14.8252 -47.0821 -178.752 
-14.7087 -47.1116 -178.752 
-14.614 -47.2455 -178.746 
-14.5192 -47.3794 -178.739 
-14.4244 -47.5134 -178.733 
-14.3296 -47.6473 -178.727 
-14.2349 -47.7812 -178.721 
-14.1401 -47.9151 -178.715 
-14.0453 -48.0491 -178.709 
-13.9506 -48.183 -178.702 
-13.8558 -48.3169 -178.696 
-13.761 -48.4509 -178.69 
-13.6662 -48.5848 -178.684 
-13.5715 -48.7187 -178.678 
-13.4767 -48.8526 -178.672 
-13.3603 -48.8821 -178.672 
-13.2655 -49.016 -178.666 
-13.1707 -49.1499 -178.659 
-13.0543 -49.1794 -178.66 
-12.9595 -49.3133 -178.653 
-12.8647 -49.4472 -178.647 
-12.77 -49.5812 -178.641 
-12.6752 -49.7151 -178.635 
-12.5804 -49.849 -178.629 
-12.5073 -50.0874 -178.616 
-12.4125 -50.2214 -178.61 
-12.3178 -50.3553 -178.604 
-12.2447 -50.5937 -178.591 
-12.1499 -50.7276 -178.585 
-12.0551 -50.8616 -178.579 
-11.982 -51.1 -178.566 
-11.8872 -51.2339 -178.56 
-11.7925 -51.3678 -178.554 
-11.6977 -51.5018 -178.548 
-11.6029 -51.6357 -178.542 
-11.5082 -51.7696 -178.536 
-11.4134 -51.9036 -178.529 
-11.3186 -52.0375 -178.523 
-11.2238 -52.1714 -178.517 
-11.1291 -52.3053 -178.511 
-11.0343 -52.4393 -178.505 
-10.9179 -52.4687 -178.505 
-10.8231 -52.6026 -178.499 
-10.7283 -52.7366 -178.493 
-10.6336 -52.8705 -178.486 
-10.5388 -53.0044 -178.48 
-10.444 -53.1383 -178.474 
-10.3492 -53.2723 -178.468 
-10.2545 -53.4062 -178.462 
-10.1597 -53.5401 -178.456 
-10.0649 -53.6741 -178.449 
-9.97016 -53.808 -178.443 
-9.87538 -53.9419 -178.437 
-9.78061 -54.0758 -178.431 
-9.68584 -54.2098 -178.425 
-9.59107 -54.3437 -178.419 
-9.4963 -54.4776 -178.412 
-9.40153 -54.6115 -178.406 
-9.30676 -54.7455 -178.4 
-9.21199 -54.8794 -178.394 
-9.11721 -55.0133 -178.388 
-9.02244 -55.1473 -178.381 
-8.92767 -55.2812 -178.375 
-8.8329 -55.4151 -178.369 
-8.73813 -55.549 -178.363 
-8.64336 -55.683 -178.357 
-8.52692 -55.7124 -178.357 
-8.43215 -55.8463 -178.351 
-8.33738 -55.9803 -178.345 
-8.24261 -56.1142 -178.338 
-8.12617 -56.1436 -178.339 
-8.0314 -56.2776 -178.332 
-7.93663 -56.4115 -178.326 
-7.8202 -56.4409 -178.326 
-7.72542 -56.5749 -178.32 
-7.63065 -56.7088 -178.314 
-7.53588 -56.8427 -178.308 
-7.44111 -56.9766 -178.302 
-7.34634 -57.1106 -178.296 
-7.27323 -57.349 -178.283 
-7.17846 -57.4829 -178.277 
-7.08369 -57.6168 -178.271 
-7.01058 -57.8553 -178.258 
-6.91581 -57.9892 -178.252 
-6.82104 -58.1231 -178.246 
-6.72627 -58.257 -178.24 
-6.6315 -58.391 -178.234 
-6.53672 -58.5249 -178.227 
-6.42029 -58.5543 -178.228 
-6.32552 -58.6883 -178.221 
-6.23074 -58.8222 -178.215 
-6.11431 -58.8516 -178.215 
-6.01954 -58.9856 -178.209 
-5.92477 -59.1195 -178.203 
-5.82999 -59.2534 -178.197 
-5.73522 -59.3873 -178.191 
-5.64045 -59.5213 -178.184 
-5.54568 -59.6552 -178.178 
-5.42924 -59.6846 -178.178 
-5.33448 -59.8186 -178.172 
-5.23971 -59.9525 -178.166 
-5.14493 -60.0864 -178.16 
-5.02849 -60.1159 -178.16 
-4.91206 -60.1453 -178.16 
-4.81729 -60.2792 -178.154 
-4.70085 -60.3087 -178.154 
-4.58442 -60.3381 -178.154 
-4.48964 -60.472 -178.148 
-4.37321 -60.5015 -178.148 
-4.25677 -60.5309 -178.149 
-4.162 -60.6648 -178.142 
-4.06723 -60.7988 -178.136 
-3.95079 -60.8282 -178.136 
-3.85602 -60.9621 -178.13 
-3.73959 -60.9916 -178.13 
-3.64482 -61.1255 -178.124 
-3.52838 -61.1549 -178.124 
-3.41194 -61.1844 -178.125 
-3.29551 -61.2138 -178.125 
-3.17907 -61.2432 -178.125 
-3.06264 -61.2727 -178.125 
-2.9462 -61.3021 -178.125 
-2.82976 -61.3316 -178.125 
-2.71333 -61.361 -178.126 
-2.59689 -61.3904 -178.126 
-2.48046 -61.4199 -178.126 
-2.36402 -61.4493 -178.126 
-2.24758 -61.4787 -178.126 
-2.13115 -61.5082 -178.126 
-2.01471 -61.5376 -178.127 
-1.89827 -61.5671 -178.127 
-1.76017 -61.492 -178.133 
-1.64374 -61.5215 -178.133 
-1.50564 -61.4464 -178.14 
-1.3892 -61.4758 -178.14 
-1.2511 -61.4008 -178.147 
-1.113 -61.3257 -178.153 
-0.974898 -61.2507 -178.16 
-0.85846 -61.2801 -178.16 
-0.720364 -61.2051 -178.166 
-0.582262 -61.13 -178.173 
-0.444156 -61.055 -178.179 
-0.327723 -61.0844 -178.179 
-0.189623 -61.0093 -178.186 
-0.0515211 -60.9343 -178.192 
0.0649166 -60.9637 -178.193 
0.203013 -60.8887 -178.199 
0.319452 -60.9181 -178.199 
0.457553 -60.8431 -178.206 
0.595654 -60.768 -178.212 
0.712093 -60.7974 -178.212 
0.850189 -60.7224 -178.219 
0.988291 -60.6473 -178.225 
1.10473 -60.6768 -178.226 
1.24283 -60.6017 -178.232 
1.35926 -60.6312 -178.232 
1.49736 -60.5561 -178.239 
1.6138 -60.5856 -178.239 
1.7519 -60.5105 -178.246 
1.86834 -60.5399 -178.246 
2.00644 -60.4649 -178.252 
2.12287 -60.4943 -178.252 
2.26098 -60.4193 -178.259 
2.37741 -60.4487 -178.259 
2.51551 -60.3737 -178.266 
2.65361 -60.2986 -178.272 
2.79171 -60.2236 -178.279 
2.92981 -60.1485 -178.285 
3.06792 -60.0734 -178.292 
3.20602 -59.9984 -178.298 
3.34412 -59.9233 -178.305 
3.48222 -59.8483 -178.311 
3.62032 -59.7732 -178.318 
3.75842 -59.6982 -178.324 
3.89652 -59.6231 -178.331 
4.03462 -59.5481 -178.337 
4.17272 -59.473 -178.344 
4.31082 -59.398 -178.35 
4.44893 -59.3229 -178.357 
4.58703 -59.2479 -178.363 
4.72512 -59.1728 -178.37 
4.86323 -59.0978 -178.376 
4.97966 -59.1272 -178.376 
5.11776 -59.0522 -178.383 
5.2342 -59.0816 -178.383 
5.3723 -59.0065 -178.389 
5.5104 -58.9315 -178.396 
5.62684 -58.9609 -178.396 
5.76494 -58.8859 -178.403 
5.90304 -58.8108 -178.409 
6.04114 -58.7358 -178.416 
6.17924 -58.6607 -178.422 
6.31734 -58.5857 -178.429 
6.45544 -58.5106 -178.435 
6.59354 -58.4356 -178.442 
6.73164 -58.3605 -178.448 
6.86975 -58.2855 -178.455 
7.00785 -58.2104 -178.461 
7.14595 -58.1353 -178.468 
7.28405 -58.0603 -178.474 
7.42215 -57.9852 -178.481 
7.56025 -57.9102 -178.487 
7.69835 -57.8351 -178.494 
7.83645 -57.7601 -178.5 
7.97455 -57.685 -178.507 
8.11265 -57.61 -178.513 
8.22909 -57.6394 -178.513 
8.36719 -57.5644 -178.52 
8.50529 -57.4893 -178.526 
8.64339 -57.4143 -178.533 
8.78149 -57.3392 -178.539 
8.91959 -57.2642 -178.546 
9.05769 -57.1891 -178.552 
9.19579 -57.1141 -178.559 
9.35556 -56.9345 -178.572 
9.51533 -56.755 -178.585 
9.67509 -56.5754 -178.597 
9.81319 -56.5004 -178.604 
9.97296 -56.3208 -178.617 
10.1327 -56.1413 -178.63 
10.2708 -56.0662 -178.636 
10.4089 -55.9912 -178.643 
10.547 -55.9161 -178.649 
10.6851 -55.8411 -178.656 
10.8232 -55.766 -178.662 
10.9613 -55.691 -178.669 
11.0778 -55.7204 -178.669 
11.2159 -55.6454 -178.675 
11.354 -55.5703 -178.682 
11.4921 -55.4953 -178.688 
11.6302 -55.4202 -178.695 
11.7683 -55.3452 -178.701 
11.928 -55.1656 -178.714 
12.0661 -55.0906 -178.721 
12.2259 -54.911 -178.734 
12.364 -54.836 -178.74 
12.5238 -54.6564 -178.753 
12.6835 -54.4769 -178.766 
12.8216 -54.4018 -178.772 
12.9814 -54.2223 -178.785 
13.1412 -54.0427 -178.798 
13.2793 -53.9677 -178.804 
13.439 -53.7881 -178.817 
13.5771 -53.7131 -178.824 
13.7369 -53.5336 -178.837 
13.8967 -53.354 -178.85 
14.0348 -53.279 -178.856 
14.1945 -53.0994 -178.869 
14.3326 -53.0244 -178.875 
14.4924 -52.8448 -178.888 
14.6305 -52.7698 -178.895 
14.7903 -52.5902 -178.908 
14.9284 -52.5152 -178.914 
15.0665 -52.4401 -178.921 
15.2262 -52.2606 -178.933 
15.3643 -52.1855 -178.94 
15.5241 -52.006 -178.953 
15.6839 -51.8264 -178.966 
15.822 -51.7514 -178.972 
15.9817 -51.5718 -178.985 
16.1198 -51.4968 -178.991 
16.2796 -51.3172 -179.004 
16.4394 -51.1377 -179.017 
16.5991 -50.9582 -179.03 
