ply
format ascii 1.0
comment Bo generated PLY file
obj_info bo::Mesh class dump
element vertex 1791
property float x
property float y
property float z
element face 0
property list uchar uint vertex_indices
end_header
49.7048 -36.7404 -173.472 
49.8129 -36.6881 -173.472 
49.8704 -36.5419 -173.479 
19.1232 -52.8345 -172.354 
19.2313 -52.7822 -172.354 
19.3394 -52.7299 -172.354 
19.4475 -52.6776 -172.355 
19.5557 -52.6253 -172.355 
19.6132 -52.479 -172.361 
19.7213 -52.4267 -172.361 
19.8295 -52.3744 -172.362 
19.9376 -52.3221 -172.362 
20.0457 -52.2698 -172.362 
20.1032 -52.1236 -172.368 
20.2113 -52.0713 -172.369 
20.3195 -52.019 -172.369 
20.4276 -51.9667 -172.369 
20.5357 -51.9144 -172.369 
20.6438 -51.8621 -172.369 
20.7519 -51.8098 -172.369 
20.8601 -51.7575 -172.37 
20.9682 -51.7052 -172.37 
21.0763 -51.653 -172.37 
21.1844 -51.6007 -172.37 
21.2925 -51.5484 -172.37 
21.4006 -51.4961 -172.37 
21.5088 -51.4438 -172.371 
21.6169 -51.3915 -172.371 
21.725 -51.3392 -172.371 
21.8331 -51.2869 -172.371 
21.9412 -51.2346 -172.371 
22.0493 -51.1823 -172.371 
22.208 -51.224 -172.365 
22.3162 -51.1717 -172.365 
22.4243 -51.1194 -172.366 
22.5324 -51.0671 -172.366 
22.6911 -51.1088 -172.36 
22.7992 -51.0565 -172.36 
22.9579 -51.0982 -172.354 
23.066 -51.0459 -172.354 
23.1741 -50.9936 -172.354 
23.3328 -51.0353 -172.348 
23.4409 -50.983 -172.348 
23.549 -50.9307 -172.348 
23.6571 -50.8784 -172.348 
23.7653 -50.8261 -172.348 
23.8734 -50.7738 -172.349 
23.9815 -50.7215 -172.349 
24.0896 -50.6692 -172.349 
24.1977 -50.6169 -172.349 
24.3059 -50.5646 -172.349 
24.414 -50.5123 -172.349 
24.5221 -50.46 -172.35 
24.6302 -50.4077 -172.35 
24.7383 -50.3555 -172.35 
24.8464 -50.3032 -172.35 
24.9546 -50.2509 -172.35 
25.0627 -50.1986 -172.35 
25.1708 -50.1463 -172.351 
25.2789 -50.094 -172.351 
25.387 -50.0417 -172.351 
25.4951 -49.9894 -172.351 
25.6033 -49.9371 -172.351 
25.7114 -49.8848 -172.351 
25.8195 -49.8325 -172.352 
25.9276 -49.7802 -172.352 
26.0357 -49.7279 -172.352 
26.1438 -49.6756 -172.352 
26.252 -49.6234 -172.352 
26.3601 -49.5711 -172.352 
26.4682 -49.5188 -172.353 
26.5763 -49.4665 -172.353 
26.6844 -49.4142 -172.353 
26.7926 -49.3619 -172.353 
26.9007 -49.3096 -172.353 
27.0088 -49.2573 -172.353 
27.1169 -49.205 -172.354 
27.225 -49.1527 -172.354 
27.3331 -49.1004 -172.354 
27.4413 -49.0481 -172.354 
27.5494 -48.9958 -172.354 
27.6575 -48.9435 -172.354 
27.7656 -48.8913 -172.355 
27.8737 -48.839 -172.355 
27.9818 -48.7867 -172.355 
28.09 -48.7344 -172.355 
28.1981 -48.6821 -172.355 
28.3062 -48.6298 -172.355 
28.4649 -48.6715 -172.349 
28.573 -48.6192 -172.349 
28.6811 -48.5669 -172.35 
28.7892 -48.5146 -172.35 
28.8974 -48.4623 -172.35 
29.056 -48.504 -172.344 
29.1642 -48.4517 -172.344 
29.2723 -48.3994 -172.344 
29.431 -48.4411 -172.338 
29.5391 -48.3888 -172.338 
29.6472 -48.3365 -172.338 
29.7553 -48.2842 -172.338 
29.8634 -48.2319 -172.339 
30.0221 -48.2736 -172.332 
30.1302 -48.2213 -172.333 
30.2384 -48.169 -172.333 
30.3465 -48.1167 -172.333 
30.5052 -48.1584 -172.327 
30.6133 -48.1061 -172.327 
30.7214 -48.0538 -172.327 
30.8801 -48.0955 -172.321 
31.0388 -48.1371 -172.315 
31.1469 -48.0848 -172.315 
31.3056 -48.1265 -172.309 
31.4643 -48.1682 -172.303 
31.5724 -48.1159 -172.303 
31.7311 -48.1576 -172.297 
31.8897 -48.1992 -172.29 
31.9979 -48.147 -172.291 
32.1565 -48.1886 -172.284 
32.3152 -48.2303 -172.278 
32.4739 -48.272 -172.272 
32.582 -48.2197 -172.272 
32.7407 -48.2614 -172.266 
32.8488 -48.2091 -172.266 
32.957 -48.1568 -172.266 
33.1156 -48.1985 -172.26 
33.2238 -48.1462 -172.26 
33.3319 -48.0939 -172.261 
33.44 -48.0416 -172.261 
33.5481 -47.9893 -172.261 
33.7068 -48.031 -172.255 
33.8149 -47.9787 -172.255 
33.923 -47.9264 -172.255 
34.0817 -47.9681 -172.249 
34.2404 -48.0097 -172.243 
34.3485 -47.9574 -172.243 
34.5072 -47.9991 -172.237 
34.6153 -47.9468 -172.237 
34.774 -47.9885 -172.231 
34.8821 -47.9362 -172.231 
34.9902 -47.8839 -172.231 
35.0984 -47.8316 -172.231 
35.2065 -47.7793 -172.231 
35.3146 -47.727 -172.232 
35.4227 -47.6747 -172.232 
35.5308 -47.6225 -172.232 
35.639 -47.5702 -172.232 
35.7471 -47.5179 -172.232 
35.8552 -47.4656 -172.232 
35.9633 -47.4133 -172.233 
36.122 -47.455 -172.226 
36.2301 -47.4027 -172.227 
36.3888 -47.4443 -172.22 
36.4969 -47.3921 -172.221 
36.6556 -47.4337 -172.214 
36.7637 -47.3814 -172.214 
36.8718 -47.3291 -172.215 
37.0305 -47.3708 -172.208 
37.1386 -47.3185 -172.209 
37.2973 -47.3602 -172.202 
37.4054 -47.3079 -172.203 
37.5136 -47.2556 -172.203 
37.6722 -47.2973 -172.197 
37.7804 -47.245 -172.197 
37.8885 -47.1927 -172.197 
37.9966 -47.1404 -172.197 
38.1553 -47.1821 -172.191 
38.2634 -47.1298 -172.191 
38.3715 -47.0775 -172.191 
38.4796 -47.0252 -172.191 
38.6383 -47.0669 -172.185 
38.7464 -47.0146 -172.185 
38.8546 -46.9623 -172.186 
39.0132 -47.004 -172.179 
39.1214 -46.9517 -172.18 
39.28 -46.9934 -172.173 
39.3882 -46.9411 -172.174 
39.4963 -46.8888 -172.174 
39.655 -46.9305 -172.168 
39.7631 -46.8782 -172.168 
39.8712 -46.8259 -172.168 
39.9793 -46.7736 -172.168 
40.138 -46.8153 -172.162 
40.2461 -46.763 -172.162 
40.3542 -46.7107 -172.162 
40.4624 -46.6584 -172.162 
40.5705 -46.6061 -172.163 
40.6786 -46.5538 -172.163 
40.7867 -46.5015 -172.163 
40.8948 -46.4492 -172.163 
41.0029 -46.3969 -172.163 
41.1111 -46.3446 -172.163 
41.2192 -46.2923 -172.164 
41.3273 -46.24 -172.164 
41.4354 -46.1877 -172.164 
41.5435 -46.1354 -172.164 
41.6517 -46.0831 -172.164 
41.7598 -46.0309 -172.164 
41.8679 -45.9786 -172.165 
41.976 -45.9263 -172.165 
42.0841 -45.874 -172.165 
42.1922 -45.8217 -172.165 
42.3004 -45.7694 -172.165 
42.4085 -45.7171 -172.165 
42.5166 -45.6648 -172.166 
42.5741 -45.5185 -172.172 
42.6823 -45.4663 -172.172 
42.7904 -45.414 -172.172 
42.8479 -45.2677 -172.179 
42.956 -45.2154 -172.179 
43.0136 -45.0691 -172.186 
43.1217 -45.0168 -172.186 
43.2298 -44.9646 -172.186 
43.3379 -44.9123 -172.186 
43.3955 -44.766 -172.193 
43.5036 -44.7137 -172.193 
43.6117 -44.6614 -172.193 
43.7198 -44.6091 -172.193 
43.828 -44.5568 -172.193 
43.9361 -44.5045 -172.193 
44.0442 -44.4522 -172.194 
44.1523 -44.3999 -172.194 
44.2099 -44.2537 -172.2 
44.318 -44.2014 -172.2 
44.4261 -44.1491 -172.201 
44.5342 -44.0968 -172.201 
44.5918 -43.9505 -172.207 
44.6999 -43.8982 -172.207 
44.808 -43.846 -172.208 
44.9161 -43.7937 -172.208 
44.9737 -43.6474 -172.214 
45.0818 -43.5951 -172.214 
45.1899 -43.5428 -172.215 
45.2474 -43.3966 -172.221 
45.3556 -43.3443 -172.221 
45.4131 -43.198 -172.228 
45.4707 -43.0517 -172.234 
45.5282 -42.9055 -172.241 
45.5858 -42.7592 -172.247 
45.6939 -42.7069 -172.248 
45.7514 -42.5606 -172.254 
45.809 -42.4144 -172.261 
45.8665 -42.2681 -172.267 
45.9241 -42.1219 -172.274 
45.9816 -41.9756 -172.28 
46.0897 -41.9233 -172.28 
46.1473 -41.777 -172.287 
46.2554 -41.7248 -172.287 
46.3635 -41.6725 -172.287 
46.4211 -41.5262 -172.294 
46.5292 -41.4739 -172.294 
46.6373 -41.4216 -172.294 
46.7454 -41.3693 -172.294 
46.803 -41.2231 -172.301 
46.9111 -41.1708 -172.301 
47.0192 -41.1185 -172.301 
47.0768 -40.9722 -172.307 
47.1849 -40.9199 -172.308 
47.293 -40.8676 -172.308 
47.3505 -40.7214 -172.314 
47.4081 -40.5751 -172.321 
47.5162 -40.5228 -172.321 
47.5737 -40.3765 -172.327 
47.6313 -40.2303 -172.334 
47.7394 -40.178 -172.334 
47.797 -40.0317 -172.341 
47.8545 -39.8855 -172.347 
47.9121 -39.7392 -172.354 
47.9696 -39.5929 -172.36 
48.0272 -39.4467 -172.367 
48.0847 -39.3004 -172.373 
48.1423 -39.1541 -172.38 
48.1998 -39.0079 -172.386 
48.2574 -38.8616 -172.393 
48.3149 -38.7154 -172.399 
48.3724 -38.5691 -172.406 
48.43 -38.4228 -172.412 
48.4875 -38.2766 -172.419 
48.5451 -38.1303 -172.425 
48.6532 -38.078 -172.425 
48.7108 -37.9317 -172.432 
48.7683 -37.7855 -172.438 
48.8764 -37.7332 -172.439 
48.934 -37.5869 -172.445 
48.9915 -37.4407 -172.452 
49.0996 -37.3884 -172.452 
49.1572 -37.2421 -172.458 
49.2147 -37.0958 -172.465 
49.3229 -37.0436 -172.465 
49.3804 -36.8973 -172.471 
49.438 -36.751 -172.478 
49.5461 -36.6987 -172.478 
49.6036 -36.5525 -172.485 
49.6612 -36.4062 -172.491 
49.7187 -36.2599 -172.498 
19.2243 -53.0224 -171.341 
19.3325 -52.9701 -171.342 
19.4406 -52.9178 -171.342 
19.5487 -52.8655 -171.342 
19.6062 -52.7193 -171.348 
19.7144 -52.667 -171.349 
19.8225 -52.6147 -171.349 
19.9306 -52.5624 -171.349 
20.0387 -52.5101 -171.349 
20.1468 -52.4578 -171.349 
20.2549 -52.4055 -171.349 
20.3631 -52.3532 -171.35 
20.4712 -52.3009 -171.35 
20.5793 -52.2486 -171.35 
20.6874 -52.1963 -171.35 
20.7955 -52.144 -171.35 
20.9036 -52.0917 -171.35 
21.0118 -52.0394 -171.351 
21.1199 -51.9872 -171.351 
21.1774 -51.8409 -171.357 
21.2855 -51.7886 -171.357 
21.3937 -51.7363 -171.358 
21.5018 -51.684 -171.358 
21.6099 -51.6317 -171.358 
21.718 -51.5794 -171.358 
21.8261 -51.5271 -171.358 
21.9342 -51.4748 -171.358 
22.0424 -51.4225 -171.359 
22.1505 -51.3703 -171.359 
22.3092 -51.4119 -171.353 
22.4173 -51.3596 -171.353 
22.5254 -51.3073 -171.353 
22.6335 -51.2551 -171.353 
22.7416 -51.2028 -171.353 
22.8498 -51.1505 -171.353 
23.0084 -51.1921 -171.347 
23.1166 -51.1399 -171.347 
23.2247 -51.0876 -171.348 
23.3328 -51.0353 -171.348 
23.4409 -50.983 -171.348 
23.549 -50.9307 -171.348 
23.6571 -50.8784 -171.348 
23.7653 -50.8261 -171.348 
23.8734 -50.7738 -171.349 
23.9815 -50.7215 -171.349 
24.0896 -50.6692 -171.349 
24.1977 -50.6169 -171.349 
24.3059 -50.5646 -171.349 
24.414 -50.5123 -171.349 
24.4715 -50.3661 -171.356 
24.5796 -50.3138 -171.356 
24.6372 -50.1675 -171.363 
24.6947 -50.0213 -171.369 
24.8029 -49.969 -171.369 
24.8604 -49.8227 -171.376 
24.9685 -49.7704 -171.376 
25.0766 -49.7181 -171.376 
25.1847 -49.6658 -171.376 
25.2929 -49.6135 -171.376 
25.401 -49.5612 -171.377 
25.5091 -49.5089 -171.377 
25.6172 -49.4566 -171.377 
25.7253 -49.4044 -171.377 
25.8335 -49.3521 -171.377 
25.9416 -49.2998 -171.377 
26.0497 -49.2475 -171.378 
26.1578 -49.1952 -171.378 
26.2659 -49.1429 -171.378 
26.374 -49.0906 -171.378 
26.4822 -49.0383 -171.378 
26.5903 -48.986 -171.378 
26.6984 -48.9337 -171.379 
26.8065 -48.8814 -171.379 
26.9146 -48.8291 -171.379 
27.0227 -48.7768 -171.379 
27.1309 -48.7245 -171.379 
27.239 -48.6722 -171.379 
27.3977 -48.7139 -171.373 
27.5058 -48.6616 -171.373 
27.6139 -48.6093 -171.374 
27.722 -48.557 -171.374 
27.8807 -48.5987 -171.368 
27.9888 -48.5464 -171.368 
28.0969 -48.4941 -171.368 
28.2051 -48.4418 -171.368 
28.3637 -48.4835 -171.362 
28.4719 -48.4312 -171.362 
28.58 -48.3789 -171.362 
28.6881 -48.3266 -171.362 
28.7962 -48.2744 -171.363 
28.9043 -48.2221 -171.363 
29.0125 -48.1698 -171.363 
29.1206 -48.1175 -171.363 
29.2287 -48.0652 -171.363 
29.3368 -48.0129 -171.363 
29.4449 -47.9606 -171.364 
29.553 -47.9083 -171.364 
29.6612 -47.856 -171.364 
29.7693 -47.8037 -171.364 
29.928 -47.8454 -171.358 
30.0361 -47.7931 -171.358 
30.1948 -47.8348 -171.352 
30.3029 -47.7825 -171.352 
30.4616 -47.8242 -171.346 
30.6203 -47.8658 -171.34 
30.7789 -47.9075 -171.334 
30.9376 -47.9492 -171.327 
31.0963 -47.9909 -171.321 
31.255 -48.0325 -171.315 
31.4137 -48.0742 -171.309 
31.5724 -48.1159 -171.303 
31.7311 -48.1576 -171.297 
31.8897 -48.1992 -171.29 
31.9979 -48.147 -171.291 
32.1565 -48.1886 -171.284 
32.2647 -48.1363 -171.285 
32.3728 -48.084 -171.285 
32.5315 -48.1257 -171.279 
32.6396 -48.0734 -171.279 
32.7477 -48.0211 -171.279 
32.8558 -47.9688 -171.279 
33.0145 -48.0105 -171.273 
33.1226 -47.9582 -171.273 
33.2307 -47.9059 -171.273 
33.3894 -47.9476 -171.267 
33.4975 -47.8953 -171.267 
33.6057 -47.843 -171.267 
33.7643 -47.8847 -171.261 
33.923 -47.9264 -171.255 
34.0312 -47.8741 -171.255 
34.1898 -47.9158 -171.249 
34.298 -47.8635 -171.249 
34.4566 -47.9052 -171.243 
34.5648 -47.8529 -171.243 
34.7234 -47.8945 -171.237 
34.8316 -47.8422 -171.237 
34.9397 -47.7899 -171.237 
35.0478 -47.7377 -171.238 
35.2065 -47.7793 -171.231 
35.3146 -47.727 -171.232 
35.4227 -47.6747 -171.232 
35.5308 -47.6225 -171.232 
35.639 -47.5702 -171.232 
35.7471 -47.5179 -171.232 
35.8552 -47.4656 -171.232 
35.9633 -47.4133 -171.233 
36.122 -47.455 -171.226 
36.2301 -47.4027 -171.227 
36.3382 -47.3504 -171.227 
36.4463 -47.2981 -171.227 
36.605 -47.3398 -171.221 
36.7131 -47.2875 -171.221 
36.8213 -47.2352 -171.221 
36.9799 -47.2769 -171.215 
37.0881 -47.2246 -171.215 
37.1962 -47.1723 -171.215 
37.3043 -47.12 -171.215 
37.463 -47.1616 -171.209 
37.5711 -47.1094 -171.209 
37.6792 -47.0571 -171.209 
37.7873 -47.0048 -171.21 
37.8955 -46.9525 -171.21 
38.0541 -46.9942 -171.204 
38.1623 -46.9419 -171.204 
38.2704 -46.8896 -171.204 
38.3785 -46.8373 -171.204 
38.5372 -46.879 -171.198 
38.6453 -46.8267 -171.198 
38.7534 -46.7744 -171.198 
38.9121 -46.816 -171.192 
39.0708 -46.8577 -171.186 
39.1789 -46.8054 -171.186 
39.3376 -46.8471 -171.18 
39.4457 -46.7948 -171.18 
39.6044 -46.8365 -171.174 
39.7125 -46.7842 -171.174 
39.8206 -46.7319 -171.174 
39.9793 -46.7736 -171.168 
40.0874 -46.7213 -171.168 
40.1956 -46.669 -171.168 
40.3037 -46.6167 -171.169 
40.4118 -46.5644 -171.169 
40.5199 -46.5121 -171.169 
40.628 -46.4598 -171.169 
40.7361 -46.4075 -171.169 
40.8443 -46.3552 -171.169 
40.9524 -46.3029 -171.17 
41.0605 -46.2506 -171.17 
41.1686 -46.1984 -171.17 
41.2767 -46.1461 -171.17 
41.3848 -46.0938 -171.17 
41.493 -46.0415 -171.17 
41.6011 -45.9892 -171.171 
41.7092 -45.9369 -171.171 
41.8173 -45.8846 -171.171 
41.9254 -45.8323 -171.171 
42.0336 -45.78 -171.171 
42.0911 -45.6337 -171.178 
42.1992 -45.5815 -171.178 
42.3073 -45.5292 -171.178 
42.4155 -45.4769 -171.178 
42.5236 -45.4246 -171.178 
42.5811 -45.2783 -171.185 
42.6892 -45.226 -171.185 
42.7974 -45.1737 -171.185 
42.9055 -45.1214 -171.185 
42.963 -44.9752 -171.192 
43.0711 -44.9229 -171.192 
43.1793 -44.8706 -171.192 
43.2368 -44.7243 -171.199 
43.3449 -44.672 -171.199 
43.453 -44.6197 -171.199 
43.5612 -44.5674 -171.199 
43.6187 -44.4212 -171.206 
43.7268 -44.3689 -171.206 
43.8349 -44.3166 -171.206 
43.9431 -44.2643 -171.206 
44.0512 -44.212 -171.206 
44.1593 -44.1597 -171.207 
44.2674 -44.1074 -171.207 
44.3755 -44.0551 -171.207 
44.4836 -44.0028 -171.207 
44.5918 -43.9505 -171.207 
44.6999 -43.8982 -171.207 
44.808 -43.846 -171.208 
44.9161 -43.7937 -171.208 
45.0242 -43.7414 -171.208 
45.0818 -43.5951 -171.214 
45.1899 -43.5428 -171.215 
45.2474 -43.3966 -171.221 
45.3556 -43.3443 -171.221 
45.4131 -43.198 -171.228 
45.4707 -43.0517 -171.234 
45.5282 -42.9055 -171.241 
45.5858 -42.7592 -171.247 
45.6433 -42.6129 -171.254 
45.7009 -42.4667 -171.26 
45.7584 -42.3204 -171.267 
45.8665 -42.2681 -171.267 
45.9241 -42.1219 -171.274 
46.0322 -42.0696 -171.274 
46.0897 -41.9233 -171.28 
46.1979 -41.871 -171.28 
46.306 -41.8187 -171.281 
46.4141 -41.7664 -171.281 
46.5222 -41.7141 -171.281 
46.5798 -41.5679 -171.287 
46.6879 -41.5156 -171.288 
46.796 -41.4633 -171.288 
46.8535 -41.317 -171.294 
46.9111 -41.1708 -171.301 
46.9686 -41.0245 -171.307 
47.0768 -40.9722 -171.307 
47.1343 -40.8259 -171.314 
47.1918 -40.6797 -171.32 
47.2494 -40.5334 -171.327 
47.3069 -40.3872 -171.333 
47.4151 -40.3349 -171.334 
47.4726 -40.1886 -171.34 
47.5302 -40.0423 -171.347 
47.6383 -39.99 -171.347 
47.6958 -39.8438 -171.353 
47.7534 -39.6975 -171.36 
47.8109 -39.5513 -171.366 
47.8685 -39.405 -171.373 
47.926 -39.2587 -171.379 
47.9836 -39.1125 -171.386 
47.9906 -38.8722 -171.399 
48.0481 -38.726 -171.405 
48.1056 -38.5797 -171.412 
48.1632 -38.4334 -171.418 
48.2207 -38.2872 -171.425 
48.2783 -38.1409 -171.431 
48.3864 -38.0886 -171.431 
48.444 -37.9424 -171.438 
48.5521 -37.8901 -171.438 
48.6096 -37.7438 -171.445 
48.7177 -37.6915 -171.445 
48.7753 -37.5453 -171.451 
48.8834 -37.493 -171.451 
48.9915 -37.4407 -171.452 
49.0491 -37.2944 -171.458 
49.1066 -37.1481 -171.465 
49.2147 -37.0958 -171.465 
49.2723 -36.9496 -171.471 
49.3298 -36.8033 -171.478 
49.438 -36.751 -171.478 
49.4955 -36.6048 -171.484 
49.5531 -36.4585 -171.491 
49.6106 -36.3122 -171.497 
49.6682 -36.166 -171.504 
19.2243 -53.0224 -170.341 
19.3325 -52.9701 -170.342 
19.4406 -52.9178 -170.342 
19.5487 -52.8655 -170.342 
19.6568 -52.8132 -170.342 
19.7649 -52.7609 -170.342 
19.873 -52.7086 -170.342 
19.9812 -52.6563 -170.343 
20.0893 -52.6041 -170.343 
20.1974 -52.5518 -170.343 
20.3055 -52.4995 -170.343 
20.4136 -52.4472 -170.343 
20.5217 -52.3949 -170.343 
20.6299 -52.3426 -170.344 
20.738 -52.2903 -170.344 
20.8461 -52.238 -170.344 
20.9542 -52.1857 -170.344 
21.0623 -52.1334 -170.344 
21.1704 -52.0811 -170.344 
21.2786 -52.0288 -170.345 
21.3867 -51.9765 -170.345 
21.4948 -51.9242 -170.345 
21.6029 -51.872 -170.345 
21.711 -51.8197 -170.345 
21.8192 -51.7674 -170.345 
21.9273 -51.7151 -170.346 
22.0354 -51.6628 -170.346 
22.1435 -51.6105 -170.346 
22.2516 -51.5582 -170.346 
22.3597 -51.5059 -170.346 
22.4679 -51.4536 -170.346 
22.576 -51.4013 -170.347 
22.6841 -51.349 -170.347 
22.7922 -51.2967 -170.347 
22.9003 -51.2444 -170.347 
23.0084 -51.1921 -170.347 
23.1166 -51.1399 -170.347 
23.2247 -51.0876 -170.348 
23.3328 -51.0353 -170.348 
23.4409 -50.983 -170.348 
23.549 -50.9307 -170.348 
23.6066 -50.7844 -170.355 
23.7147 -50.7321 -170.355 
23.7722 -50.5859 -170.361 
23.8804 -50.5336 -170.361 
23.9379 -50.3873 -170.368 
23.9955 -50.241 -170.374 
24.1036 -50.1887 -170.375 
24.2117 -50.1365 -170.375 
24.2692 -49.9902 -170.381 
24.3774 -49.9379 -170.381 
24.4855 -49.8856 -170.382 
24.5936 -49.8333 -170.382 
24.6511 -49.687 -170.388 
24.7593 -49.6348 -170.388 
24.8674 -49.5825 -170.389 
24.9755 -49.5302 -170.389 
25.0836 -49.4779 -170.389 
25.1412 -49.3316 -170.395 
25.2493 -49.2793 -170.396 
25.3574 -49.227 -170.396 
25.4655 -49.1747 -170.396 
25.5736 -49.1224 -170.396 
25.6818 -49.0701 -170.396 
25.7899 -49.0179 -170.396 
25.898 -48.9656 -170.397 
26.0061 -48.9133 -170.397 
26.1142 -48.861 -170.397 
26.2223 -48.8087 -170.397 
26.381 -48.8504 -170.391 
26.4891 -48.7981 -170.391 
26.5973 -48.7458 -170.391 
26.7054 -48.6935 -170.391 
26.8135 -48.6412 -170.392 
26.9722 -48.6829 -170.385 
27.0803 -48.6306 -170.386 
27.1884 -48.5783 -170.386 
27.2965 -48.526 -170.386 
27.4552 -48.5677 -170.38 
27.5633 -48.5154 -170.38 
27.6715 -48.4631 -170.38 
27.8301 -48.5048 -170.374 
27.9383 -48.4525 -170.374 
28.0464 -48.4002 -170.374 
28.1545 -48.3479 -170.374 
28.3132 -48.3896 -170.368 
28.4213 -48.3373 -170.368 
28.5294 -48.285 -170.369 
28.6375 -48.2327 -170.369 
28.7456 -48.1804 -170.369 
28.9043 -48.2221 -170.363 
29.0125 -48.1698 -170.363 
29.1206 -48.1175 -170.363 
29.2287 -48.0652 -170.363 
29.3874 -48.1069 -170.357 
29.4955 -48.0546 -170.357 
29.6036 -48.0023 -170.357 
29.7623 -48.0439 -170.351 
29.8704 -47.9917 -170.351 
30.0291 -48.0333 -170.345 
30.1372 -47.981 -170.345 
30.2959 -48.0227 -170.339 
30.404 -47.9704 -170.339 
30.5627 -48.0121 -170.333 
30.6708 -47.9598 -170.333 
30.8295 -48.0015 -170.327 
30.9376 -47.9492 -170.327 
31.0963 -47.9909 -170.321 
31.2044 -47.9386 -170.321 
31.3631 -47.9803 -170.315 
31.4712 -47.928 -170.315 
31.6299 -47.9696 -170.309 
31.7886 -48.0113 -170.303 
31.8967 -47.959 -170.303 
32.0554 -48.0007 -170.297 
32.2141 -48.0424 -170.291 
32.3222 -47.9901 -170.291 
32.4809 -48.0318 -170.285 
32.6396 -48.0734 -170.279 
32.7477 -48.0211 -170.279 
32.8558 -47.9688 -170.279 
33.0145 -48.0105 -170.273 
33.1226 -47.9582 -170.273 
33.2307 -47.9059 -170.273 
33.3389 -47.8536 -170.273 
33.447 -47.8013 -170.274 
33.6057 -47.843 -170.267 
33.7138 -47.7907 -170.268 
33.8219 -47.7384 -170.268 
33.9806 -47.7801 -170.262 
34.0887 -47.7278 -170.262 
34.2474 -47.7695 -170.256 
34.4061 -47.8112 -170.249 
34.5142 -47.7589 -170.25 
34.6729 -47.8006 -170.243 
34.781 -47.7483 -170.244 
34.8891 -47.696 -170.244 
35.0478 -47.7377 -170.238 
35.1559 -47.6854 -170.238 
35.264 -47.6331 -170.238 
35.3722 -47.5808 -170.238 
35.4803 -47.5285 -170.238 
35.5884 -47.4762 -170.238 
35.6965 -47.4239 -170.239 
35.8046 -47.3716 -170.239 
35.9127 -47.3193 -170.239 
36.0209 -47.267 -170.239 
36.129 -47.2147 -170.239 
36.2371 -47.1624 -170.239 
36.3958 -47.2041 -170.233 
36.5039 -47.1518 -170.233 
36.612 -47.0995 -170.234 
36.7201 -47.0472 -170.234 
36.8788 -47.0889 -170.228 
36.9869 -47.0366 -170.228 
37.095 -46.9843 -170.228 
37.2537 -47.026 -170.222 
37.3619 -46.9737 -170.222 
37.5205 -47.0154 -170.216 
37.6287 -46.9631 -170.216 
37.7873 -47.0048 -170.21 
37.8955 -46.9525 -170.21 
38.0541 -46.9942 -170.204 
38.1623 -46.9419 -170.204 
38.3209 -46.9835 -170.198 
38.4291 -46.9312 -170.198 
38.5878 -46.9729 -170.192 
38.6959 -46.9206 -170.192 
38.804 -46.8683 -170.192 
38.9627 -46.91 -170.186 
39.0708 -46.8577 -170.186 
39.1789 -46.8054 -170.186 
39.287 -46.7531 -170.186 
39.4457 -46.7948 -170.18 
39.5538 -46.7425 -170.18 
39.6619 -46.6902 -170.18 
39.7701 -46.6379 -170.181 
39.9288 -46.6796 -170.174 
40.0369 -46.6273 -170.175 
40.145 -46.575 -170.175 
40.2531 -46.5227 -170.175 
40.4118 -46.5644 -170.169 
40.5199 -46.5121 -170.169 
40.628 -46.4598 -170.169 
40.7361 -46.4075 -170.169 
40.8443 -46.3552 -170.169 
40.9524 -46.3029 -170.17 
41.0605 -46.2506 -170.17 
41.1686 -46.1984 -170.17 
41.2767 -46.1461 -170.17 
41.3848 -46.0938 -170.17 
41.493 -46.0415 -170.17 
41.6011 -45.9892 -170.171 
41.7092 -45.9369 -170.171 
41.8173 -45.8846 -170.171 
41.8749 -45.7383 -170.177 
41.983 -45.686 -170.178 
42.0911 -45.6337 -170.178 
42.1487 -45.4875 -170.184 
42.2568 -45.4352 -170.184 
42.3143 -45.2889 -170.191 
42.4224 -45.2366 -170.191 
42.48 -45.0904 -170.198 
42.5881 -45.0381 -170.198 
42.6456 -44.8918 -170.204 
42.7538 -44.8395 -170.204 
42.8113 -44.6933 -170.211 
42.9194 -44.641 -170.211 
43.0275 -44.5887 -170.211 
43.1357 -44.5364 -170.211 
43.2438 -44.4841 -170.212 
43.3519 -44.4318 -170.212 
43.46 -44.3795 -170.212 
43.5681 -44.3272 -170.212 
43.6763 -44.2749 -170.212 
43.7844 -44.2226 -170.212 
43.8925 -44.1703 -170.213 
44.0006 -44.118 -170.213 
44.1087 -44.0657 -170.213 
44.1663 -43.9195 -170.219 
44.2744 -43.8672 -170.22 
44.3825 -43.8149 -170.22 
44.4401 -43.6686 -170.226 
44.5482 -43.6163 -170.227 
44.6563 -43.564 -170.227 
44.7138 -43.4178 -170.233 
44.822 -43.3655 -170.233 
44.9301 -43.3132 -170.234 
44.9876 -43.1669 -170.24 
45.0957 -43.1146 -170.24 
45.1533 -42.9684 -170.247 
45.2614 -42.9161 -170.247 
45.3695 -42.8638 -170.247 
45.4271 -42.7175 -170.254 
45.4846 -42.5713 -170.26 
45.5927 -42.519 -170.26 
45.6503 -42.3727 -170.267 
45.7584 -42.3204 -170.267 
45.816 -42.1742 -170.273 
45.9241 -42.1219 -170.274 
46.0322 -42.0696 -170.274 
46.0897 -41.9233 -170.28 
46.1979 -41.871 -170.28 
46.306 -41.8187 -170.281 
46.3635 -41.6725 -170.287 
46.4716 -41.6202 -170.287 
46.5798 -41.5679 -170.287 
46.6373 -41.4216 -170.294 
46.6948 -41.2753 -170.3 
46.803 -41.2231 -170.301 
46.8605 -41.0768 -170.307 
46.9181 -40.9305 -170.314 
47.0262 -40.8782 -170.314 
47.0837 -40.732 -170.32 
47.1413 -40.5857 -170.327 
47.2494 -40.5334 -170.327 
47.3575 -40.4811 -170.327 
47.4656 -40.4288 -170.327 
47.5232 -40.2826 -170.334 
47.6313 -40.2303 -170.334 
47.7394 -40.178 -170.334 
47.8475 -40.1257 -170.334 
47.9051 -39.9794 -170.341 
47.9626 -39.8332 -170.347 
48.0202 -39.6869 -170.354 
48.0272 -39.4467 -170.367 
48.0847 -39.3004 -170.373 
48.0917 -39.0602 -170.386 
48.0987 -38.8199 -170.399 
48.1562 -38.6737 -170.405 
48.1632 -38.4334 -170.418 
48.2207 -38.2872 -170.425 
48.2783 -38.1409 -170.431 
48.3358 -37.9947 -170.438 
48.444 -37.9424 -170.438 
48.5015 -37.7961 -170.444 
48.6096 -37.7438 -170.445 
48.7177 -37.6915 -170.445 
48.7753 -37.5453 -170.451 
48.8834 -37.493 -170.451 
48.9915 -37.4407 -170.452 
49.0491 -37.2944 -170.458 
49.1066 -37.1481 -170.465 
49.2147 -37.0958 -170.465 
49.2723 -36.9496 -170.471 
49.3298 -36.8033 -170.478 
49.3874 -36.6571 -170.484 
49.4449 -36.5108 -170.491 
49.5025 -36.3645 -170.497 
49.56 -36.2183 -170.504 
49.6176 -36.072 -170.51 
19.2749 -53.1164 -169.335 
19.383 -53.0641 -169.335 
19.4911 -53.0118 -169.335 
19.5993 -52.9595 -169.336 
19.7074 -52.9072 -169.336 
19.8155 -52.8549 -169.336 
19.9236 -52.8026 -169.336 
20.0317 -52.7503 -169.336 
20.1398 -52.698 -169.336 
20.248 -52.6457 -169.337 
20.3561 -52.5934 -169.337 
20.4642 -52.5411 -169.337 
20.5217 -52.3949 -169.343 
20.6299 -52.3426 -169.344 
20.738 -52.2903 -169.344 
20.8461 -52.238 -169.344 
20.9542 -52.1857 -169.344 
21.0623 -52.1334 -169.344 
21.1704 -52.0811 -169.344 
21.2786 -52.0288 -169.345 
21.3867 -51.9765 -169.345 
21.4948 -51.9242 -169.345 
21.6029 -51.872 -169.345 
21.711 -51.8197 -169.345 
21.8192 -51.7674 -169.345 
21.9273 -51.7151 -169.346 
22.0354 -51.6628 -169.346 
22.1435 -51.6105 -169.346 
22.2516 -51.5582 -169.346 
22.3597 -51.5059 -169.346 
22.4173 -51.3596 -169.353 
22.5254 -51.3073 -169.353 
22.6335 -51.2551 -169.353 
22.6911 -51.1088 -169.36 
22.7992 -51.0565 -169.36 
22.8567 -50.9102 -169.366 
22.9649 -50.8579 -169.366 
23.0224 -50.7117 -169.373 
23.08 -50.5654 -169.379 
23.1881 -50.5131 -169.38 
23.2962 -50.4608 -169.38 
23.3537 -50.3146 -169.386 
23.4619 -50.2623 -169.386 
23.57 -50.21 -169.387 
23.6781 -50.1577 -169.387 
23.7356 -50.0114 -169.393 
23.8438 -49.9591 -169.393 
23.9519 -49.9068 -169.394 
24.06 -49.8545 -169.394 
24.1681 -49.8022 -169.394 
24.2762 -49.75 -169.394 
24.3338 -49.6037 -169.401 
24.4419 -49.5514 -169.401 
24.55 -49.4991 -169.401 
24.6581 -49.4468 -169.401 
24.7662 -49.3945 -169.401 
24.8744 -49.3422 -169.401 
24.9825 -49.2899 -169.402 
25.0906 -49.2376 -169.402 
25.1987 -49.1854 -169.402 
25.3068 -49.1331 -169.402 
25.4149 -49.0808 -169.402 
25.5231 -49.0285 -169.402 
25.6312 -48.9762 -169.403 
25.7393 -48.9239 -169.403 
25.8474 -48.8716 -169.403 
25.9555 -48.8193 -169.403 
26.0637 -48.767 -169.403 
26.1718 -48.7147 -169.403 
26.2799 -48.6624 -169.404 
26.388 -48.6101 -169.404 
26.4961 -48.5578 -169.404 
26.6042 -48.5055 -169.404 
26.7124 -48.4533 -169.404 
26.871 -48.4949 -169.398 
26.9792 -48.4426 -169.398 
27.0873 -48.3903 -169.398 
27.1954 -48.338 -169.399 
27.3541 -48.3797 -169.392 
27.4622 -48.3274 -169.393 
27.5703 -48.2751 -169.393 
27.6784 -48.2228 -169.393 
27.8371 -48.2645 -169.387 
27.9452 -48.2122 -169.387 
28.0534 -48.1599 -169.387 
28.1615 -48.1076 -169.387 
28.3202 -48.1493 -169.381 
28.4283 -48.097 -169.381 
28.5364 -48.0447 -169.381 
28.6951 -48.0864 -169.375 
28.8032 -48.0341 -169.375 
28.9619 -48.0758 -169.369 
29.1206 -48.1175 -169.363 
29.2287 -48.0652 -169.363 
29.3874 -48.1069 -169.357 
29.4955 -48.0546 -169.357 
29.6036 -48.0023 -169.357 
29.7623 -48.0439 -169.351 
29.8704 -47.9917 -169.351 
29.9785 -47.9394 -169.352 
30.0866 -47.8871 -169.352 
30.1948 -47.8348 -169.352 
30.3535 -47.8765 -169.346 
30.4616 -47.8242 -169.346 
30.5697 -47.7719 -169.346 
30.7284 -47.8135 -169.34 
30.8365 -47.7613 -169.34 
30.9952 -47.8029 -169.334 
31.1033 -47.7506 -169.334 
31.262 -47.7923 -169.328 
31.3701 -47.74 -169.328 
31.5288 -47.7817 -169.322 
31.6875 -47.8234 -169.316 
31.7956 -47.7711 -169.316 
31.9543 -47.8128 -169.31 
32.0624 -47.7605 -169.31 
32.2211 -47.8021 -169.304 
32.3798 -47.8438 -169.298 
32.4879 -47.7915 -169.298 
32.6466 -47.8332 -169.292 
32.8053 -47.8749 -169.285 
32.9134 -47.8226 -169.286 
33.0721 -47.8643 -169.279 
33.2307 -47.9059 -169.273 
33.3389 -47.8536 -169.273 
33.4975 -47.8953 -169.267 
33.6562 -47.937 -169.261 
33.7643 -47.8847 -169.261 
33.8725 -47.8324 -169.261 
34.0312 -47.8741 -169.255 
34.1393 -47.8218 -169.255 
34.2474 -47.7695 -169.256 
34.4061 -47.8112 -169.249 
34.5142 -47.7589 -169.25 
34.6223 -47.7066 -169.25 
34.7304 -47.6543 -169.25 
34.8385 -47.602 -169.25 
34.9467 -47.5497 -169.25 
35.0548 -47.4974 -169.25 
35.1629 -47.4451 -169.251 
35.3216 -47.4868 -169.244 
35.4297 -47.4345 -169.245 
35.5378 -47.3822 -169.245 
35.6459 -47.3299 -169.245 
35.7541 -47.2776 -169.245 
35.8622 -47.2253 -169.245 
36.0209 -47.267 -169.239 
36.129 -47.2147 -169.239 
36.2371 -47.1624 -169.239 
36.3452 -47.1101 -169.24 
36.5039 -47.1518 -169.233 
36.612 -47.0995 -169.234 
36.7201 -47.0472 -169.234 
36.8788 -47.0889 -169.228 
36.9869 -47.0366 -169.228 
37.095 -46.9843 -169.228 
37.2032 -46.932 -169.228 
37.3619 -46.9737 -169.222 
37.47 -46.9214 -169.222 
37.5781 -46.8691 -169.222 
37.6862 -46.8168 -169.222 
37.7943 -46.7645 -169.223 
37.953 -46.8062 -169.216 
38.0611 -46.7539 -169.216 
38.1692 -46.7016 -169.217 
38.2774 -46.6493 -169.217 
38.436 -46.691 -169.211 
38.5442 -46.6387 -169.211 
38.6523 -46.5864 -169.211 
38.811 -46.6281 -169.205 
38.9697 -46.6698 -169.199 
39.0778 -46.6175 -169.199 
39.2365 -46.6592 -169.193 
39.3446 -46.6069 -169.193 
39.5033 -46.6485 -169.187 
39.6114 -46.5963 -169.187 
39.7195 -46.544 -169.187 
39.8782 -46.5856 -169.181 
39.9863 -46.5333 -169.181 
40.0944 -46.481 -169.181 
40.2025 -46.4288 -169.181 
40.3107 -46.3765 -169.181 
40.4188 -46.3242 -169.182 
40.5269 -46.2719 -169.182 
40.635 -46.2196 -169.182 
40.7431 -46.1673 -169.182 
40.8512 -46.115 -169.182 
40.9594 -46.0627 -169.182 
41.0675 -46.0104 -169.183 
41.1756 -45.9581 -169.183 
41.2837 -45.9058 -169.183 
41.3918 -45.8535 -169.183 
41.4999 -45.8012 -169.183 
41.6081 -45.749 -169.183 
41.7162 -45.6967 -169.184 
41.8243 -45.6444 -169.184 
41.9324 -45.5921 -169.184 
41.99 -45.4458 -169.19 
42.0981 -45.3935 -169.191 
42.2062 -45.3412 -169.191 
42.3143 -45.2889 -169.191 
42.3719 -45.1427 -169.197 
42.48 -45.0904 -169.198 
42.5375 -44.9441 -169.204 
42.6456 -44.8918 -169.204 
42.7538 -44.8395 -169.204 
42.8113 -44.6933 -169.211 
42.9194 -44.641 -169.211 
43.0275 -44.5887 -169.211 
43.1357 -44.5364 -169.211 
43.1932 -44.3901 -169.218 
43.3013 -44.3378 -169.218 
43.4094 -44.2855 -169.218 
43.5176 -44.2332 -169.218 
43.6257 -44.1809 -169.219 
43.7338 -44.1287 -169.219 
43.8419 -44.0764 -169.219 
43.95 -44.0241 -169.219 
44.0076 -43.8778 -169.226 
44.1157 -43.8255 -169.226 
44.2238 -43.7732 -169.226 
44.3319 -43.7209 -169.226 
44.3895 -43.5747 -169.233 
44.4976 -43.5224 -169.233 
44.6057 -43.4701 -169.233 
44.6633 -43.3238 -169.24 
44.7714 -43.2715 -169.24 
44.8795 -43.2192 -169.24 
44.937 -43.073 -169.246 
45.0452 -43.0207 -169.247 
45.1533 -42.9684 -169.247 
45.2108 -42.8221 -169.253 
45.2684 -42.6759 -169.26 
45.3765 -42.6236 -169.26 
45.4341 -42.4773 -169.266 
45.5422 -42.425 -169.267 
45.5997 -42.2787 -169.273 
45.6573 -42.1325 -169.28 
45.7654 -42.0802 -169.28 
45.8229 -41.9339 -169.286 
45.8805 -41.7877 -169.293 
45.9886 -41.7354 -169.293 
46.0967 -41.6831 -169.293 
46.1543 -41.5368 -169.3 
46.2624 -41.4845 -169.3 
46.3705 -41.4322 -169.3 
46.428 -41.286 -169.306 
46.5362 -41.2337 -169.307 
46.6443 -41.1814 -169.307 
46.7524 -41.1291 -169.307 
46.8099 -40.9828 -169.313 
46.9181 -40.9305 -169.314 
47.0262 -40.8782 -169.314 
47.0837 -40.732 -169.32 
47.1918 -40.6797 -169.32 
47.2494 -40.5334 -169.327 
47.3069 -40.3872 -169.333 
47.3645 -40.2409 -169.34 
47.422 -40.0946 -169.346 
47.4796 -39.9484 -169.353 
47.5371 -39.8021 -169.359 
47.5947 -39.6558 -169.366 
47.6522 -39.5096 -169.372 
47.7098 -39.3633 -169.379 
47.7673 -39.2171 -169.385 
47.8249 -39.0708 -169.392 
47.8824 -38.9245 -169.398 
47.9906 -38.8722 -169.399 
48.0481 -38.726 -169.405 
48.1056 -38.5797 -169.412 
48.1632 -38.4334 -169.418 
48.2207 -38.2872 -169.425 
48.2783 -38.1409 -169.431 
48.2853 -37.9007 -169.444 
48.3428 -37.7544 -169.451 
48.4004 -37.6082 -169.457 
48.4073 -37.3679 -169.47 
48.4649 -37.2217 -169.476 
48.5224 -37.0754 -169.483 
48.58 -36.9291 -169.489 
48.6375 -36.7829 -169.496 
48.7457 -36.7306 -169.496 
48.8032 -36.5843 -169.503 
48.9113 -36.532 -169.503 
49.0194 -36.4797 -169.503 
49.077 -36.3335 -169.509 
49.1851 -36.2812 -169.51 
49.2932 -36.2289 -169.51 
49.3508 -36.0826 -169.516 
49.4589 -36.0303 -169.516 
49.5164 -35.8841 -169.523 
19.3255 -53.2103 -168.329 
19.4336 -53.158 -168.329 
19.5417 -53.1057 -168.329 
19.6498 -53.0535 -168.329 
19.7579 -53.0012 -168.329 
19.8155 -52.8549 -168.336 
19.9236 -52.8026 -168.336 
20.0317 -52.7503 -168.336 
20.1398 -52.698 -168.336 
20.248 -52.6457 -168.337 
20.3055 -52.4995 -168.343 
20.4136 -52.4472 -168.343 
20.5217 -52.3949 -168.343 
20.5793 -52.2486 -168.35 
20.6874 -52.1963 -168.35 
20.7955 -52.144 -168.35 
20.9036 -52.0917 -168.35 
21.0118 -52.0394 -168.351 
21.0693 -51.8932 -168.357 
21.1774 -51.8409 -168.357 
21.2855 -51.7886 -168.357 
21.3937 -51.7363 -168.358 
21.4512 -51.59 -168.364 
21.5593 -51.5377 -168.364 
21.6674 -51.4855 -168.364 
21.725 -51.3392 -168.371 
21.8331 -51.2869 -168.371 
21.9412 -51.2346 -168.371 
21.9988 -51.0883 -168.378 
22.1069 -51.036 -168.378 
22.1644 -50.8898 -168.384 
22.2726 -50.8375 -168.385 
22.3807 -50.7852 -168.385 
22.4382 -50.6389 -168.391 
22.5463 -50.5866 -168.391 
22.6039 -50.4404 -168.398 
22.712 -50.3881 -168.398 
22.7696 -50.2418 -168.405 
22.8777 -50.1895 -168.405 
22.9858 -50.1372 -168.405 
23.0939 -50.0849 -168.405 
23.202 -50.0327 -168.405 
23.3101 -49.9804 -168.406 
23.4183 -49.9281 -168.406 
23.5264 -49.8758 -168.406 
23.6345 -49.8235 -168.406 
23.7426 -49.7712 -168.406 
23.8507 -49.7189 -168.406 
23.9589 -49.6666 -168.406 
24.067 -49.6143 -168.407 
24.1245 -49.4681 -168.413 
24.2326 -49.4158 -168.413 
24.3407 -49.3635 -168.413 
24.3983 -49.2172 -168.42 
24.5064 -49.1649 -168.42 
24.6145 -49.1126 -168.42 
24.7227 -49.0603 -168.421 
24.8308 -49.008 -168.421 
24.9389 -48.9557 -168.421 
25.047 -48.9034 -168.421 
25.1551 -48.8512 -168.421 
25.2632 -48.7989 -168.421 
25.3714 -48.7466 -168.422 
25.4795 -48.6943 -168.422 
25.5876 -48.642 -168.422 
25.6957 -48.5897 -168.422 
25.8038 -48.5374 -168.422 
25.9119 -48.4851 -168.422 
26.0201 -48.4328 -168.423 
26.1787 -48.4745 -168.416 
26.2869 -48.4222 -168.417 
26.395 -48.3699 -168.417 
26.5031 -48.3176 -168.417 
26.6618 -48.3593 -168.411 
26.7699 -48.307 -168.411 
26.878 -48.2547 -168.411 
27.0367 -48.2964 -168.405 
27.1448 -48.2441 -168.405 
27.3035 -48.2858 -168.399 
27.4116 -48.2335 -168.399 
27.5197 -48.1812 -168.399 
27.6784 -48.2228 -168.393 
27.7866 -48.1706 -168.393 
27.9452 -48.2122 -168.387 
28.0534 -48.1599 -168.387 
28.1615 -48.1076 -168.387 
28.3202 -48.1493 -168.381 
28.4283 -48.097 -168.381 
28.5364 -48.0447 -168.381 
28.6951 -48.0864 -168.375 
28.8032 -48.0341 -168.375 
28.9619 -48.0758 -168.369 
29.07 -48.0235 -168.369 
29.1781 -47.9712 -168.37 
29.3368 -48.0129 -168.363 
29.4449 -47.9606 -168.364 
29.553 -47.9083 -168.364 
29.7117 -47.95 -168.358 
29.8198 -47.8977 -168.358 
29.928 -47.8454 -168.358 
30.0361 -47.7931 -168.358 
30.1442 -47.7408 -168.358 
30.3029 -47.7825 -168.352 
30.411 -47.7302 -168.352 
30.5191 -47.6779 -168.352 
30.6778 -47.7196 -168.346 
30.7859 -47.6673 -168.346 
30.894 -47.615 -168.347 
31.0527 -47.6567 -168.34 
31.1608 -47.6044 -168.341 
31.3195 -47.646 -168.334 
31.4276 -47.5938 -168.335 
31.5358 -47.5415 -168.335 
31.6944 -47.5831 -168.329 
31.8026 -47.5308 -168.329 
31.9613 -47.5725 -168.323 
32.0694 -47.5202 -168.323 
32.2281 -47.5619 -168.317 
32.3362 -47.5096 -168.317 
32.4949 -47.5513 -168.311 
32.6535 -47.593 -168.304 
32.7617 -47.5407 -168.305 
32.9203 -47.5824 -168.298 
33.079 -47.624 -168.292 
33.1872 -47.5717 -168.292 
33.3458 -47.6134 -168.286 
33.5045 -47.6551 -168.28 
33.6126 -47.6028 -168.28 
33.7208 -47.5505 -168.28 
33.8794 -47.5922 -168.274 
33.9876 -47.5399 -168.274 
34.0957 -47.4876 -168.275 
34.2038 -47.4353 -168.275 
34.3119 -47.383 -168.275 
34.4706 -47.4247 -168.269 
34.5787 -47.3724 -168.269 
34.6868 -47.3201 -168.269 
34.8455 -47.3618 -168.263 
34.9536 -47.3095 -168.263 
35.1123 -47.3512 -168.257 
35.271 -47.3928 -168.251 
35.3791 -47.3405 -168.251 
35.5378 -47.3822 -168.245 
35.6459 -47.3299 -168.245 
35.7541 -47.2776 -168.245 
35.8622 -47.2253 -168.245 
36.0209 -47.267 -168.239 
36.129 -47.2147 -168.239 
36.2371 -47.1624 -168.239 
36.3452 -47.1101 -168.24 
36.4533 -47.0578 -168.24 
36.5614 -47.0056 -168.24 
36.6696 -46.9533 -168.24 
36.7777 -46.901 -168.24 
36.9364 -46.9426 -168.234 
37.0445 -46.8904 -168.234 
37.1526 -46.8381 -168.234 
37.3113 -46.8797 -168.228 
37.4194 -46.8274 -168.228 
37.5275 -46.7752 -168.229 
37.6356 -46.7229 -168.229 
37.7438 -46.6706 -168.229 
37.8519 -46.6183 -168.229 
37.96 -46.566 -168.229 
38.0681 -46.5137 -168.229 
38.2268 -46.5554 -168.223 
38.3349 -46.5031 -168.223 
38.443 -46.4508 -168.223 
38.5511 -46.3985 -168.224 
38.7098 -46.4402 -168.217 
38.8179 -46.3879 -168.218 
38.9261 -46.3356 -168.218 
39.0848 -46.3773 -168.212 
39.1929 -46.325 -168.212 
39.3516 -46.3666 -168.206 
39.4597 -46.3143 -168.206 
39.5678 -46.262 -168.206 
39.6759 -46.2098 -168.206 
39.8346 -46.2514 -168.2 
39.9427 -46.1991 -168.2 
40.0508 -46.1468 -168.2 
40.1589 -46.0946 -168.2 
40.2671 -46.0423 -168.201 
40.3752 -45.99 -168.201 
40.4833 -45.9377 -168.201 
40.5914 -45.8854 -168.201 
40.7501 -45.9271 -168.195 
40.8582 -45.8748 -168.195 
40.9663 -45.8225 -168.195 
41.0745 -45.7702 -168.195 
41.1826 -45.7179 -168.196 
41.2907 -45.6656 -168.196 
41.3988 -45.6133 -168.196 
41.4564 -45.467 -168.202 
41.5645 -45.4147 -168.203 
41.6726 -45.3625 -168.203 
41.7301 -45.2162 -168.209 
41.8383 -45.1639 -168.209 
41.8958 -45.0176 -168.216 
42.0039 -44.9653 -168.216 
42.112 -44.913 -168.216 
42.2202 -44.8608 -168.216 
42.2777 -44.7145 -168.223 
42.3858 -44.6622 -168.223 
42.4939 -44.6099 -168.223 
42.6021 -44.5576 -168.223 
42.7102 -44.5053 -168.224 
42.8183 -44.453 -168.224 
42.9264 -44.4007 -168.224 
43.0345 -44.3484 -168.224 
43.1426 -44.2962 -168.224 
43.2508 -44.2439 -168.225 
43.3083 -44.0976 -168.231 
43.4164 -44.0453 -168.231 
43.5245 -43.993 -168.231 
43.6327 -43.9407 -168.232 
43.7408 -43.8884 -168.232 
43.8489 -43.8361 -168.232 
43.9064 -43.6899 -168.238 
44.0146 -43.6376 -168.239 
44.1227 -43.5853 -168.239 
44.2308 -43.533 -168.239 
44.2883 -43.3867 -168.245 
44.3965 -43.3344 -168.246 
44.5046 -43.2821 -168.246 
44.5621 -43.1359 -168.252 
44.6702 -43.0836 -168.252 
44.7278 -42.9373 -168.259 
44.7853 -42.7911 -168.265 
44.8935 -42.7388 -168.266 
44.951 -42.5925 -168.272 
45.0591 -42.5402 -168.272 
45.1672 -42.4879 -168.272 
45.2248 -42.3417 -168.279 
45.3329 -42.2894 -168.279 
45.441 -42.2371 -168.279 
45.4986 -42.0908 -168.286 
45.6067 -42.0385 -168.286 
45.7148 -41.9862 -168.286 
45.7724 -41.84 -168.293 
45.8299 -41.6937 -168.299 
45.938 -41.6414 -168.299 
45.9956 -41.4951 -168.306 
46.0531 -41.3489 -168.312 
46.1107 -41.2026 -168.319 
46.2188 -41.1503 -168.319 
46.2763 -41.0041 -168.325 
46.3845 -40.9518 -168.326 
46.4926 -40.8995 -168.326 
46.6007 -40.8472 -168.326 
46.7088 -40.7949 -168.326 
46.8169 -40.7426 -168.326 
46.925 -40.6903 -168.326 
47.0332 -40.638 -168.327 
47.1413 -40.5857 -168.327 
47.1988 -40.4394 -168.333 
47.2564 -40.2932 -168.34 
47.3139 -40.1469 -168.346 
47.3209 -39.9067 -168.359 
47.3279 -39.6665 -168.372 
47.3854 -39.5202 -168.378 
47.3924 -39.28 -168.391 
47.3994 -39.0397 -168.404 
47.4569 -38.8935 -168.411 
47.5145 -38.7472 -168.417 
47.572 -38.6009 -168.424 
47.6296 -38.4547 -168.43 
47.7377 -38.4024 -168.43 
47.7953 -38.2561 -168.437 
47.9034 -38.2038 -168.437 
47.9609 -38.0576 -168.444 
48.069 -38.0053 -168.444 
48.1266 -37.859 -168.45 
48.2347 -37.8067 -168.45 
48.2923 -37.6605 -168.457 
48.3498 -37.5142 -168.463 
48.4073 -37.3679 -168.47 
48.5155 -37.3156 -168.47 
48.573 -37.1694 -168.477 
48.6306 -37.0231 -168.483 
48.6881 -36.8768 -168.49 
48.7962 -36.8246 -168.49 
48.8538 -36.6783 -168.496 
48.9619 -36.626 -168.496 
49.0194 -36.4797 -168.503 
49.1276 -36.4274 -168.503 
49.1851 -36.2812 -168.51 
49.2427 -36.1349 -168.516 
49.3508 -36.0826 -168.516 
49.4083 -35.9364 -168.523 
49.4659 -35.7901 -168.529 
19.1738 -52.9284 -167.348 
19.2819 -52.8761 -167.348 
19.39 -52.8238 -167.348 
19.4981 -52.7715 -167.348 
19.6062 -52.7193 -167.348 
19.7144 -52.667 -167.349 
19.8225 -52.6147 -167.349 
19.9306 -52.5624 -167.349 
20.0387 -52.5101 -167.349 
20.1468 -52.4578 -167.349 
20.2549 -52.4055 -167.349 
20.3125 -52.2592 -167.356 
20.4206 -52.2069 -167.356 
20.5287 -52.1546 -167.356 
20.6368 -52.1024 -167.356 
20.745 -52.0501 -167.357 
20.8531 -51.9978 -167.357 
20.9612 -51.9455 -167.357 
21.0693 -51.8932 -167.357 
21.1774 -51.8409 -167.357 
21.2855 -51.7886 -167.357 
21.3937 -51.7363 -167.358 
21.4512 -51.59 -167.364 
21.5593 -51.5377 -167.364 
21.6169 -51.3915 -167.371 
21.725 -51.3392 -167.371 
21.7825 -51.1929 -167.377 
21.8401 -51.0467 -167.384 
21.8976 -50.9004 -167.39 
21.9552 -50.7541 -167.397 
22.0633 -50.7019 -167.397 
22.1209 -50.5556 -167.404 
22.229 -50.5033 -167.404 
22.2865 -50.357 -167.41 
22.3946 -50.3047 -167.411 
22.5028 -50.2524 -167.411 
22.6109 -50.2001 -167.411 
22.719 -50.1479 -167.411 
22.8271 -50.0956 -167.411 
22.9352 -50.0433 -167.411 
23.0433 -49.991 -167.411 
23.1515 -49.9387 -167.412 
23.2596 -49.8864 -167.412 
23.3677 -49.8341 -167.412 
23.4252 -49.6878 -167.419 
23.5334 -49.6355 -167.419 
23.6415 -49.5833 -167.419 
23.7496 -49.531 -167.419 
23.8577 -49.4787 -167.419 
23.9658 -49.4264 -167.419 
24.0739 -49.3741 -167.42 
24.1315 -49.2278 -167.426 
24.2396 -49.1755 -167.426 
24.3477 -49.1232 -167.426 
24.4559 -49.0709 -167.427 
24.564 -49.0186 -167.427 
24.6721 -48.9664 -167.427 
24.7802 -48.9141 -167.427 
24.8883 -48.8618 -167.427 
24.9964 -48.8095 -167.427 
25.1046 -48.7572 -167.428 
25.2127 -48.7049 -167.428 
25.3208 -48.6526 -167.428 
25.4289 -48.6003 -167.428 
25.537 -48.548 -167.428 
25.6451 -48.4957 -167.428 
25.8038 -48.5374 -167.422 
25.9119 -48.4851 -167.422 
26.0201 -48.4328 -167.423 
26.1282 -48.3805 -167.423 
26.2869 -48.4222 -167.417 
26.395 -48.3699 -167.417 
26.5031 -48.3176 -167.417 
26.6112 -48.2653 -167.417 
26.7699 -48.307 -167.411 
26.878 -48.2547 -167.411 
26.9861 -48.2024 -167.411 
27.0943 -48.1501 -167.411 
27.2529 -48.1918 -167.405 
27.3611 -48.1395 -167.405 
27.4692 -48.0872 -167.406 
27.6279 -48.1289 -167.399 
27.736 -48.0766 -167.399 
27.8947 -48.1183 -167.393 
28.0534 -48.1599 -167.387 
28.1615 -48.1076 -167.387 
28.3202 -48.1493 -167.381 
28.4283 -48.097 -167.381 
28.5364 -48.0447 -167.381 
28.6951 -48.0864 -167.375 
28.8032 -48.0341 -167.375 
28.9113 -47.9818 -167.376 
29.0194 -47.9295 -167.376 
29.1781 -47.9712 -167.37 
29.2862 -47.9189 -167.37 
29.3944 -47.8666 -167.37 
29.5025 -47.8143 -167.37 
29.6106 -47.762 -167.37 
29.7187 -47.7097 -167.37 
29.8774 -47.7514 -167.364 
29.9855 -47.6991 -167.364 
30.0936 -47.6468 -167.365 
30.2523 -47.6885 -167.358 
30.3604 -47.6362 -167.359 
30.5191 -47.6779 -167.352 
30.6272 -47.6256 -167.353 
30.7859 -47.6673 -167.346 
30.894 -47.615 -167.347 
31.0527 -47.6567 -167.34 
31.2114 -47.6983 -167.334 
31.3195 -47.646 -167.334 
31.4782 -47.6877 -167.328 
31.6369 -47.7294 -167.322 
31.745 -47.6771 -167.322 
31.8531 -47.6248 -167.322 
32.0118 -47.6665 -167.316 
32.1199 -47.6142 -167.316 
32.2281 -47.5619 -167.317 
32.3867 -47.6036 -167.31 
32.4949 -47.5513 -167.311 
32.603 -47.499 -167.311 
32.7617 -47.5407 -167.305 
32.8698 -47.4884 -167.305 
32.9779 -47.4361 -167.305 
33.1366 -47.4778 -167.299 
33.2447 -47.4255 -167.299 
33.4034 -47.4671 -167.293 
33.5115 -47.4149 -167.293 
33.6196 -47.3626 -167.293 
33.7783 -47.4042 -167.287 
33.8864 -47.3519 -167.287 
34.0451 -47.3936 -167.281 
34.1532 -47.3413 -167.281 
34.3119 -47.383 -167.275 
34.42 -47.3307 -167.275 
34.5787 -47.3724 -167.269 
34.7374 -47.4141 -167.263 
34.8455 -47.3618 -167.263 
35.0042 -47.4035 -167.257 
35.1123 -47.3512 -167.257 
35.2204 -47.2989 -167.257 
35.3791 -47.3405 -167.251 
35.4872 -47.2883 -167.251 
35.5954 -47.236 -167.251 
35.7035 -47.1837 -167.251 
35.8116 -47.1314 -167.252 
35.9197 -47.0791 -167.252 
36.0278 -47.0268 -167.252 
36.136 -46.9745 -167.252 
36.2441 -46.9222 -167.252 
36.3522 -46.8699 -167.252 
36.4603 -46.8176 -167.253 
36.5684 -46.7653 -167.253 
36.7271 -46.807 -167.247 
36.8352 -46.7547 -167.247 
36.9939 -46.7964 -167.241 
37.1526 -46.8381 -167.234 
37.2607 -46.7858 -167.235 
37.4194 -46.8274 -167.228 
37.5275 -46.7752 -167.229 
37.6356 -46.7229 -167.229 
37.7438 -46.6706 -167.229 
37.8519 -46.6183 -167.229 
37.96 -46.566 -167.229 
38.0681 -46.5137 -167.229 
38.1762 -46.4614 -167.23 
38.2843 -46.4091 -167.23 
38.3925 -46.3568 -167.23 
38.5006 -46.3045 -167.23 
38.6087 -46.2522 -167.23 
38.7674 -46.2939 -167.224 
38.8755 -46.2416 -167.224 
38.9836 -46.1893 -167.224 
39.1423 -46.231 -167.218 
39.2504 -46.1787 -167.218 
39.3585 -46.1264 -167.218 
39.4667 -46.0741 -167.219 
39.5748 -46.0218 -167.219 
39.6829 -45.9695 -167.219 
39.791 -45.9172 -167.219 
39.8991 -45.8649 -167.219 
40.0072 -45.8126 -167.219 
40.1154 -45.7604 -167.22 
40.2235 -45.7081 -167.22 
40.3316 -45.6558 -167.22 
40.4397 -45.6035 -167.22 
40.5478 -45.5512 -167.22 
40.6559 -45.4989 -167.22 
40.7641 -45.4466 -167.221 
40.8722 -45.3943 -167.221 
40.9803 -45.342 -167.221 
41.0884 -45.2897 -167.221 
41.1965 -45.2374 -167.221 
41.3046 -45.1851 -167.221 
41.3622 -45.0389 -167.228 
41.4703 -44.9866 -167.228 
41.5784 -44.9343 -167.228 
41.6866 -44.882 -167.229 
41.7441 -44.7357 -167.235 
41.8522 -44.6834 -167.235 
41.9603 -44.6311 -167.235 
42.0685 -44.5788 -167.236 
42.126 -44.4326 -167.242 
42.2341 -44.3803 -167.242 
42.3422 -44.328 -167.242 
42.4504 -44.2757 -167.243 
42.5585 -44.2234 -167.243 
42.6666 -44.1711 -167.243 
42.7747 -44.1188 -167.243 
42.8828 -44.0665 -167.243 
42.9909 -44.0142 -167.243 
43.0991 -43.9619 -167.244 
43.1566 -43.8157 -167.25 
43.2647 -43.7634 -167.25 
43.3728 -43.7111 -167.25 
43.481 -43.6588 -167.251 
43.5891 -43.6065 -167.251 
43.6972 -43.5542 -167.251 
43.8053 -43.5019 -167.251 
43.9134 -43.4496 -167.251 
43.971 -43.3034 -167.258 
44.0791 -43.2511 -167.258 
44.1872 -43.1988 -167.258 
44.2953 -43.1465 -167.258 
44.4034 -43.0942 -167.258 
44.5116 -43.0419 -167.259 
44.5691 -42.8956 -167.265 
44.6772 -42.8433 -167.265 
44.7853 -42.7911 -167.265 
44.8429 -42.6448 -167.272 
44.951 -42.5925 -167.272 
45.0086 -42.4462 -167.279 
45.0661 -42.3 -167.285 
45.1742 -42.2477 -167.285 
45.2318 -42.1014 -167.292 
45.2893 -41.9552 -167.298 
45.3469 -41.8089 -167.305 
45.4044 -41.6626 -167.311 
45.5125 -41.6103 -167.311 
45.5701 -41.4641 -167.318 
45.6276 -41.3178 -167.324 
45.7358 -41.2655 -167.325 
45.8439 -41.2132 -167.325 
45.9014 -41.067 -167.331 
46.0095 -41.0147 -167.331 
46.1177 -40.9624 -167.332 
46.1752 -40.8161 -167.338 
46.2833 -40.7638 -167.338 
46.3914 -40.7115 -167.338 
46.449 -40.5653 -167.345 
46.5571 -40.513 -167.345 
46.6652 -40.4607 -167.345 
46.7228 -40.3144 -167.352 
46.8309 -40.2621 -167.352 
46.8884 -40.1159 -167.358 
46.946 -39.9696 -167.365 
47.0035 -39.8233 -167.371 
47.0611 -39.6771 -167.378 
47.1186 -39.5308 -167.384 
47.1762 -39.3845 -167.391 
47.1832 -39.1443 -167.404 
47.2407 -38.998 -167.41 
47.2983 -38.8518 -167.417 
47.3558 -38.7055 -167.423 
47.4134 -38.5593 -167.43 
47.4709 -38.413 -167.436 
47.579 -38.3607 -167.437 
47.6366 -38.2144 -167.443 
47.6941 -38.0682 -167.45 
47.8022 -38.0159 -167.45 
47.8598 -37.8696 -167.456 
47.9679 -37.8173 -167.456 
48.076 -37.765 -167.457 
48.1336 -37.6188 -167.463 
48.2417 -37.5665 -167.463 
48.2992 -37.4202 -167.47 
48.4073 -37.3679 -167.47 
48.4649 -37.2217 -167.476 
48.573 -37.1694 -167.477 
48.6306 -37.0231 -167.483 
48.6881 -36.8768 -167.49 
48.7457 -36.7306 -167.496 
48.8032 -36.5843 -167.503 
48.8608 -36.4381 -167.509 
48.9183 -36.2918 -167.516 
48.9759 -36.1455 -167.522 
49.0334 -35.9993 -167.529 
49.091 -35.853 -167.535 
49.1991 -35.8007 -167.535 
49.2566 -35.6544 -167.542 
49.3647 -35.6022 -167.542 
19.2243 -53.0224 -166.341 
19.3325 -52.9701 -166.342 
19.4406 -52.9178 -166.342 
19.5487 -52.8655 -166.342 
19.6568 -52.8132 -166.342 
19.7649 -52.7609 -166.342 
19.873 -52.7086 -166.342 
19.9812 -52.6563 -166.343 
20.0893 -52.6041 -166.343 
20.1974 -52.5518 -166.343 
20.2549 -52.4055 -166.349 
20.3631 -52.3532 -166.35 
20.4712 -52.3009 -166.35 
20.5793 -52.2486 -166.35 
20.6368 -52.1024 -166.356 
20.745 -52.0501 -166.357 
20.8531 -51.9978 -166.357 
20.9106 -51.8515 -166.363 
21.0187 -51.7992 -166.363 
21.1269 -51.7469 -166.364 
21.1844 -51.6007 -166.37 
21.2925 -51.5484 -166.37 
21.4006 -51.4961 -166.37 
21.4582 -51.3498 -166.377 
21.5157 -51.2035 -166.383 
21.6239 -51.1513 -166.384 
21.6814 -51.005 -166.39 
21.739 -50.8587 -166.397 
21.8471 -50.8064 -166.397 
21.9046 -50.6602 -166.403 
22.0127 -50.6079 -166.404 
22.0703 -50.4616 -166.41 
22.1784 -50.4093 -166.41 
22.236 -50.2631 -166.417 
22.3441 -50.2108 -166.417 
22.4522 -50.1585 -166.417 
22.5603 -50.1062 -166.417 
22.6179 -49.9599 -166.424 
22.726 -49.9076 -166.424 
22.8341 -49.8553 -166.424 
22.9422 -49.803 -166.424 
22.9998 -49.6568 -166.431 
