ply
format ascii 1.0
comment VCGLIB generated
element vertex 872
property float x
property float y
property float z
element face 0
property list uchar int vertex_indices
end_header
19.2243 -53.0224 -166.341 
19.3325 -52.9701 -166.342 
19.4406 -52.9178 -166.342 
19.5487 -52.8655 -166.342 
19.6568 -52.8132 -166.342 
19.7649 -52.7609 -166.342 
19.873 -52.7086 -166.342 
19.9812 -52.6563 -166.343 
20.0893 -52.6041 -166.343 
20.1974 -52.5518 -166.343 
20.2549 -52.4055 -166.349 
20.3631 -52.3532 -166.35 
20.4712 -52.3009 -166.35 
20.5793 -52.2486 -166.35 
20.6368 -52.1024 -166.356 
20.745 -52.0501 -166.357 
20.8531 -51.9978 -166.357 
20.9106 -51.8515 -166.363 
21.0187 -51.7992 -166.363 
21.1269 -51.7469 -166.364 
21.1844 -51.6007 -166.37 
21.2925 -51.5484 -166.37 
21.4006 -51.4961 -166.37 
21.4582 -51.3498 -166.377 
21.5157 -51.2035 -166.383 
21.6239 -51.1513 -166.384 
21.6814 -51.005 -166.39 
21.739 -50.8587 -166.397 
21.8471 -50.8064 -166.397 
21.9046 -50.6602 -166.403 
22.0127 -50.6079 -166.404 
22.0703 -50.4616 -166.41 
22.1784 -50.4093 -166.41 
22.236 -50.2631 -166.417 
22.3441 -50.2108 -166.417 
22.4522 -50.1585 -166.417 
22.5603 -50.1062 -166.417 
22.6179 -49.9599 -166.424 
22.726 -49.9076 -166.424 
22.8341 -49.8553 -166.424 
22.9422 -49.803 -166.424 
22.9998 -49.6568 -166.431 
23.1079 -49.6045 -166.431 
23.216 -49.5522 -166.431 
23.3241 -49.4999 -166.431 
23.3817 -49.3536 -166.438 
23.4898 -49.3013 -166.438 
23.5979 -49.249 -166.438 
23.706 -49.1968 -166.438 
23.8141 -49.1445 -166.438 
23.9222 -49.0922 -166.439 
24.0304 -49.0399 -166.439 
24.1385 -48.9876 -166.439 
24.2466 -48.9353 -166.439 
24.3547 -48.883 -166.439 
24.4628 -48.8307 -166.439 
24.5709 -48.7784 -166.44 
24.6791 -48.7261 -166.44 
24.7872 -48.6738 -166.44 
24.8953 -48.6215 -166.44 
25.0034 -48.5692 -166.44 
25.1115 -48.5169 -166.44 
25.2197 -48.4647 -166.441 
25.3278 -48.4124 -166.441 
25.4359 -48.3601 -166.441 
25.544 -48.3078 -166.441 
25.7027 -48.3494 -166.435 
25.8108 -48.2972 -166.435 
25.9695 -48.3388 -166.429 
26.0776 -48.2865 -166.429 
26.2363 -48.3282 -166.423 
26.3444 -48.2759 -166.423 
26.4525 -48.2236 -166.423 
26.6112 -48.2653 -166.417 
26.7699 -48.307 -166.411 
26.878 -48.2547 -166.411 
27.0367 -48.2964 -166.405 
27.1448 -48.2441 -166.405 
27.3035 -48.2858 -166.399 
27.4116 -48.2335 -166.399 
27.5197 -48.1812 -166.399 
27.6784 -48.2228 -166.393 
27.7866 -48.1706 -166.393 
27.9452 -48.2122 -166.387 
28.0534 -48.1599 -166.387 
28.1615 -48.1076 -166.387 
28.3202 -48.1493 -166.381 
28.4283 -48.097 -166.381 
28.5364 -48.0447 -166.381 
28.6445 -47.9924 -166.382 
28.7526 -47.9401 -166.382 
28.8607 -47.8879 -166.382 
29.0194 -47.9295 -166.376 
29.1275 -47.8772 -166.376 
29.2357 -47.8249 -166.376 
29.3438 -47.7727 -166.376 
29.4519 -47.7204 -166.376 
29.6106 -47.762 -166.37 
29.7187 -47.7097 -166.37 
29.8268 -47.6575 -166.371 
29.9855 -47.6991 -166.364 
30.0936 -47.6468 -166.365 
30.2523 -47.6885 -166.358 
30.3604 -47.6362 -166.359 
30.4685 -47.5839 -166.359 
30.6272 -47.6256 -166.353 
30.7353 -47.5733 -166.353 
30.894 -47.615 -166.347 
31.0022 -47.5627 -166.347 
31.1103 -47.5104 -166.347 
31.269 -47.5521 -166.341 
31.3771 -47.4998 -166.341 
31.4852 -47.4475 -166.341 
31.6439 -47.4892 -166.335 
31.752 -47.4369 -166.335 
31.9107 -47.4785 -166.329 
32.0188 -47.4263 -166.329 
32.1775 -47.4679 -166.323 
32.2856 -47.4156 -166.323 
32.4443 -47.4573 -166.317 
32.603 -47.499 -166.311 
32.7111 -47.4467 -166.311 
32.8698 -47.4884 -166.305 
33.0285 -47.5301 -166.299 
33.1366 -47.4778 -166.299 
33.2953 -47.5194 -166.293 
33.454 -47.5611 -166.286 
33.5621 -47.5088 -166.287 
33.6702 -47.4565 -166.287 
33.7783 -47.4042 -166.287 
33.937 -47.4459 -166.281 
34.0451 -47.3936 -166.281 
34.1532 -47.3413 -166.281 
34.2613 -47.289 -166.281 
34.3695 -47.2367 -166.281 
34.4776 -47.1845 -166.282 
34.5857 -47.1322 -166.282 
34.7444 -47.1738 -166.276 
34.8525 -47.1215 -166.276 
34.9606 -47.0693 -166.276 
35.1193 -47.1109 -166.27 
35.2274 -47.0586 -166.27 
35.3861 -47.1003 -166.264 
35.4942 -47.048 -166.264 
35.6023 -46.9957 -166.264 
35.7105 -46.9434 -166.264 
35.8186 -46.8911 -166.264 
35.9773 -46.9328 -166.258 
36.0854 -46.8805 -166.258 
36.1935 -46.8282 -166.259 
36.3016 -46.7759 -166.259 
36.4097 -46.7236 -166.259 
36.5179 -46.6714 -166.259 
36.6765 -46.713 -166.253 
36.7847 -46.6607 -166.253 
36.8928 -46.6084 -166.253 
37.0515 -46.6501 -166.247 
37.1596 -46.5978 -166.247 
37.3183 -46.6395 -166.241 
37.4264 -46.5872 -166.241 
37.5345 -46.5349 -166.241 
37.6932 -46.5766 -166.235 
37.8013 -46.5243 -166.235 
37.9094 -46.472 -166.236 
38.0681 -46.5137 -166.229 
38.1762 -46.4614 -166.23 
38.2843 -46.4091 -166.23 
38.3925 -46.3568 -166.23 
38.5006 -46.3045 -166.23 
38.6087 -46.2522 -166.23 
38.7168 -46.1999 -166.23 
38.8249 -46.1476 -166.23 
38.933 -46.0953 -166.231 
39.0412 -46.043 -166.231 
39.1493 -45.9908 -166.231 
39.2574 -45.9385 -166.231 
39.3655 -45.8862 -166.231 
39.4736 -45.8339 -166.232 
39.5817 -45.7816 -166.232 
39.7404 -45.8233 -166.225 
39.8486 -45.771 -166.226 
39.9567 -45.7187 -166.226 
40.0648 -45.6664 -166.226 
40.1729 -45.6141 -166.226 
40.281 -45.5618 -166.226 
40.3891 -45.5095 -166.227 
40.4973 -45.4572 -166.227 
40.6054 -45.4049 -166.227 
40.7135 -45.3526 -166.227 
40.771 -45.2064 -166.234 
40.8792 -45.1541 -166.234 
40.9873 -45.1018 -166.234 
41.0954 -45.0495 -166.234 
41.2035 -44.9972 -166.234 
41.3116 -44.9449 -166.234 
41.3692 -44.7986 -166.241 
41.4773 -44.7463 -166.241 
41.5854 -44.694 -166.241 
41.6935 -44.6418 -166.241 
41.8016 -44.5895 -166.242 
41.9098 -44.5372 -166.242 
42.0179 -44.4849 -166.242 
42.126 -44.4326 -166.242 
42.2341 -44.3803 -166.242 
42.3422 -44.328 -166.242 
42.3998 -44.1817 -166.249 
42.5079 -44.1294 -166.249 
42.616 -44.0771 -166.249 
42.7241 -44.0249 -166.249 
42.7817 -43.8786 -166.256 
42.8898 -43.8263 -166.256 
42.9979 -43.774 -166.256 
43.0555 -43.6277 -166.263 
43.1636 -43.5755 -166.263 
43.2211 -43.4292 -166.269 
43.3293 -43.3769 -166.27 
43.4374 -43.3246 -166.27 
43.4949 -43.1783 -166.276 
43.603 -43.126 -166.276 
43.7112 -43.0738 -166.277 
43.7687 -42.9275 -166.283 
43.8768 -42.8752 -166.283 
43.9849 -42.8229 -166.283 
44.0931 -42.7706 -166.284 
44.2012 -42.7183 -166.284 
44.3093 -42.666 -166.284 
44.4174 -42.6137 -166.284 
44.5255 -42.5614 -166.284 
44.6336 -42.5091 -166.284 
44.7418 -42.4569 -166.285 
44.8499 -42.4046 -166.285 
44.9074 -42.2583 -166.291 
44.965 -42.112 -166.298 
45.0225 -41.9658 -166.304 
45.0801 -41.8195 -166.311 
45.1376 -41.6732 -166.317 
45.1952 -41.527 -166.324 
45.2527 -41.3807 -166.33 
45.3103 -41.2345 -166.337 
45.3678 -41.0882 -166.343 
45.4254 -40.9419 -166.35 
45.5335 -40.8896 -166.35 
45.591 -40.7434 -166.356 
45.6991 -40.6911 -166.357 
45.8073 -40.6388 -166.357 
45.9154 -40.5865 -166.357 
45.9729 -40.4402 -166.363 
46.081 -40.3879 -166.364 
46.1892 -40.3356 -166.364 
46.2467 -40.1894 -166.37 
46.3043 -40.0431 -166.377 
46.4124 -39.9908 -166.377 
46.4699 -39.8446 -166.383 
46.5275 -39.6983 -166.39 
46.6356 -39.646 -166.39 
46.6931 -39.4997 -166.397 
46.7507 -39.3535 -166.403 
46.8588 -39.3012 -166.403 
46.9164 -39.1549 -166.41 
47.0245 -39.1026 -166.41 
47.1326 -39.0503 -166.41 
47.1901 -38.9041 -166.417 
47.2983 -38.8518 -166.417 
47.3558 -38.7055 -166.423 
47.4134 -38.5593 -166.43 
47.5215 -38.507 -166.43 
47.579 -38.3607 -166.437 
47.6366 -38.2144 -166.443 
47.6941 -38.0682 -166.45 
47.8022 -38.0159 -166.45 
47.8598 -37.8696 -166.456 
47.9173 -37.7234 -166.463 
47.9749 -37.5771 -166.469 
48.083 -37.5248 -166.469 
48.1405 -37.3785 -166.476 
48.1981 -37.2323 -166.482 
48.2556 -37.086 -166.489 
48.3638 -37.0337 -166.489 
48.4213 -36.8875 -166.496 
48.4789 -36.7412 -166.502 
48.5364 -36.5949 -166.509 
48.594 -36.4487 -166.515 
48.6515 -36.3024 -166.522 
48.7091 -36.1561 -166.528 
48.7666 -36.0099 -166.535 
48.8241 -35.8636 -166.541 
48.9323 -35.8113 -166.541 
48.9898 -35.6651 -166.548 
49.0979 -35.6128 -166.548 
49.1555 -35.4665 -166.554 
49.2636 -35.4142 -166.555 
0.818654 -61.6676 -166.025 
0.938137 -61.6555 -166.025 
1.05762 -61.6433 -166.025 
1.1771 -61.6311 -166.025 
1.29658 -61.619 -166.025 
1.41606 -61.6068 -166.026 
1.53555 -61.5947 -166.026 
1.65503 -61.5825 -166.026 
1.77452 -61.5703 -166.026 
1.894 -61.5582 -166.026 
2.01348 -61.546 -166.026 
2.14834 -61.6395 -166.02 
2.26782 -61.6273 -166.02 
2.38731 -61.6151 -166.021 
2.50679 -61.603 -166.021 
2.62627 -61.5908 -166.021 
2.74575 -61.5786 -166.021 
2.86524 -61.5665 -166.021 
2.98472 -61.5543 -166.021 
3.1042 -61.5422 -166.021 
3.22368 -61.53 -166.022 
3.32779 -61.4122 -166.028 
3.44727 -61.4001 -166.028 
3.56675 -61.3879 -166.029 
3.68623 -61.3758 -166.029 
3.80572 -61.3636 -166.029 
3.9252 -61.3514 -166.029 
4.0293 -61.2337 -166.036 
4.14878 -61.2215 -166.036 
4.26827 -61.2094 -166.036 
4.38775 -61.1972 -166.036 
4.50723 -61.185 -166.036 
4.62671 -61.1729 -166.036 
4.74619 -61.1607 -166.037 
4.86568 -61.1486 -166.037 
4.96978 -61.0308 -166.043 
5.08926 -61.0186 -166.043 
5.20875 -61.0065 -166.044 
5.32823 -60.9943 -166.044 
5.44771 -60.9822 -166.044 
5.56719 -60.97 -166.044 
5.68667 -60.9578 -166.044 
5.80616 -60.9457 -166.044 
5.92564 -60.9335 -166.045 
6.04512 -60.9213 -166.045 
6.14922 -60.8036 -166.051 
6.26871 -60.7914 -166.051 
6.38819 -60.7793 -166.052 
6.50767 -60.7671 -166.052 
6.61177 -60.6493 -166.058 
6.73126 -60.6372 -166.058 
6.83536 -60.5194 -166.065 
6.95484 -60.5073 -166.065 
7.07432 -60.4951 -166.065 
7.17843 -60.3773 -166.072 
7.29791 -60.3652 -166.072 
7.41739 -60.353 -166.072 
7.53687 -60.3409 -166.072 
7.64097 -60.2231 -166.079 
7.76046 -60.2109 -166.079 
7.87994 -60.1988 -166.079 
7.99942 -60.1866 -166.079 
8.10353 -60.0689 -166.086 
8.22301 -60.0567 -166.086 
8.32711 -59.9389 -166.092 
8.4466 -59.9268 -166.093 
8.5507 -59.809 -166.099 
8.6548 -59.6913 -166.106 
8.7589 -59.5735 -166.112 
8.86301 -59.4557 -166.119 
8.96711 -59.338 -166.125 
9.07121 -59.2202 -166.132 
9.17532 -59.1025 -166.138 
9.27942 -58.9847 -166.145 
9.3989 -58.9725 -166.145 
9.50301 -58.8548 -166.151 
9.60711 -58.737 -166.158 
9.72659 -58.7249 -166.158 
9.83069 -58.6071 -166.164 
9.95018 -58.5949 -166.165 
10.0697 -58.5828 -166.165 
10.1891 -58.5706 -166.165 
10.2932 -58.4529 -166.171 
10.4127 -58.4407 -166.172 
10.5322 -58.4285 -166.172 
10.6517 -58.4164 -166.172 
10.7558 -58.2986 -166.178 
10.8753 -58.2865 -166.179 
10.9794 -58.1687 -166.185 
11.0989 -58.1565 -166.185 
11.203 -58.0388 -166.192 
11.3071 -57.921 -166.198 
11.4112 -57.8033 -166.205 
11.5153 -57.6855 -166.211 
11.6348 -57.6733 -166.212 
11.7389 -57.5556 -166.218 
11.843 -57.4378 -166.225 
11.9624 -57.4257 -166.225 
12.0819 -57.4135 -166.225 
12.186 -57.2957 -166.231 
12.3055 -57.2836 -166.232 
12.425 -57.2714 -166.232 
12.5291 -57.1537 -166.238 
12.6486 -57.1415 -166.238 
12.7681 -57.1293 -166.239 
12.8722 -57.0116 -166.245 
12.9916 -56.9994 -166.245 
13.1111 -56.9873 -166.245 
13.2152 -56.8695 -166.252 
13.3347 -56.8573 -166.252 
13.4388 -56.7396 -166.259 
13.5583 -56.7274 -166.259 
13.6778 -56.7153 -166.259 
13.7819 -56.5975 -166.265 
13.9014 -56.5853 -166.266 
14.0055 -56.4676 -166.272 
14.125 -56.4554 -166.272 
14.2291 -56.3377 -166.279 
14.3485 -56.3255 -166.279 
14.4526 -56.2077 -166.285 
14.5567 -56.09 -166.292 
14.6762 -56.0778 -166.292 
14.7803 -55.9601 -166.299 
14.8844 -55.8423 -166.305 
14.9885 -55.7245 -166.312 
15.108 -55.7124 -166.312 
15.2121 -55.5946 -166.318 
15.3162 -55.4769 -166.325 
15.4203 -55.3591 -166.331 
15.5398 -55.3469 -166.331 
15.6439 -55.2292 -166.338 
15.748 -55.1114 -166.344 
15.8675 -55.0993 -166.345 
15.9716 -54.9815 -166.351 
16.0911 -54.9693 -166.351 
16.1952 -54.8516 -166.358 
16.2993 -54.7338 -166.364 
16.4188 -54.7217 -166.364 
16.5229 -54.6039 -166.371 
16.6424 -54.5917 -166.371 
16.7618 -54.5796 -166.371 
16.8659 -54.4618 -166.378 
16.9854 -54.4497 -166.378 
17.0895 -54.3319 -166.384 
17.1936 -54.2141 -166.391 
17.3131 -54.202 -166.391 
17.4172 -54.0842 -166.398 
17.5367 -54.0721 -166.398 
17.6408 -53.9543 -166.404 
17.7603 -53.9421 -166.404 
17.8644 -53.8244 -166.411 
17.9839 -53.8122 -166.411 
18.1033 -53.8001 -166.411 
18.2074 -53.6823 -166.418 
18.3269 -53.6701 -166.418 
18.4464 -53.658 -166.418 
18.5505 -53.5402 -166.425 
18.67 -53.5281 -166.425 
18.7741 -53.4103 -166.431 
18.8782 -53.2925 -166.438 
18.9823 -53.1748 -166.444 
19.0864 -53.057 -166.451 
19.1905 -52.9393 -166.457 
19.2792 -52.7159 -166.47 
19.3833 -52.5981 -166.477 
19.4874 -52.4804 -166.483 
19.5916 -52.3626 -166.49 
19.6957 -52.2449 -166.496 
19.7998 -52.1271 -166.503 
19.9192 -52.1149 -166.503 
20.0387 -52.1028 -166.503 
20.1582 -52.0906 -166.503 
20.2777 -52.0785 -166.503 
20.3818 -51.9607 -166.51 
20.5013 -51.9485 -166.51 
20.6208 -51.9364 -166.51 
20.7402 -51.9242 -166.51 
20.8443 -51.8065 -166.517 
20.9484 -51.6887 -166.523 
21.0679 -51.6765 -166.524 
21.172 -51.5588 -166.53 
21.2761 -51.441 -166.537 
21.3802 -51.3233 -166.543 
21.4843 -51.2055 -166.55 
21.5884 -51.0877 -166.556 
21.6925 -50.97 -166.563 
21.7966 -50.8522 -166.569 
21.9007 -50.7345 -166.576 
22.0048 -50.6167 -166.582 
22.109 -50.499 -166.589 
22.2131 -50.3812 -166.595 
22.3172 -50.2634 -166.602 
22.4213 -50.1457 -166.608 
22.5254 -50.0279 -166.615 
22.6295 -49.9102 -166.621 
22.749 -49.898 -166.621 
22.8531 -49.7802 -166.628 
22.9572 -49.6625 -166.634 
23.0766 -49.6503 -166.635 
23.1807 -49.5325 -166.641 
23.2848 -49.4148 -166.648 
23.4043 -49.4026 -166.648 
23.5084 -49.2849 -166.654 
23.6279 -49.2727 -166.654 
23.732 -49.155 -166.661 
23.8515 -49.1428 -166.661 
23.9556 -49.025 -166.668 
24.0751 -49.0129 -166.668 
24.1946 -49.0007 -166.668 
24.2987 -48.8829 -166.674 
24.4182 -48.8708 -166.675 
24.5223 -48.753 -166.681 
24.6417 -48.7409 -166.681 
24.7458 -48.6231 -166.688 
24.8653 -48.611 -166.688 
24.9848 -48.5988 -166.688 
25.1043 -48.5866 -166.688 
25.2238 -48.5745 -166.688 
25.3432 -48.5623 -166.689 
25.4627 -48.5501 -166.689 
25.5822 -48.538 -166.689 
25.7017 -48.5258 -166.689 
25.8212 -48.5137 -166.689 
25.9407 -48.5015 -166.689 
26.0601 -48.4893 -166.69 
26.1796 -48.4772 -166.69 
26.2991 -48.465 -166.69 
26.4186 -48.4529 -166.69 
26.5381 -48.4407 -166.69 
26.6576 -48.4285 -166.69 
26.777 -48.4164 -166.691 
26.8965 -48.4042 -166.691 
27.016 -48.3921 -166.691 
27.1355 -48.3799 -166.691 
27.255 -48.3677 -166.691 
27.3745 -48.3556 -166.691 
27.4939 -48.3434 -166.692 
27.6134 -48.3313 -166.692 
27.7329 -48.3191 -166.692 
27.8524 -48.3069 -166.692 
27.9719 -48.2948 -166.692 
28.0913 -48.2826 -166.692 
28.2108 -48.2704 -166.693 
28.3303 -48.2583 -166.693 
28.4344 -48.1405 -166.699 
28.5539 -48.1284 -166.699 
28.6734 -48.1162 -166.7 
28.7929 -48.104 -166.7 
28.9123 -48.0919 -166.7 
29.0318 -48.0797 -166.7 
29.1513 -48.0676 -166.7 
29.2708 -48.0554 -166.7 
29.3903 -48.0432 -166.701 
29.5098 -48.0311 -166.701 
29.6292 -48.0189 -166.701 
29.7487 -48.0068 -166.701 
29.8682 -47.9946 -166.701 
29.9877 -47.9824 -166.701 
30.1072 -47.9703 -166.702 
30.2267 -47.9581 -166.702 
30.3461 -47.946 -166.702 
30.4656 -47.9338 -166.702 
30.5851 -47.9216 -166.702 
30.7046 -47.9095 -166.702 
30.8241 -47.8973 -166.703 
30.9435 -47.8851 -166.703 
31.063 -47.873 -166.703 
31.1825 -47.8608 -166.703 
31.302 -47.8487 -166.703 
31.4215 -47.8365 -166.703 
31.541 -47.8243 -166.704 
31.6604 -47.8122 -166.704 
31.7799 -47.8 -166.704 
31.8994 -47.7879 -166.704 
32.0189 -47.7757 -166.704 
32.1384 -47.7635 -166.704 
32.2732 -47.857 -166.698 
32.3927 -47.8448 -166.698 
32.5122 -47.8326 -166.699 
32.6317 -47.8205 -166.699 
32.7512 -47.8083 -166.699 
32.8706 -47.7962 -166.699 
32.9901 -47.784 -166.699 
33.125 -47.8774 -166.693 
33.2445 -47.8653 -166.693 
33.364 -47.8531 -166.693 
33.4834 -47.841 -166.694 
33.6029 -47.8288 -166.694 
33.7224 -47.8166 -166.694 
33.8419 -47.8045 -166.694 
-17.254 -42.8391 -166.956 
-17.1376 -42.8686 -166.956 
-17.0428 -43.0025 -166.95 
-16.9697 -43.2409 -166.938 
-16.8966 -43.4793 -166.925 
-16.8018 -43.6133 -166.919 
-16.7287 -43.8517 -166.907 
-16.6556 -44.0901 -166.894 
-16.5608 -44.224 -166.888 
-16.466 -44.358 -166.882 
-16.3713 -44.4919 -166.876 
-16.2765 -44.6258 -166.869 
-16.1817 -44.7598 -166.863 
-16.0653 -44.7892 -166.863 
-15.9705 -44.9231 -166.857 
-15.8758 -45.057 -166.851 
-15.781 -45.191 -166.845 
-15.6862 -45.3249 -166.839 
-15.6131 -45.5633 -166.826 
-15.5183 -45.6973 -166.82 
-15.4236 -45.8312 -166.814 
-15.3505 -46.0696 -166.801 
-15.2557 -46.2035 -166.795 
-15.1609 -46.3375 -166.789 
-15.0661 -46.4714 -166.783 
-14.9497 -46.5008 -166.783 
-14.8549 -46.6347 -166.777 
-14.7385 -46.6642 -166.777 
-14.6437 -46.7981 -166.771 
-14.5273 -46.8275 -166.771 
-14.4109 -46.857 -166.771 
-14.2944 -46.8864 -166.771 
-14.178 -46.9159 -166.771 
-14.0615 -46.9453 -166.772 
-13.9668 -47.0792 -166.765 
-13.8503 -47.1087 -166.766 
-13.7556 -47.2426 -166.759 
-13.6608 -47.3765 -166.753 
-13.566 -47.5104 -166.747 
-13.4713 -47.6444 -166.741 
-13.3981 -47.8828 -166.728 
-13.3034 -48.0167 -166.722 
-13.2303 -48.2551 -166.71 
-13.1572 -48.4936 -166.697 
-13.0841 -48.732 -166.685 
-13.011 -48.9704 -166.672 
-12.9378 -49.2088 -166.66 
-12.8647 -49.4472 -166.647 
-12.77 -49.5812 -166.641 
-12.6969 -49.8196 -166.629 
-12.6021 -49.9535 -166.622 
-12.5073 -50.0874 -166.616 
-12.3909 -50.1169 -166.616 
-12.2961 -50.2508 -166.61 
-12.2013 -50.3847 -166.604 
-12.1066 -50.5187 -166.598 
-12.0118 -50.6526 -166.592 
-11.917 -50.7865 -166.585 
-11.8223 -50.9204 -166.579 
-11.7275 -51.0544 -166.573 
-11.6327 -51.1883 -166.567 
-11.5596 -51.4267 -166.554 
-11.4648 -51.5606 -166.548 
-11.3701 -51.6946 -166.542 
-11.2753 -51.8285 -166.536 
-11.1805 -51.9624 -166.53 
-11.0857 -52.0964 -166.524 
-10.991 -52.2303 -166.517 
-10.8962 -52.3642 -166.511 
-10.8014 -52.4981 -166.505 
-10.7067 -52.6321 -166.499 
-10.6119 -52.766 -166.493 
-10.5171 -52.8999 -166.487 
-10.4223 -53.0339 -166.48 
-10.3276 -53.1678 -166.474 
-10.2328 -53.3017 -166.468 
-10.1164 -53.3312 -166.468 
-10.0216 -53.4651 -166.462 
-9.92683 -53.599 -166.456 
-9.83205 -53.7329 -166.45 
-9.73728 -53.8669 -166.444 
-9.64252 -54.0008 -166.437 
-9.54774 -54.1347 -166.431 
-9.45297 -54.2686 -166.425 
-9.33653 -54.2981 -166.425 
-9.24176 -54.432 -166.419 
-9.14699 -54.5659 -166.413 
-9.05222 -54.6999 -166.407 
-8.95745 -54.8338 -166.4 
-8.86268 -54.9677 -166.394 
-8.74624 -54.9972 -166.394 
-8.65147 -55.1311 -166.388 
-8.5567 -55.265 -166.382 
-8.46193 -55.3989 -166.376 
-8.34549 -55.4284 -166.376 
-8.25072 -55.5623 -166.37 
-8.15595 -55.6962 -166.364 
-8.03951 -55.7257 -166.364 
-7.94474 -55.8596 -166.358 
-7.84997 -55.9935 -166.352 
-7.7552 -56.1275 -166.345 
-7.63876 -56.1569 -166.346 
-7.54399 -56.2908 -166.339 
-7.44922 -56.4248 -166.333 
-7.35445 -56.5587 -166.327 
-7.25968 -56.6926 -166.321 
-7.14324 -56.722 -166.321 
-7.04847 -56.856 -166.315 
-6.9537 -56.9899 -166.309 
-6.85893 -57.1238 -166.303 
-6.74249 -57.1533 -166.303 
-6.64772 -57.2872 -166.297 
-6.55295 -57.4211 -166.29 
-6.43651 -57.4506 -166.291 
-6.32008 -57.48 -166.291 
-6.22531 -57.6139 -166.285 
-6.10887 -57.6434 -166.285 
-5.99243 -57.6728 -166.285 
-5.89766 -57.8067 -166.279 
-5.78122 -57.8362 -166.279 
-5.66479 -57.8656 -166.279 
-5.57002 -57.9995 -166.273 
-5.45358 -58.029 -166.273 
-5.35881 -58.1629 -166.267 
-5.24237 -58.1923 -166.267 
-5.12594 -58.2218 -166.267 
-5.03117 -58.3557 -166.261 
-4.91473 -58.3851 -166.261 
-4.7983 -58.4146 -166.261 
-4.68186 -58.444 -166.262 
-4.56543 -58.4735 -166.262 
-4.47065 -58.6074 -166.256 
-4.35422 -58.6368 -166.256 
-4.23778 -58.6663 -166.256 
-4.12134 -58.6957 -166.256 
-4.02657 -58.8296 -166.25 
-3.9318 -58.9636 -166.244 
-3.81537 -58.993 -166.244 
-3.72059 -59.1269 -166.238 
-3.62582 -59.2608 -166.232 
-3.53105 -59.3948 -166.225 
-3.43628 -59.5287 -166.219 
-3.31984 -59.5581 -166.219 
-3.22507 -59.6921 -166.213 
-3.10864 -59.7215 -166.213 
-2.9922 -59.7509 -166.213 
-2.89743 -59.8849 -166.207 
-2.78099 -59.9143 -166.207 
-2.66456 -59.9437 -166.208 
-2.54812 -59.9732 -166.208 
-2.43168 -60.0026 -166.208 
-2.31525 -60.0321 -166.208 
-2.19881 -60.0615 -166.208 
-2.10404 -60.1954 -166.202 
-2.00927 -60.3294 -166.196 
-1.9145 -60.4633 -166.19 
-1.79806 -60.4927 -166.19 
-1.70329 -60.6266 -166.184 
-1.60852 -60.7606 -166.178 
-1.49208 -60.79 -166.178 
-1.37565 -60.8195 -166.178 
-1.25921 -60.8489 -166.178 
-1.14278 -60.8783 -166.178 
-1.02634 -60.9078 -166.178 
-0.909906 -60.9372 -166.179 
-0.793468 -60.9666 -166.179 
-0.677031 -60.9961 -166.179 
-0.560594 -61.0255 -166.179 
-0.444156 -61.055 -166.179 
-0.34939 -61.1889 -166.173 
-0.232954 -61.2183 -166.173 
-0.116516 -61.2478 -166.173 
-0.021743 -61.3817 -166.167 
0.094691 -61.4111 -166.167 
0.189464 -61.5451 -166.161 
0.305897 -61.5745 -166.161 
0.422335 -61.6039 -166.162 
0.538772 -61.6334 -166.162 
0.655205 -61.6628 -166.162 
0.771643 -61.6922 -166.162 
0.888081 -61.7217 -166.162 
1.00452 -61.7511 -166.162 
1.12095 -61.7806 -166.163 
1.23739 -61.81 -166.163 
1.35382 -61.8394 -166.163 
1.47026 -61.8689 -166.163 
1.5867 -61.8983 -166.163 
1.70313 -61.9277 -166.163 
1.81957 -61.9572 -166.164 
1.936 -61.9866 -166.164 
2.05244 -62.0161 -166.164 
2.16887 -62.0455 -166.164 
2.28531 -62.0749 -166.164 
2.40175 -62.1044 -166.164 
2.51818 -62.1338 -166.165 
2.63462 -62.1632 -166.165 
2.77272 -62.0882 -166.171 
2.88916 -62.1176 -166.171 
3.00559 -62.1471 -166.172 
3.1437 -62.072 -166.178 
3.2818 -61.997 -166.185 
3.4199 -61.9219 -166.191 
3.558 -61.8469 -166.198 
3.67443 -61.8763 -166.198 
3.81253 -61.8013 -166.204 
3.95063 -61.7262 -166.211 
4.08874 -61.6511 -166.217 
4.22683 -61.5761 -166.224 
4.36494 -61.501 -166.23 
4.48138 -61.5305 -166.23 
4.61947 -61.4554 -166.237 
4.73591 -61.4849 -166.237 
4.85234 -61.5143 -166.237 
4.99045 -61.4392 -166.244 
5.10688 -61.4687 -166.244 
5.24498 -61.3936 -166.251 
5.38308 -61.3186 -166.257 
5.52119 -61.2435 -166.264 
5.63762 -61.273 -166.264 
5.77572 -61.1979 -166.27 
5.91382 -61.1229 -166.277 
6.05192 -61.0478 -166.283 
6.19002 -60.9728 -166.29 
6.32813 -60.8977 -166.296 
6.46623 -60.8227 -166.303 
6.58267 -60.8521 -166.303 
6.72076 -60.777 -166.309 
6.85886 -60.702 -166.316 
6.9753 -60.7314 -166.316 
7.1134 -60.6564 -166.323 
7.2515 -60.5813 -166.329 
7.3896 -60.5063 -166.336 
7.5277 -60.4312 -166.342 
7.68747 -60.2517 -166.355 
7.82557 -60.1766 -166.361 
7.98533 -59.9971 -166.374 
8.1451 -59.8175 -166.387 
8.2832 -59.7425 -166.394 
8.44297 -59.5629 -166.406 
8.58106 -59.4879 -166.413 
8.71917 -59.4128 -166.419 
8.85727 -59.3378 -166.426 
8.99537 -59.2627 -166.433 
9.13348 -59.1877 -166.439 
9.24991 -59.2171 -166.439 
9.38801 -59.1421 -166.446 
9.50444 -59.1715 -166.446 
9.64254 -59.0965 -166.452 
9.78064 -59.0214 -166.459 
9.89708 -59.0508 -166.459 
10.0352 -58.9758 -166.466 
10.1733 -58.9007 -166.472 
10.3114 -58.8257 -166.479 
10.4495 -58.7506 -166.485 
10.5876 -58.6756 -166.492 
10.7257 -58.6005 -166.498 
10.8638 -58.5255 -166.505 
11.0236 -58.3459 -166.517 
11.1833 -58.1664 -166.53 
11.3214 -58.0913 -166.537 
11.4812 -57.9118 -166.55 
11.6193 -57.8367 -166.556 
11.7791 -57.6572 -166.569 
11.9172 -57.5821 -166.575 
12.0553 -57.5071 -166.582 
12.1934 -57.432 -166.588 
12.3315 -57.357 -166.595 
12.4696 -57.2819 -166.601 
12.6077 -57.2069 -166.608 
12.7241 -57.2363 -166.608 
12.8622 -57.1613 -166.615 
13.0003 -57.0862 -166.621 
13.1384 -57.0112 -166.628 
13.2765 -56.9361 -166.634 
13.4146 -56.8611 -166.641 
13.5744 -56.6815 -166.654 
13.7125 -56.6065 -166.66 
13.8722 -56.4269 -166.673 
14.0103 -56.3519 -166.679 
14.1701 -56.1723 -166.692 
14.3299 -55.9928 -166.705 
14.4896 -55.8132 -166.718 
14.6277 -55.7382 -166.724 
14.7875 -55.5586 -166.737 
14.9473 -55.3791 -166.75 
15.107 -55.1996 -166.763 
15.2451 -55.1245 -166.769 
15.3832 -55.0495 -166.776 
15.5213 -54.9744 -166.782 
15.6594 -54.8994 -166.789 
15.7759 -54.9288 -166.789 
