ply
format ascii 1.0
comment VCGLIB generated
element vertex 857
property float x
property float y
property float z
element face 0
property list uchar int vertex_indices
end_header
18.213 -51.143 -177.468 
18.3211 -51.0907 -177.468 
18.4292 -51.0384 -177.469 
18.5373 -50.9861 -177.469 
18.6454 -50.9338 -177.469 
18.7535 -50.8815 -177.469 
18.8617 -50.8292 -177.469 
18.9698 -50.7769 -177.469 
19.0779 -50.7247 -177.47 
19.186 -50.6724 -177.47 
19.2941 -50.6201 -177.47 
19.4022 -50.5678 -177.47 
19.5104 -50.5155 -177.47 
19.6185 -50.4632 -177.47 
19.7266 -50.4109 -177.471 
19.8347 -50.3586 -177.471 
19.9428 -50.3063 -177.471 
20.051 -50.254 -177.471 
20.1591 -50.2017 -177.471 
20.2672 -50.1494 -177.471 
20.3753 -50.0971 -177.472 
20.4834 -50.0448 -177.472 
20.5915 -49.9926 -177.472 
20.6997 -49.9403 -177.472 
20.8078 -49.888 -177.472 
20.9159 -49.8357 -177.472 
21.0746 -49.8773 -177.466 
21.1827 -49.8251 -177.466 
21.2908 -49.7728 -177.467 
21.3989 -49.7205 -177.467 
21.5576 -49.7622 -177.461 
21.6657 -49.7099 -177.461 
21.7739 -49.6576 -177.461 
21.9325 -49.6992 -177.455 
22.0407 -49.6469 -177.455 
22.1488 -49.5947 -177.455 
22.3075 -49.6363 -177.449 
22.4156 -49.584 -177.449 
22.5743 -49.6257 -177.443 
22.6824 -49.5734 -177.443 
22.7905 -49.5211 -177.443 
22.9492 -49.5628 -177.437 
23.0573 -49.5105 -177.437 
23.1654 -49.4582 -177.437 
23.3241 -49.4999 -177.431 
23.4322 -49.4476 -177.431 
23.5909 -49.4893 -177.425 
23.699 -49.437 -177.425 
23.8071 -49.3847 -177.426 
23.9658 -49.4264 -177.419 
24.0739 -49.3741 -177.42 
24.2326 -49.4158 -177.413 
24.3407 -49.3635 -177.413 
24.4994 -49.4051 -177.407 
24.6076 -49.3528 -177.408 
24.7662 -49.3945 -177.401 
24.9249 -49.4362 -177.395 
25.033 -49.3839 -177.395 
25.1917 -49.4256 -177.389 
25.3504 -49.4673 -177.383 
25.4585 -49.415 -177.383 
25.6172 -49.4566 -177.377 
25.7253 -49.4044 -177.377 
25.884 -49.446 -177.371 
25.9921 -49.3937 -177.371 
26.1508 -49.4354 -177.365 
26.2589 -49.3831 -177.365 
26.3671 -49.3308 -177.365 
26.5258 -49.3725 -177.359 
26.6339 -49.3202 -177.359 
26.7926 -49.3619 -177.353 
26.9007 -49.3096 -177.353 
27.0594 -49.3513 -177.347 
27.1675 -49.299 -177.347 
27.3262 -49.3407 -177.341 
27.4343 -49.2884 -177.341 
27.593 -49.33 -177.335 
27.7516 -49.3717 -177.329 
27.8598 -49.3194 -177.329 
28.0185 -49.3611 -177.323 
28.1266 -49.3088 -177.323 
28.2853 -49.3505 -177.317 
28.3934 -49.2982 -177.317 
28.5521 -49.3399 -177.311 
28.6602 -49.2876 -177.311 
28.8189 -49.3293 -177.305 
28.927 -49.277 -177.305 
29.0857 -49.3186 -177.299 
29.2444 -49.3603 -177.293 
29.403 -49.402 -177.287 
29.5617 -49.4437 -177.28 
29.7204 -49.4853 -177.274 
29.8791 -49.527 -177.268 
30.0378 -49.5687 -177.262 
30.1965 -49.6104 -177.256 
30.3552 -49.6521 -177.25 
30.5138 -49.6937 -177.243 
30.6725 -49.7354 -177.237 
30.7806 -49.6831 -177.237 
30.9393 -49.7248 -177.231 
31.098 -49.7665 -177.225 
31.2061 -49.7142 -177.225 
31.3648 -49.7558 -177.219 
31.4729 -49.7036 -177.219 
31.5811 -49.6513 -177.219 
31.7397 -49.6929 -177.213 
31.8479 -49.6406 -177.213 
31.956 -49.5884 -177.214 
32.0641 -49.5361 -177.214 
32.1722 -49.4838 -177.214 
32.2803 -49.4315 -177.214 
32.3885 -49.3792 -177.214 
32.4966 -49.3269 -177.214 
32.6047 -49.2746 -177.214 
32.7128 -49.2223 -177.215 
32.8209 -49.17 -177.215 
32.929 -49.1177 -177.215 
33.0372 -49.0654 -177.215 
33.1453 -49.0131 -177.215 
33.2534 -48.9608 -177.215 
33.3615 -48.9085 -177.216 
33.4696 -48.8563 -177.216 
33.5777 -48.804 -177.216 
33.6859 -48.7517 -177.216 
33.794 -48.6994 -177.216 
33.9021 -48.6471 -177.216 
34.0102 -48.5948 -177.217 
34.1183 -48.5425 -177.217 
34.2264 -48.4902 -177.217 
34.3346 -48.4379 -177.217 
34.4427 -48.3856 -177.217 
34.5508 -48.3333 -177.217 
34.6589 -48.281 -177.218 
34.767 -48.2287 -177.218 
34.8752 -48.1764 -177.218 
34.9833 -48.1241 -177.218 
35.0914 -48.0719 -177.218 
35.1995 -48.0196 -177.218 
35.3076 -47.9673 -177.219 
35.4157 -47.915 -177.219 
35.5239 -47.8627 -177.219 
35.632 -47.8104 -177.219 
35.7401 -47.7581 -177.219 
35.8482 -47.7058 -177.219 
35.9563 -47.6535 -177.22 
36.115 -47.6952 -177.213 
36.2231 -47.6429 -177.214 
36.3312 -47.5906 -177.214 
36.4899 -47.6323 -177.208 
36.5981 -47.58 -177.208 
36.7567 -47.6217 -177.202 
36.8649 -47.5694 -177.202 
36.973 -47.5171 -177.202 
37.1317 -47.5588 -177.196 
37.2398 -47.5065 -177.196 
37.3479 -47.4542 -177.196 
37.456 -47.4019 -177.196 
37.6147 -47.4436 -177.19 
37.7228 -47.3913 -177.19 
37.8309 -47.339 -177.19 
37.939 -47.2867 -177.191 
38.0977 -47.3284 -177.184 
38.2059 -47.2761 -177.185 
38.314 -47.2238 -177.185 
38.4221 -47.1715 -177.185 
38.5808 -47.2132 -177.179 
38.6889 -47.1609 -177.179 
38.797 -47.1086 -177.179 
38.9051 -47.0563 -177.179 
39.0132 -47.004 -177.179 
39.1214 -46.9517 -177.18 
39.2295 -46.8994 -177.18 
39.3376 -46.8471 -177.18 
39.3951 -46.7008 -177.186 
39.5033 -46.6485 -177.187 
39.6114 -46.5963 -177.187 
39.7195 -46.544 -177.187 
39.8276 -46.4917 -177.187 
39.9357 -46.4394 -177.187 
40.0438 -46.3871 -177.187 
40.152 -46.3348 -177.188 
40.2601 -46.2825 -177.188 
40.3682 -46.2302 -177.188 
40.4763 -46.1779 -177.188 
40.5844 -46.1256 -177.188 
40.6926 -46.0733 -177.188 
40.8512 -46.115 -177.182 
40.9594 -46.0627 -177.182 
41.0675 -46.0104 -177.183 
41.1756 -45.9581 -177.183 
41.2837 -45.9058 -177.183 
41.3918 -45.8535 -177.183 
41.4999 -45.8012 -177.183 
41.6081 -45.749 -177.183 
41.6656 -45.6027 -177.19 
41.7737 -45.5504 -177.19 
41.8818 -45.4981 -177.19 
41.99 -45.4458 -177.19 
42.0475 -45.2995 -177.197 
42.1556 -45.2473 -177.197 
42.2637 -45.195 -177.197 
42.3719 -45.1427 -177.197 
42.4294 -44.9964 -177.204 
42.5375 -44.9441 -177.204 
42.6456 -44.8918 -177.204 
42.7538 -44.8395 -177.204 
42.8619 -44.7872 -177.205 
42.97 -44.7349 -177.205 
43.0781 -44.6826 -177.205 
43.1862 -44.6303 -177.205 
43.2943 -44.5781 -177.205 
43.4025 -44.5258 -177.205 
43.5106 -44.4735 -177.206 
43.6187 -44.4212 -177.206 
43.7268 -44.3689 -177.206 
43.8349 -44.3166 -177.206 
43.9431 -44.2643 -177.206 
44.0006 -44.118 -177.213 
44.1087 -44.0657 -177.213 
44.2168 -44.0135 -177.213 
44.2744 -43.8672 -177.22 
44.3825 -43.8149 -177.22 
44.4401 -43.6686 -177.226 
44.5482 -43.6163 -177.227 
44.6563 -43.564 -177.227 
44.7138 -43.4178 -177.233 
44.822 -43.3655 -177.233 
44.9301 -43.3132 -177.234 
45.0382 -43.2609 -177.234 
45.0957 -43.1146 -177.24 
45.2039 -43.0623 -177.24 
45.312 -43.0101 -177.241 
45.4201 -42.9578 -177.241 
45.5282 -42.9055 -177.241 
45.6363 -42.8532 -177.241 
45.7444 -42.8009 -177.241 
45.802 -42.6546 -177.248 
45.9101 -42.6023 -177.248 
46.0182 -42.55 -177.248 
46.1263 -42.4977 -177.248 
46.2345 -42.4455 -177.248 
46.292 -42.2992 -177.255 
46.4001 -42.2469 -177.255 
46.5082 -42.1946 -177.255 
46.5658 -42.0483 -177.262 
46.6739 -41.996 -177.262 
46.782 -41.9438 -177.262 
46.8396 -41.7975 -177.269 
46.8971 -41.6512 -177.275 
47.0052 -41.5989 -177.275 
47.0628 -41.4527 -177.282 
47.1709 -41.4004 -177.282 
47.2285 -41.2541 -177.288 
47.286 -41.1079 -177.295 
47.3941 -41.0556 -177.295 
47.4517 -40.9093 -177.302 
47.5092 -40.763 -177.308 
47.6173 -40.7107 -177.308 
47.6749 -40.5645 -177.315 
47.7324 -40.4182 -177.321 
47.79 -40.272 -177.328 
47.8981 -40.2197 -177.328 
47.9557 -40.0734 -177.334 
48.0132 -39.9271 -177.341 
48.0707 -39.7809 -177.347 
48.1283 -39.6346 -177.354 
48.2364 -39.5823 -177.354 
48.294 -39.4361 -177.361 
48.3515 -39.2898 -177.367 
48.4091 -39.1435 -177.374 
48.5172 -39.0912 -177.374 
48.5747 -38.945 -177.38 
48.6323 -38.7987 -177.387 
48.7404 -38.7464 -177.387 
48.7979 -38.6002 -177.393 
48.8555 -38.4539 -177.4 
48.9636 -38.4016 -177.4 
49.0212 -38.2553 -177.407 
49.1293 -38.203 -177.407 
49.1868 -38.0568 -177.413 
49.2949 -38.0045 -177.413 
49.3525 -37.8582 -177.42 
49.4606 -37.8059 -177.42 
49.5182 -37.6597 -177.427 
49.6263 -37.6074 -177.427 
49.6838 -37.4611 -177.433 
49.7919 -37.4088 -177.434 
49.8495 -37.2626 -177.44 
49.9576 -37.2103 -177.44 
50.0152 -37.064 -177.447 
50.0727 -36.9177 -177.453 
0.56076 -60.7294 -177.082 
0.680238 -60.7172 -177.082 
0.799718 -60.7051 -177.082 
0.919203 -60.6929 -177.082 
1.03869 -60.6808 -177.082 
1.14279 -60.563 -177.089 
1.26227 -60.5508 -177.089 
1.38175 -60.5387 -177.089 
1.50124 -60.5265 -177.089 
1.62072 -60.5144 -177.089 
1.7402 -60.5022 -177.09 
1.8443 -60.3844 -177.096 
1.96379 -60.3723 -177.096 
2.08327 -60.3601 -177.096 
2.20275 -60.3479 -177.097 
2.32223 -60.3358 -177.097 
2.44171 -60.3236 -177.097 
2.5612 -60.3115 -177.097 
2.6653 -60.1937 -177.104 
2.78478 -60.1815 -177.104 
2.90427 -60.1694 -177.104 
3.02375 -60.1572 -177.104 
3.12785 -60.0395 -177.111 
3.24733 -60.0273 -177.111 
3.36681 -60.0151 -177.111 
3.47092 -59.8974 -177.117 
3.5904 -59.8852 -177.118 
3.70988 -59.8731 -177.118 
3.81399 -59.7553 -177.124 
3.93347 -59.7431 -177.124 
4.03757 -59.6254 -177.131 
4.15705 -59.6132 -177.131 
4.27654 -59.6011 -177.131 
4.38064 -59.4833 -177.138 
4.50012 -59.4711 -177.138 
4.6196 -59.459 -177.138 
4.72371 -59.3412 -177.145 
4.84319 -59.3291 -177.145 
4.96267 -59.3169 -177.145 
5.08216 -59.3047 -177.145 
5.20164 -59.2926 -177.145 
5.32112 -59.2804 -177.145 
5.4406 -59.2682 -177.146 
5.56009 -59.2561 -177.146 
5.67957 -59.2439 -177.146 
5.79905 -59.2318 -177.146 
5.90315 -59.114 -177.153 
6.02264 -59.1019 -177.153 
6.14212 -59.0897 -177.153 
6.24622 -58.9719 -177.159 
6.35032 -58.8542 -177.166 
6.4698 -58.842 -177.166 
6.57391 -58.7243 -177.173 
6.67801 -58.6065 -177.179 
6.79749 -58.5943 -177.179 
6.9016 -58.4766 -177.186 
7.0057 -58.3588 -177.192 
7.12518 -58.3467 -177.192 
7.22928 -58.2289 -177.199 
7.34877 -58.2167 -177.199 
7.45287 -58.099 -177.206 
7.57235 -58.0868 -177.206 
7.67646 -57.9691 -177.212 
7.79594 -57.9569 -177.212 
7.91542 -57.9447 -177.213 
8.01952 -57.827 -177.219 
8.13901 -57.8148 -177.219 
8.25849 -57.8027 -177.219 
8.36259 -57.6849 -177.226 
8.48207 -57.6727 -177.226 
8.58618 -57.555 -177.233 
8.70566 -57.5428 -177.233 
8.82514 -57.5306 -177.233 
8.92924 -57.4129 -177.24 
9.04873 -57.4007 -177.24 
9.15283 -57.283 -177.246 
9.27231 -57.2708 -177.246 
9.37642 -57.153 -177.253 
9.4959 -57.1409 -177.253 
9.6 -57.0231 -177.26 
9.71948 -57.011 -177.26 
9.82358 -56.8932 -177.266 
9.94307 -56.881 -177.266 
10.0472 -56.7633 -177.273 
10.1666 -56.7511 -177.273 
10.2708 -56.6334 -177.28 
10.3902 -56.6212 -177.28 
10.4943 -56.5034 -177.286 
10.5984 -56.3857 -177.293 
10.7179 -56.3735 -177.293 
10.822 -56.2558 -177.299 
10.9415 -56.2436 -177.3 
11.0456 -56.1258 -177.306 
11.1497 -56.0081 -177.313 
11.2692 -55.9959 -177.313 
11.3733 -55.8782 -177.319 
11.4774 -55.7604 -177.326 
11.5969 -55.7482 -177.326 
11.701 -55.6305 -177.332 
11.8205 -55.6183 -177.333 
11.9246 -55.5006 -177.339 
12.0441 -55.4884 -177.339 
12.1482 -55.3706 -177.346 
12.2676 -55.3585 -177.346 
12.3871 -55.3463 -177.346 
12.4912 -55.2286 -177.353 
12.6107 -55.2164 -177.353 
12.7148 -55.0986 -177.359 
12.8343 -55.0865 -177.359 
12.9384 -54.9687 -177.366 
13.0579 -54.9566 -177.366 
13.162 -54.8388 -177.373 
13.2661 -54.7211 -177.379 
13.3702 -54.6033 -177.386 
13.4743 -54.4855 -177.392 
13.5938 -54.4734 -177.392 
13.6979 -54.3556 -177.399 
13.802 -54.2379 -177.405 
13.9061 -54.1201 -177.412 
14.0102 -54.0023 -177.418 
14.1143 -53.8846 -177.425 
14.2338 -53.8724 -177.425 
14.3379 -53.7547 -177.432 
14.442 -53.6369 -177.438 
14.5461 -53.5191 -177.445 
14.6656 -53.507 -177.445 
14.7697 -53.3892 -177.451 
14.8738 -53.2715 -177.458 
14.9779 -53.1537 -177.464 
15.082 -53.0359 -177.471 
15.1861 -52.9182 -177.477 
15.2902 -52.8004 -177.484 
15.3943 -52.6827 -177.49 
15.4984 -52.5649 -177.497 
15.6025 -52.4471 -177.503 
15.7066 -52.3294 -177.51 
15.8261 -52.3172 -177.51 
15.9302 -52.1995 -177.516 
16.0497 -52.1873 -177.517 
16.1691 -52.1751 -177.517 
16.2886 -52.163 -177.517 
16.4081 -52.1508 -177.517 
16.5122 -52.0331 -177.524 
16.6317 -52.0209 -177.524 
16.7358 -51.9031 -177.53 
16.8553 -51.891 -177.53 
16.9594 -51.7732 -177.537 
17.0635 -51.6555 -177.543 
17.1676 -51.5377 -177.55 
17.2871 -51.5255 -177.55 
17.3912 -51.4078 -177.557 
17.4953 -51.29 -177.563 
17.5994 -51.1723 -177.57 
17.7189 -51.1601 -177.57 
17.823 -51.0423 -177.576 
17.9424 -51.0302 -177.576 
18.0466 -50.9124 -177.583 
18.166 -50.9003 -177.583 
18.2701 -50.7825 -177.59 
18.3896 -50.7703 -177.59 
18.5091 -50.7582 -177.59 
18.6132 -50.6404 -177.596 
18.7327 -50.6283 -177.597 
18.8368 -50.5105 -177.603 
18.9563 -50.4983 -177.603 
19.0604 -50.3806 -177.61 
19.1645 -50.2628 -177.616 
19.284 -50.2507 -177.617 
19.4034 -50.2385 -177.617 
19.5075 -50.1207 -177.623 
19.627 -50.1086 -177.623 
19.7311 -49.9908 -177.63 
19.8506 -49.9787 -177.63 
19.9701 -49.9665 -177.63 
20.0742 -49.8487 -177.637 
20.1937 -49.8366 -177.637 
20.3132 -49.8244 -177.637 
20.4326 -49.8123 -177.637 
20.5367 -49.6945 -177.644 
20.6562 -49.6823 -177.644 
20.7757 -49.6702 -177.644 
20.8952 -49.658 -177.644 
21.0147 -49.6458 -177.644 
21.1342 -49.6337 -177.645 
21.2536 -49.6215 -177.645 
21.3731 -49.6094 -177.645 
21.4926 -49.5972 -177.645 
21.6121 -49.585 -177.645 
21.7316 -49.5729 -177.645 
21.8511 -49.5607 -177.646 
21.9705 -49.5486 -177.646 
22.09 -49.5364 -177.646 
22.2095 -49.5242 -177.646 
22.329 -49.5121 -177.646 
22.4485 -49.4999 -177.646 
22.5679 -49.4878 -177.647 
22.6874 -49.4756 -177.647 
22.8069 -49.4634 -177.647 
22.9264 -49.4513 -177.647 
23.0459 -49.4391 -177.647 
23.1654 -49.427 -177.647 
23.2848 -49.4148 -177.648 
23.4043 -49.4026 -177.648 
23.5238 -49.3905 -177.648 
23.6433 -49.3783 -177.648 
23.7628 -49.3661 -177.648 
23.8823 -49.354 -177.648 
24.0017 -49.3418 -177.649 
24.1212 -49.3297 -177.649 
24.2407 -49.3175 -177.649 
24.3602 -49.3053 -177.649 
24.4797 -49.2932 -177.649 
24.5991 -49.281 -177.649 
24.7186 -49.2689 -177.65 
24.8381 -49.2567 -177.65 
24.9576 -49.2445 -177.65 
25.0771 -49.2324 -177.65 
25.1966 -49.2202 -177.65 
25.3314 -49.3137 -177.644 
25.4509 -49.3015 -177.644 
25.5704 -49.2893 -177.644 
25.6899 -49.2772 -177.645 
25.8247 -49.3706 -177.638 
25.9442 -49.3585 -177.639 
26.0637 -49.3463 -177.639 
26.1832 -49.3341 -177.639 
26.318 -49.4276 -177.633 
26.4375 -49.4154 -177.633 
26.557 -49.4032 -177.633 
26.6765 -49.3911 -177.633 
26.796 -49.3789 -177.633 
26.9155 -49.3668 -177.634 
27.0349 -49.3546 -177.634 
27.1544 -49.3424 -177.634 
27.2739 -49.3303 -177.634 
27.3934 -49.3181 -177.634 
27.5129 -49.306 -177.634 
27.6477 -49.3994 -177.628 
27.7672 -49.3872 -177.628 
27.8867 -49.3751 -177.629 
28.0062 -49.3629 -177.629 
28.1257 -49.3508 -177.629 
28.2605 -49.4442 -177.623 
28.38 -49.432 -177.623 
28.4995 -49.4199 -177.623 
28.6343 -49.5133 -177.617 
28.7538 -49.5011 -177.617 
28.8733 -49.489 -177.617 
28.9928 -49.4768 -177.617 
29.1123 -49.4647 -177.617 
29.2318 -49.4525 -177.618 
29.3512 -49.4403 -177.618 
29.4861 -49.5338 -177.612 
29.6056 -49.5216 -177.612 
29.7251 -49.5095 -177.612 
29.8445 -49.4973 -177.612 
29.964 -49.4851 -177.612 
30.0989 -49.5786 -177.606 
30.2184 -49.5664 -177.606 
30.3379 -49.5542 -177.606 
30.4727 -49.6477 -177.6 
30.5922 -49.6355 -177.6 
30.7271 -49.729 -177.594 
30.8465 -49.7168 -177.594 
30.966 -49.7046 -177.595 
31.1009 -49.7981 -177.588 
31.2204 -49.7859 -177.589 
31.3552 -49.8794 -177.582 
31.4747 -49.8672 -177.583 
31.5942 -49.855 -177.583 
31.7291 -49.9485 -177.577 
31.8485 -49.9363 -177.577 
31.968 -49.9241 -177.577 
32.1029 -50.0176 -177.571 
32.2224 -50.0054 -177.571 
32.3419 -49.9933 -177.571 
32.4767 -50.0867 -177.565 
32.5962 -50.0745 -177.565 
32.7003 -49.9568 -177.572 
32.8198 -49.9446 -177.572 
32.9239 -49.8269 -177.578 
33.0434 -49.8147 -177.578 
33.1475 -49.6969 -177.585 
33.2516 -49.5792 -177.591 
33.3403 -49.3558 -177.604 
33.4444 -49.2381 -177.611 
33.5485 -49.1203 -177.617 
33.668 -49.1081 -177.617 
33.7721 -48.9904 -177.624 
33.8762 -48.8726 -177.631 
33.9957 -48.8605 -177.631 
-17.3407 -43.2571 -177.931 
-17.2242 -43.2865 -177.931 
-17.1294 -43.4205 -177.925 
-17.0347 -43.5544 -177.919 
-16.9399 -43.6883 -177.913 
-16.8451 -43.8223 -177.906 
-16.772 -44.0607 -177.894 
-16.6773 -44.1946 -177.888 
-16.5825 -44.3285 -177.882 
-16.4877 -44.4625 -177.875 
-16.3929 -44.5964 -177.869 
-16.2982 -44.7303 -177.863 
-16.2034 -44.8642 -177.857 
-16.1086 -44.9982 -177.851 
-16.0139 -45.1321 -177.845 
-15.9191 -45.266 -177.838 
-15.8243 -45.4 -177.832 
-15.7295 -45.5339 -177.826 
-15.6564 -45.7723 -177.814 
-15.5617 -45.9062 -177.807 
-15.4886 -46.1446 -177.795 
-15.3938 -46.2786 -177.789 
-15.3207 -46.517 -177.776 
-15.2259 -46.6509 -177.77 
-15.1311 -46.7849 -177.764 
-15.058 -47.0233 -177.751 
-14.9633 -47.1572 -177.745 
-14.8685 -47.2911 -177.739 
-14.7737 -47.4251 -177.733 
-14.6789 -47.559 -177.727 
-14.5842 -47.6929 -177.72 
-14.4894 -47.8268 -177.714 
-14.3946 -47.9608 -177.708 
-14.2999 -48.0947 -177.702 
-14.1834 -48.1241 -177.702 
-14.0887 -48.2581 -177.696 
-13.9939 -48.392 -177.69 
-13.8991 -48.5259 -177.684 
-13.7827 -48.5554 -177.684 
-13.6879 -48.6893 -177.678 
-13.5931 -48.8232 -177.671 
-13.4767 -48.8526 -177.672 
-13.3819 -48.9866 -177.665 
-13.2872 -49.1205 -177.659 
-13.1924 -49.2544 -177.653 
-13.0976 -49.3884 -177.647 
-13.0028 -49.5223 -177.641 
-12.9081 -49.6562 -177.635 
-12.8133 -49.7901 -177.628 
-12.7185 -49.9241 -177.622 
-12.6454 -50.1625 -177.61 
-12.5506 -50.2964 -177.604 
-12.4559 -50.4303 -177.597 
-12.3828 -50.6688 -177.585 
-12.288 -50.8027 -177.579 
-12.1932 -50.9366 -177.572 
-12.0985 -51.0705 -177.566 
-12.0037 -51.2045 -177.56 
-11.9089 -51.3384 -177.554 
-11.8141 -51.4723 -177.548 
-11.6977 -51.5018 -177.548 
-11.6029 -51.6357 -177.542 
-11.5082 -51.7696 -177.536 
-11.4134 -51.9036 -177.529 
-11.3186 -52.0375 -177.523 
-11.2238 -52.1714 -177.517 
-11.1291 -52.3053 -177.511 
-11.0343 -52.4393 -177.505 
-10.9395 -52.5732 -177.499 
-10.8448 -52.7071 -177.492 
-10.75 -52.841 -177.486 
-10.6552 -52.975 -177.48 
-10.5604 -53.1089 -177.474 
-10.4657 -53.2428 -177.468 
-10.3709 -53.3768 -177.462 
-10.2545 -53.4062 -177.462 
-10.1597 -53.5401 -177.456 
-10.0649 -53.6741 -177.449 
-9.97016 -53.808 -177.443 
-9.87538 -53.9419 -177.437 
-9.78061 -54.0758 -177.431 
-9.68584 -54.2098 -177.425 
-9.59107 -54.3437 -177.419 
-9.51796 -54.5821 -177.406 
-9.42319 -54.716 -177.4 
-9.32842 -54.85 -177.394 
-9.23365 -54.9839 -177.387 
-9.13888 -55.1178 -177.381 
-9.04411 -55.2518 -177.375 
-8.94933 -55.3857 -177.369 
-8.8329 -55.4151 -177.369 
-8.73813 -55.549 -177.363 
-8.64336 -55.683 -177.357 
-8.54858 -55.8169 -177.351 
-8.43215 -55.8463 -177.351 
-8.33738 -55.9803 -177.345 
-8.24261 -56.1142 -177.338 
-8.14784 -56.2481 -177.332 
-8.05307 -56.3821 -177.326 
-7.95829 -56.516 -177.32 
-7.84186 -56.5454 -177.32 
-7.74709 -56.6793 -177.314 
-7.65231 -56.8133 -177.308 
-7.55754 -56.9472 -177.302 
-7.46277 -57.0811 -177.295 
-7.34634 -57.1106 -177.296 
-7.25156 -57.2445 -177.289 
-7.15679 -57.3784 -177.283 
-7.04036 -57.4079 -177.283 
-6.94559 -57.5418 -177.277 
-6.85082 -57.6757 -177.271 
-6.75604 -57.8096 -177.265 
-6.66127 -57.9436 -177.259 
-6.5665 -58.0775 -177.253 
-6.4934 -58.3159 -177.24 
-6.39862 -58.4498 -177.234 
-6.30385 -58.5838 -177.228 
-6.23074 -58.8222 -177.215 
-6.13597 -58.9561 -177.209 
-6.0412 -59.0901 -177.203 
-5.94643 -59.224 -177.197 
-5.85166 -59.3579 -177.19 
-5.73522 -59.3873 -177.191 
-5.64045 -59.5213 -177.184 
-5.54568 -59.6552 -177.178 
-5.42924 -59.6846 -177.178 
-5.33448 -59.8186 -177.172 
-5.21804 -59.848 -177.172 
-5.12327 -59.9819 -177.166 
-5.00683 -60.0114 -177.166 
-4.91206 -60.1453 -177.16 
-4.79562 -60.1747 -177.16 
-4.70085 -60.3087 -177.154 
-4.60608 -60.4426 -177.148 
-4.48964 -60.472 -177.148 
-4.39487 -60.606 -177.142 
-4.3001 -60.7399 -177.136 
-4.18367 -60.7693 -177.136 
-4.08889 -60.9033 -177.13 
-3.99412 -61.0372 -177.124 
-3.89935 -61.1711 -177.118 
-3.78292 -61.2006 -177.118 
-3.68814 -61.3345 -177.112 
-3.57171 -61.3639 -177.112 
-3.45527 -61.3934 -177.112 
-3.33884 -61.4228 -177.112 
-3.2224 -61.4522 -177.112 
-3.10597 -61.4817 -177.112 
-2.98953 -61.5111 -177.113 
-2.87309 -61.5405 -177.113 
-2.75666 -61.57 -177.113 
-2.64022 -61.5994 -177.113 
-2.52378 -61.6289 -177.113 
-2.40735 -61.6583 -177.113 
-2.29091 -61.6877 -177.114 
-2.17448 -61.7172 -177.114 
-2.05804 -61.7466 -177.114 
-1.9416 -61.776 -177.114 
-1.82517 -61.8055 -177.114 
-1.70873 -61.8349 -177.114 
-1.5923 -61.8644 -177.115 
-1.47586 -61.8938 -177.115 
-1.35942 -61.9232 -177.115 
-1.22132 -61.8482 -177.121 
-1.10489 -61.8776 -177.122 
-0.966784 -61.8026 -177.128 
-0.850352 -61.832 -177.128 
-0.71225 -61.757 -177.135 
-0.574144 -61.6819 -177.141 
-0.436046 -61.6068 -177.148 
-0.297945 -61.5318 -177.154 
-0.159844 -61.4567 -177.161 
-0.021743 -61.3817 -177.167 
0.116355 -61.3066 -177.174 
0.254456 -61.2316 -177.18 
0.392557 -61.1565 -177.187 
0.530659 -61.0815 -177.193 
0.66876 -61.0064 -177.2 
0.785193 -61.0359 -177.2 
0.923299 -60.9608 -177.206 
1.03973 -60.9902 -177.207 
1.17783 -60.9152 -177.213 
1.31593 -60.8401 -177.22 
1.43237 -60.8696 -177.22 
1.57047 -60.7945 -177.226 
1.68691 -60.824 -177.227 
1.82501 -60.7489 -177.233 
1.94144 -60.7784 -177.233 
2.07955 -60.7033 -177.24 
2.19598 -60.7327 -177.24 
2.33408 -60.6577 -177.246 
2.45051 -60.6871 -177.247 
2.56695 -60.7166 -177.247 
2.70505 -60.6415 -177.253 
2.82149 -60.671 -177.253 
2.95959 -60.5959 -177.26 
3.09769 -60.5208 -177.266 
3.21413 -60.5503 -177.267 
3.35223 -60.4752 -177.273 
3.49033 -60.4002 -177.28 
3.62843 -60.3251 -177.286 
3.76653 -60.2501 -177.293 
3.90463 -60.175 -177.299 
4.0644 -59.9955 -177.312 
4.2025 -59.9204 -177.318 
4.3406 -59.8454 -177.325 
4.4787 -59.7703 -177.331 
4.6168 -59.6953 -177.338 
4.7549 -59.6202 -177.344 
4.893 -59.5452 -177.351 
5.00944 -59.5746 -177.351 
5.14754 -59.4995 -177.358 
5.26398 -59.529 -177.358 
5.40208 -59.4539 -177.364 
5.51851 -59.4834 -177.364 
5.65662 -59.4083 -177.371 
5.79471 -59.3333 -177.377 
5.91115 -59.3627 -177.378 
6.04925 -59.2877 -177.384 
6.18735 -59.2126 -177.391 
6.32545 -59.1376 -177.397 
6.46355 -59.0625 -177.404 
6.60165 -58.9874 -177.41 
6.73975 -58.9124 -177.417 
6.87786 -58.8373 -177.423 
7.01596 -58.7623 -177.43 
7.17572 -58.5827 -177.443 
7.31382 -58.5077 -177.449 
7.45192 -58.4326 -177.456 
7.59003 -58.3576 -177.462 
7.74979 -58.178 -177.475 
7.88789 -58.103 -177.481 
8.02599 -58.0279 -177.488 
8.18576 -57.8484 -177.501 
8.32386 -57.7733 -177.507 
8.46196 -57.6983 -177.514 
8.62173 -57.5188 -177.527 
8.75983 -57.4437 -177.533 
8.89793 -57.3687 -177.54 
9.03602 -57.2936 -177.546 
9.17413 -57.2185 -177.553 
9.31223 -57.1435 -177.559 
9.45033 -57.0684 -177.566 
9.58843 -56.9934 -177.572 
9.70487 -57.0228 -177.572 
9.84297 -56.9478 -177.579 
9.98107 -56.8727 -177.585 
10.1192 -56.7977 -177.592 
10.2573 -56.7226 -177.598 
10.3954 -56.6476 -177.605 
10.5335 -56.5725 -177.611 
10.6716 -56.4975 -177.618 
10.8097 -56.4224 -177.624 
10.9478 -56.3474 -177.631 
11.0859 -56.2723 -177.637 
11.224 -56.1973 -177.644 
11.3621 -56.1222 -177.65 
11.5002 -56.0471 -177.657 
11.6383 -55.9721 -177.663 
11.7764 -55.897 -177.67 
11.9361 -55.7175 -177.683 
12.0742 -55.6424 -177.689 
12.2123 -55.5674 -177.696 
12.3721 -55.3879 -177.709 
12.5319 -55.2083 -177.721 
12.67 -55.1333 -177.728 
12.8297 -54.9537 -177.741 
12.9895 -54.7742 -177.754 
13.1493 -54.5946 -177.766 
13.309 -54.4151 -177.779 
13.4471 -54.34 -177.786 
13.6069 -54.1605 -177.799 
13.745 -54.0854 -177.805 
13.9048 -53.9059 -177.818 
14.0429 -53.8308 -177.825 
