ply
format ascii 1.0
comment VCGLIB generated
element vertex 851
property float x
property float y
property float z
element face 0
property list uchar int vertex_indices
end_header
19.0221 -52.6465 -173.367 
19.1302 -52.5942 -173.367 
19.2383 -52.5419 -173.367 
19.3464 -52.4896 -173.367 
19.4545 -52.4373 -173.367 
19.5121 -52.2911 -173.374 
19.6202 -52.2388 -173.374 
19.7283 -52.1865 -173.374 
19.8364 -52.1342 -173.374 
19.9445 -52.0819 -173.375 
20.0527 -52.0296 -173.375 
20.1608 -51.9773 -173.375 
20.2689 -51.925 -173.375 
20.377 -51.8727 -173.375 
20.4851 -51.8204 -173.375 
20.5933 -51.7682 -173.376 
20.7014 -51.7159 -173.376 
20.8095 -51.6636 -173.376 
20.9176 -51.6113 -173.376 
21.0257 -51.559 -173.376 
21.1338 -51.5067 -173.376 
21.242 -51.4544 -173.377 
21.3501 -51.4021 -173.377 
21.4582 -51.3498 -173.377 
21.5663 -51.2975 -173.377 
21.6744 -51.2452 -173.377 
21.7825 -51.1929 -173.377 
21.8907 -51.1406 -173.378 
21.9988 -51.0883 -173.378 
22.1069 -51.036 -173.378 
22.215 -50.9838 -173.378 
22.3231 -50.9315 -173.378 
22.4312 -50.8792 -173.378 
22.5394 -50.8269 -173.379 
22.6475 -50.7746 -173.379 
22.8062 -50.8163 -173.373 
22.9143 -50.764 -173.373 
23.0224 -50.7117 -173.373 
23.1811 -50.7534 -173.367 
23.2892 -50.7011 -173.367 
23.3973 -50.6488 -173.367 
23.556 -50.6904 -173.361 
23.7147 -50.7321 -173.355 
23.8228 -50.6798 -173.355 
23.9815 -50.7215 -173.349 
24.0896 -50.6692 -173.349 
24.2483 -50.7109 -173.343 
24.3564 -50.6586 -173.343 
24.4645 -50.6063 -173.343 
24.6232 -50.648 -173.337 
24.7313 -50.5957 -173.337 
24.8395 -50.5434 -173.337 
24.9476 -50.4911 -173.337 
25.0557 -50.4388 -173.338 
25.1638 -50.3865 -173.338 
25.2719 -50.3342 -173.338 
25.38 -50.2819 -173.338 
25.4882 -50.2296 -173.338 
25.5963 -50.1773 -173.338 
25.7044 -50.1251 -173.339 
25.8631 -50.1667 -173.332 
25.9712 -50.1144 -173.333 
26.0793 -50.0621 -173.333 
26.1874 -50.0098 -173.333 
26.2956 -49.9576 -173.333 
26.4037 -49.9053 -173.333 
26.5118 -49.853 -173.333 
26.6705 -49.8946 -173.327 
26.7786 -49.8424 -173.327 
26.8867 -49.7901 -173.328 
26.9948 -49.7378 -173.328 
27.1029 -49.6855 -173.328 
27.2111 -49.6332 -173.328 
27.3192 -49.5809 -173.328 
27.4273 -49.5286 -173.328 
27.5354 -49.4763 -173.329 
27.6435 -49.424 -173.329 
27.7516 -49.3717 -173.329 
27.8598 -49.3194 -173.329 
27.9679 -49.2671 -173.329 
28.076 -49.2148 -173.329 
28.1841 -49.1625 -173.33 
28.2922 -49.1103 -173.33 
28.4004 -49.058 -173.33 
28.5085 -49.0057 -173.33 
28.6166 -48.9534 -173.33 
28.7247 -48.9011 -173.33 
28.8328 -48.8488 -173.331 
28.9409 -48.7965 -173.331 
29.0491 -48.7442 -173.331 
29.2077 -48.7859 -173.325 
29.3159 -48.7336 -173.325 
29.424 -48.6813 -173.325 
29.5321 -48.629 -173.325 
29.6908 -48.6707 -173.319 
29.7989 -48.6184 -173.319 
29.907 -48.5661 -173.319 
30.0151 -48.5138 -173.32 
30.1738 -48.5555 -173.313 
30.2819 -48.5032 -173.314 
30.3901 -48.4509 -173.314 
30.4982 -48.3986 -173.314 
30.6569 -48.4403 -173.308 
30.765 -48.388 -173.308 
30.8731 -48.3357 -173.308 
31.0318 -48.3774 -173.302 
31.1399 -48.3251 -173.302 
31.2986 -48.3667 -173.296 
31.4067 -48.3145 -173.296 
31.5654 -48.3561 -173.29 
31.7241 -48.3978 -173.284 
31.8322 -48.3455 -173.284 
31.9403 -48.2932 -173.284 
32.099 -48.3349 -173.278 
32.2071 -48.2826 -173.278 
32.3658 -48.3243 -173.272 
32.4739 -48.272 -173.272 
32.582 -48.2197 -173.272 
32.7407 -48.2614 -173.266 
32.8488 -48.2091 -173.266 
32.957 -48.1568 -173.266 
33.1156 -48.1985 -173.26 
33.2238 -48.1462 -173.26 
33.3319 -48.0939 -173.261 
33.4906 -48.1356 -173.254 
33.5987 -48.0833 -173.255 
33.7574 -48.1249 -173.248 
33.8655 -48.0726 -173.249 
33.9736 -48.0204 -173.249 
34.1323 -48.062 -173.243 
34.2404 -48.0097 -173.243 
34.3991 -48.0514 -173.237 
34.5072 -47.9991 -173.237 
34.6153 -47.9468 -173.237 
34.774 -47.9885 -173.231 
34.8821 -47.9362 -173.231 
34.9902 -47.8839 -173.231 
35.1489 -47.9256 -173.225 
35.2571 -47.8733 -173.225 
35.3652 -47.821 -173.225 
35.4733 -47.7687 -173.225 
35.5814 -47.7164 -173.226 
35.7401 -47.7581 -173.219 
35.8482 -47.7058 -173.219 
35.9563 -47.6535 -173.22 
36.115 -47.6952 -173.213 
36.2231 -47.6429 -173.214 
36.3818 -47.6846 -173.207 
36.4899 -47.6323 -173.208 
36.5981 -47.58 -173.208 
36.7567 -47.6217 -173.202 
36.8649 -47.5694 -173.202 
36.973 -47.5171 -173.202 
37.0811 -47.4648 -173.202 
37.2398 -47.5065 -173.196 
37.3479 -47.4542 -173.196 
37.456 -47.4019 -173.196 
37.5641 -47.3496 -173.196 
37.6722 -47.2973 -173.197 
37.7804 -47.245 -173.197 
37.8885 -47.1927 -173.197 
37.9966 -47.1404 -173.197 
38.1047 -47.0881 -173.197 
38.2128 -47.0358 -173.197 
38.3715 -47.0775 -173.191 
38.4796 -47.0252 -173.191 
38.5878 -46.9729 -173.192 
38.6959 -46.9206 -173.192 
38.804 -46.8683 -173.192 
38.9121 -46.816 -173.192 
39.0708 -46.8577 -173.186 
39.1789 -46.8054 -173.186 
39.287 -46.7531 -173.186 
39.3951 -46.7008 -173.186 
39.5538 -46.7425 -173.18 
39.6619 -46.6902 -173.18 
39.7701 -46.6379 -173.181 
39.9288 -46.6796 -173.174 
40.0369 -46.6273 -173.175 
40.1956 -46.669 -173.168 
40.3037 -46.6167 -173.169 
40.4118 -46.5644 -173.169 
40.5705 -46.6061 -173.163 
40.6786 -46.5538 -173.163 
40.7867 -46.5015 -173.163 
40.8948 -46.4492 -173.163 
41.0029 -46.3969 -173.163 
41.1111 -46.3446 -173.163 
41.2192 -46.2923 -173.164 
41.3273 -46.24 -173.164 
41.4354 -46.1877 -173.164 
41.5435 -46.1354 -173.164 
41.6517 -46.0831 -173.164 
41.7598 -46.0309 -173.164 
41.8679 -45.9786 -173.165 
41.976 -45.9263 -173.165 
42.0336 -45.78 -173.171 
42.1417 -45.7277 -173.171 
42.2498 -45.6754 -173.172 
42.3579 -45.6231 -173.172 
42.466 -45.5708 -173.172 
42.5741 -45.5185 -173.172 
42.6317 -45.3723 -173.179 
42.7398 -45.32 -173.179 
42.8479 -45.2677 -173.179 
42.9055 -45.1214 -173.185 
43.0136 -45.0691 -173.186 
43.1217 -45.0168 -173.186 
43.2298 -44.9646 -173.186 
43.3379 -44.9123 -173.186 
43.4461 -44.86 -173.186 
43.5036 -44.7137 -173.193 
43.6117 -44.6614 -173.193 
43.7198 -44.6091 -173.193 
43.828 -44.5568 -173.193 
43.9361 -44.5045 -173.193 
44.0442 -44.4522 -173.194 
44.1523 -44.3999 -173.194 
44.2604 -44.3477 -173.194 
44.3685 -44.2954 -173.194 
44.4261 -44.1491 -173.201 
44.5342 -44.0968 -173.201 
44.6423 -44.0445 -173.201 
44.7504 -43.9922 -173.201 
44.8586 -43.9399 -173.201 
44.9667 -43.8876 -173.201 
45.0242 -43.7414 -173.208 
45.1324 -43.6891 -173.208 
45.2405 -43.6368 -173.208 
45.3486 -43.5845 -173.208 
45.4061 -43.4382 -173.215 
45.5142 -43.3859 -173.215 
45.6224 -43.3336 -173.215 
45.6799 -43.1874 -173.222 
45.788 -43.1351 -173.222 
45.8456 -42.9888 -173.229 
45.9537 -42.9365 -173.229 
46.0112 -42.7903 -173.235 
46.1194 -42.738 -173.235 
46.1769 -42.5917 -173.242 
46.2345 -42.4455 -173.248 
46.3426 -42.3932 -173.249 
46.4001 -42.2469 -173.255 
46.4577 -42.1006 -173.262 
46.5152 -41.9544 -173.268 
46.5728 -41.8081 -173.275 
46.6809 -41.7558 -173.275 
46.7384 -41.6096 -173.281 
46.796 -41.4633 -173.288 
46.9041 -41.411 -173.288 
46.9617 -41.2647 -173.294 
47.0698 -41.2124 -173.295 
47.1273 -41.0662 -173.301 
47.2354 -41.0139 -173.301 
47.293 -40.8676 -173.308 
47.4011 -40.8153 -173.308 
47.5092 -40.763 -173.308 
47.5668 -40.6168 -173.315 
47.6749 -40.5645 -173.315 
47.7324 -40.4182 -173.321 
47.8406 -40.3659 -173.321 
47.9487 -40.3136 -173.322 
48.0062 -40.1674 -173.328 
48.1143 -40.1151 -173.328 
48.2225 -40.0628 -173.328 
48.28 -39.9165 -173.335 
48.3881 -39.8642 -173.335 
48.4457 -39.718 -173.342 
48.5538 -39.6657 -173.342 
48.6113 -39.5194 -173.348 
48.6689 -39.3731 -173.355 
48.7264 -39.2269 -173.361 
48.784 -39.0806 -173.368 
48.791 -38.8404 -173.381 
48.8485 -38.6941 -173.387 
48.8555 -38.4539 -173.4 
48.8625 -38.2137 -173.413 
48.92 -38.0674 -173.419 
48.927 -37.8272 -173.432 
48.9846 -37.6809 -173.439 
49.0421 -37.5346 -173.445 
49.0996 -37.3884 -173.452 
49.2078 -37.3361 -173.452 
49.2653 -37.1898 -173.458 
49.3734 -37.1375 -173.459 
49.4815 -37.0852 -173.459 
49.5391 -36.939 -173.465 
49.6472 -36.8867 -173.465 
49.7048 -36.7404 -173.472 
49.8129 -36.6881 -173.472 
49.8704 -36.5419 -173.479 
0.822208 -62.5246 -172.974 
0.941688 -62.5124 -172.974 
1.06117 -62.5002 -172.974 
1.18066 -62.4881 -172.974 
1.30014 -62.4759 -172.974 
1.41962 -62.4638 -172.975 
1.5391 -62.4516 -172.975 
1.65858 -62.4394 -172.975 
1.77807 -62.4273 -172.975 
1.89755 -62.4151 -172.975 
2.01703 -62.403 -172.975 
2.13652 -62.3908 -172.976 
2.256 -62.3786 -172.976 
2.37548 -62.3665 -172.976 
2.49496 -62.3543 -172.976 
2.61444 -62.3422 -172.976 
2.73393 -62.33 -172.976 
2.83803 -62.2122 -172.983 
2.95751 -62.2001 -172.983 
3.06162 -62.0823 -172.99 
3.16572 -61.9646 -172.996 
3.26982 -61.8468 -173.003 
3.3893 -61.8346 -173.003 
3.49341 -61.7169 -173.009 
3.59751 -61.5991 -173.016 
3.71699 -61.587 -173.016 
3.82109 -61.4692 -173.023 
3.94057 -61.457 -173.023 
4.04468 -61.3393 -173.029 
4.16416 -61.3271 -173.029 
4.26827 -61.2094 -173.036 
4.38775 -61.1972 -173.036 
4.50723 -61.185 -173.036 
4.61133 -61.0673 -173.043 
4.73081 -61.0551 -173.043 
4.8503 -61.043 -173.043 
4.96978 -61.0308 -173.043 
5.08926 -61.0186 -173.043 
5.19337 -60.9009 -173.05 
5.31285 -60.8887 -173.05 
5.43233 -60.8765 -173.05 
5.53643 -60.7588 -173.057 
5.65591 -60.7466 -173.057 
5.76002 -60.6289 -173.063 
5.8795 -60.6167 -173.064 
5.9836 -60.499 -173.07 
6.0877 -60.3812 -173.077 
6.20719 -60.369 -173.077 
6.32667 -60.3569 -173.077 
6.43077 -60.2391 -173.083 
6.55026 -60.227 -173.084 
6.65436 -60.1092 -173.09 
6.77384 -60.097 -173.09 
6.89332 -60.0849 -173.09 
6.99743 -59.9671 -173.097 
7.11691 -59.9549 -173.097 
7.23639 -59.9428 -173.097 
7.34049 -59.825 -173.104 
7.45998 -59.8129 -173.104 
7.56408 -59.6951 -173.11 
7.66818 -59.5773 -173.117 
7.78767 -59.5652 -173.117 
7.89177 -59.4474 -173.124 
8.01125 -59.4353 -173.124 
8.13073 -59.4231 -173.124 
8.23484 -59.3053 -173.13 
8.35432 -59.2932 -173.131 
8.4738 -59.281 -173.131 
8.5779 -59.1633 -173.137 
8.69739 -59.1511 -173.137 
8.80149 -59.0333 -173.144 
8.92097 -59.0212 -173.144 
9.04045 -59.009 -173.144 
9.14456 -58.8913 -173.151 
9.24866 -58.7735 -173.157 
9.36814 -58.7613 -173.157 
9.47225 -58.6436 -173.164 
9.57635 -58.5258 -173.17 
9.69583 -58.5137 -173.171 
9.79993 -58.3959 -173.177 
9.90404 -58.2781 -173.184 
10.0081 -58.1604 -173.19 
10.1276 -58.1482 -173.19 
10.2317 -58.0305 -173.197 
10.3358 -57.9127 -173.203 
10.4399 -57.7949 -173.21 
10.5594 -57.7828 -173.21 
10.6635 -57.665 -173.217 
10.7676 -57.5473 -173.223 
10.8871 -57.5351 -173.223 
10.9912 -57.4174 -173.23 
11.1107 -57.4052 -173.23 
11.2148 -57.2874 -173.236 
11.3343 -57.2753 -173.237 
11.4384 -57.1575 -173.243 
11.5579 -57.1453 -173.243 
11.6773 -57.1332 -173.243 
11.7968 -57.121 -173.244 
11.9009 -57.0033 -173.25 
12.0204 -56.9911 -173.25 
12.1399 -56.9789 -173.25 
12.2594 -56.9668 -173.251 
12.3635 -56.849 -173.257 
12.483 -56.8369 -173.257 
12.5871 -56.7191 -173.264 
12.7065 -56.7069 -173.264 
12.8106 -56.5892 -173.27 
12.9301 -56.577 -173.271 
13.0342 -56.4593 -173.277 
13.1383 -56.3415 -173.284 
13.2578 -56.3293 -173.284 
13.3619 -56.2116 -173.29 
13.466 -56.0938 -173.297 
13.5855 -56.0817 -173.297 
13.705 -56.0695 -173.297 
13.8091 -55.9517 -173.304 
13.9286 -55.9396 -173.304 
14.0481 -55.9274 -173.304 
14.1522 -55.8097 -173.31 
14.2716 -55.7975 -173.311 
14.3911 -55.7853 -173.311 
14.4952 -55.6676 -173.317 
14.6147 -55.6554 -173.317 
14.7188 -55.5377 -173.324 
14.8383 -55.5255 -173.324 
14.9424 -55.4077 -173.331 
15.0619 -55.3956 -173.331 
15.166 -55.2778 -173.337 
15.2701 -55.1601 -173.344 
15.3896 -55.1479 -173.344 
15.4937 -55.0301 -173.35 
15.6132 -55.018 -173.351 
15.7173 -54.9002 -173.357 
15.8214 -54.7825 -173.364 
15.9408 -54.7703 -173.364 
16.0449 -54.6525 -173.37 
16.149 -54.5348 -173.377 
16.2685 -54.5226 -173.377 
16.3726 -54.4049 -173.383 
16.4767 -54.2871 -173.39 
16.5808 -54.1693 -173.396 
16.7003 -54.1572 -173.397 
16.8044 -54.0394 -173.403 
16.9085 -53.9217 -173.41 
17.0126 -53.8039 -173.416 
17.1167 -53.6861 -173.423 
17.2362 -53.674 -173.423 
17.3403 -53.5562 -173.429 
17.4444 -53.4385 -173.436 
17.5485 -53.3207 -173.442 
17.668 -53.3085 -173.443 
17.7721 -53.1908 -173.449 
17.8762 -53.073 -173.456 
17.9957 -53.0609 -173.456 
18.1152 -53.0487 -173.456 
18.2193 -52.9309 -173.462 
18.3388 -52.9188 -173.463 
18.4429 -52.801 -173.469 
18.5623 -52.7889 -173.469 
18.6665 -52.6711 -173.476 
18.7706 -52.5534 -173.482 
18.89 -52.5412 -173.482 
18.9941 -52.4234 -173.489 
19.0982 -52.3057 -173.495 
19.2023 -52.1879 -173.502 
19.3064 -52.0702 -173.508 
19.4259 -52.058 -173.509 
19.53 -51.9402 -173.515 
19.6341 -51.8225 -173.522 
19.7536 -51.8103 -173.522 
19.8731 -51.7981 -173.522 
19.9772 -51.6804 -173.528 
20.0967 -51.6682 -173.529 
20.2162 -51.6561 -173.529 
20.3203 -51.5383 -173.535 
20.4398 -51.5261 -173.535 
20.5592 -51.514 -173.536 
20.6633 -51.3962 -173.542 
20.7828 -51.3841 -173.542 
20.9023 -51.3719 -173.542 
21.0064 -51.2542 -173.549 
21.1259 -51.242 -173.549 
21.23 -51.1242 -173.556 
21.3495 -51.1121 -173.556 
21.469 -51.0999 -173.556 
21.5731 -50.9821 -173.562 
21.6925 -50.97 -173.563 
21.812 -50.9578 -173.563 
21.9315 -50.9457 -173.563 
22.0356 -50.8279 -173.569 
22.1551 -50.8157 -173.57 
22.2746 -50.8036 -173.57 
22.3941 -50.7914 -173.57 
22.5135 -50.7793 -173.57 
22.633 -50.7671 -173.57 
22.7525 -50.7549 -173.57 
22.872 -50.7428 -173.571 
22.9915 -50.7306 -173.571 
23.111 -50.7185 -173.571 
23.2304 -50.7063 -173.571 
23.3499 -50.6941 -173.571 
23.4694 -50.682 -173.571 
23.5889 -50.6698 -173.572 
23.7084 -50.6576 -173.572 
23.8278 -50.6455 -173.572 
23.9473 -50.6333 -173.572 
24.0668 -50.6212 -173.572 
24.1863 -50.609 -173.572 
24.3058 -50.5968 -173.573 
24.4253 -50.5847 -173.573 
24.5447 -50.5725 -173.573 
24.6642 -50.5604 -173.573 
24.7683 -50.4426 -173.58 
24.8878 -50.4304 -173.58 
25.0073 -50.4183 -173.58 
25.1268 -50.4061 -173.58 
25.2463 -50.394 -173.58 
25.3657 -50.3818 -173.58 
25.4852 -50.3696 -173.581 
25.6047 -50.3575 -173.581 
25.7088 -50.2397 -173.587 
25.8283 -50.2276 -173.587 
25.9478 -50.2154 -173.588 
26.0673 -50.2032 -173.588 
26.1867 -50.1911 -173.588 
26.3062 -50.1789 -173.588 
26.4257 -50.1668 -173.588 
26.5298 -50.049 -173.595 
26.6493 -50.0368 -173.595 
26.7688 -50.0247 -173.595 
26.8882 -50.0125 -173.595 
27.0077 -50.0004 -173.595 
27.1272 -49.9882 -173.596 
27.2467 -49.976 -173.596 
27.3662 -49.9639 -173.596 
27.4857 -49.9517 -173.596 
27.6051 -49.9395 -173.596 
27.7246 -49.9274 -173.596 
27.8441 -49.9152 -173.597 
27.9636 -49.9031 -173.597 
28.0831 -49.8909 -173.597 
28.2026 -49.8787 -173.597 
28.3067 -49.761 -173.604 
28.4261 -49.7488 -173.604 
28.5302 -49.6311 -173.61 
28.6497 -49.6189 -173.61 
28.7538 -49.5011 -173.617 
28.8733 -49.489 -173.617 
28.9928 -49.4768 -173.617 
29.0969 -49.3591 -173.624 
29.2164 -49.3469 -173.624 
29.3205 -49.2291 -173.631 
29.44 -49.217 -173.631 
29.5594 -49.2048 -173.631 
29.6636 -49.0871 -173.637 
29.783 -49.0749 -173.638 
29.9025 -49.0627 -173.638 
30.0066 -48.945 -173.644 
30.1261 -48.9328 -173.644 
30.2456 -48.9207 -173.645 
30.3497 -48.8029 -173.651 
30.4692 -48.7907 -173.651 
30.5887 -48.7786 -173.651 
30.7081 -48.7664 -173.652 
30.8276 -48.7543 -173.652 
30.9471 -48.7421 -173.652 
31.0666 -48.7299 -173.652 
31.1861 -48.7178 -173.652 
31.3209 -48.8112 -173.646 
31.4404 -48.7991 -173.646 
31.5599 -48.7869 -173.646 
31.6794 -48.7747 -173.647 
31.7989 -48.7626 -173.647 
31.9183 -48.7504 -173.647 
32.0378 -48.7382 -173.647 
32.1573 -48.7261 -173.647 
32.2768 -48.7139 -173.647 
32.3963 -48.7018 -173.648 
32.5157 -48.6896 -173.648 
32.6352 -48.6774 -173.648 
32.7547 -48.6653 -173.648 
32.8742 -48.6531 -173.648 
32.9937 -48.641 -173.648 
33.1132 -48.6288 -173.649 
33.2326 -48.6166 -173.649 
33.3521 -48.6045 -173.649 
33.4716 -48.5923 -173.649 
33.5911 -48.5802 -173.649 
33.7106 -48.568 -173.649 
33.8301 -48.5558 -173.65 
33.9495 -48.5437 -173.65 
-17.0049 -44.0018 -173.894 
-16.8885 -44.0312 -173.894 
-16.7937 -44.1652 -173.888 
-16.6773 -44.1946 -173.888 
-16.5825 -44.3285 -173.882 
-16.4877 -44.4625 -173.875 
-16.4146 -44.7009 -173.863 
-16.3198 -44.8348 -173.857 
-16.2251 -44.9687 -173.851 
-16.152 -45.2071 -173.838 
-16.0572 -45.3411 -173.832 
-15.9624 -45.475 -173.826 
-15.8676 -45.6089 -173.82 
-15.7945 -45.8474 -173.807 
-15.6998 -45.9813 -173.801 
-15.605 -46.1152 -173.795 
-15.5102 -46.2491 -173.788 
-15.4155 -46.3831 -173.782 
-15.3207 -46.517 -173.776 
-15.2259 -46.6509 -173.77 
-15.1311 -46.7849 -173.764 
-15.0364 -46.9188 -173.758 
-14.9416 -47.0527 -173.751 
-14.8468 -47.1866 -173.745 
-14.752 -47.3206 -173.739 
-14.6573 -47.4545 -173.733 
-14.5625 -47.5884 -173.727 
-14.4677 -47.7223 -173.721 
-14.373 -47.8563 -173.714 
-14.2782 -47.9902 -173.708 
-14.1834 -48.1241 -173.702 
-14.0887 -48.2581 -173.696 
-13.9939 -48.392 -173.69 
-13.8991 -48.5259 -173.684 
-13.826 -48.7643 -173.671 
-13.7312 -48.8983 -173.665 
-13.6365 -49.0322 -173.659 
-13.5417 -49.1661 -173.653 
-13.4469 -49.3 -173.646 
-13.3521 -49.434 -173.64 
-13.2574 -49.5679 -173.634 
-13.1409 -49.5973 -173.634 
-13.0462 -49.7313 -173.628 
-12.9297 -49.7607 -173.628 
-12.835 -49.8946 -173.622 
-12.7185 -49.9241 -173.622 
-12.6238 -50.058 -173.616 
-12.529 -50.1919 -173.61 
-12.4342 -50.3259 -173.604 
-12.3611 -50.5643 -173.591 
-12.2663 -50.6982 -173.585 
-12.1932 -50.9366 -173.572 
-12.0985 -51.0705 -173.566 
-12.0253 -51.309 -173.554 
-11.9522 -51.5474 -173.541 
-11.8575 -51.6813 -173.535 
-11.7627 -51.8152 -173.529 
-11.6679 -51.9492 -173.523 
-11.5732 -52.0831 -173.517 
-11.4784 -52.217 -173.51 
-11.3836 -52.351 -173.504 
-11.2888 -52.4849 -173.498 
-11.1724 -52.5143 -173.498 
-11.0776 -52.6482 -173.492 
-10.9612 -52.6777 -173.492 
-10.8664 -52.8116 -173.486 
-10.75 -52.841 -173.486 
-10.6552 -52.975 -173.48 
-10.5604 -53.1089 -173.474 
-10.444 -53.1383 -173.474 
-10.3492 -53.2723 -173.468 
-10.2545 -53.4062 -173.462 
-10.1597 -53.5401 -173.456 
-10.0649 -53.6741 -173.449 
-9.99182 -53.9125 -173.437 
-9.89705 -54.0464 -173.431 
-9.80228 -54.1803 -173.425 
-9.70751 -54.3143 -173.418 
-9.61274 -54.4482 -173.412 
-9.51796 -54.5821 -173.406 
-9.40153 -54.6115 -173.406 
-9.30676 -54.7455 -173.4 
-9.19032 -54.7749 -173.4 
-9.07389 -54.8044 -173.4 
-8.95745 -54.8338 -173.4 
-8.84101 -54.8632 -173.401 
-8.72458 -54.8927 -173.401 
-8.62981 -55.0266 -173.395 
-8.53503 -55.1605 -173.388 
-8.46193 -55.3989 -173.376 
-8.36716 -55.5329 -173.37 
-8.29405 -55.7713 -173.357 
-8.22094 -56.0097 -173.345 
-8.14784 -56.2481 -173.332 
-8.07473 -56.4865 -173.32 
-7.97996 -56.6205 -173.314 
-7.88519 -56.7544 -173.307 
-7.79042 -56.8883 -173.301 
-7.67398 -56.9178 -173.301 
-7.55754 -56.9472 -173.302 
-7.44111 -56.9766 -173.302 
-7.32467 -57.0061 -173.302 
-7.2299 -57.14 -173.296 
-7.11347 -57.1694 -173.296 
-7.01869 -57.3034 -173.29 
-6.90226 -57.3328 -173.29 
-6.80749 -57.4667 -173.284 
-6.71271 -57.6007 -173.278 
-6.63961 -57.8391 -173.265 
-6.54484 -57.973 -173.259 
-6.45007 -58.1069 -173.253 
-6.35529 -58.2409 -173.247 
-6.26052 -58.3748 -173.24 
-6.16575 -58.5087 -173.234 
-6.07098 -58.6427 -173.228 
-5.97621 -58.7766 -173.222 
-5.88144 -58.9105 -173.216 
-5.765 -58.9399 -173.216 
-5.67023 -59.0739 -173.21 
-5.57546 -59.2078 -173.203 
-5.48069 -59.3417 -173.197 
-5.36425 -59.3712 -173.197 
-5.26948 -59.5051 -173.191 
-5.17471 -59.639 -173.185 
-5.05827 -59.6685 -173.185 
-4.9635 -59.8024 -173.179 
-4.86873 -59.9363 -173.173 
-4.7523 -59.9658 -173.173 
-4.63586 -59.9952 -173.173 
-4.54109 -60.1291 -173.167 
-4.42465 -60.1586 -173.167 
-4.30821 -60.188 -173.167 
-4.21344 -60.3219 -173.161 
-4.09701 -60.3514 -173.161 
-3.98057 -60.3808 -173.162 
-3.8858 -60.5147 -173.155 
-3.79103 -60.6487 -173.149 
-3.69626 -60.7826 -173.143 
-3.57982 -60.812 -173.143 
-3.48505 -60.9459 -173.137 
-3.39028 -61.0799 -173.131 
-3.29551 -61.2138 -173.125 
-3.20074 -61.3477 -173.119 
-3.0843 -61.3772 -173.119 
-2.96786 -61.4066 -173.119 
-2.85143 -61.4361 -173.119 
-2.73499 -61.4655 -173.119 
-2.61856 -61.4949 -173.119 
-2.50212 -61.5244 -173.12 
-2.38568 -61.5538 -173.12 
-2.26925 -61.5832 -173.12 
-2.15281 -61.6127 -173.12 
-2.03638 -61.6421 -173.12 
-1.9416 -61.776 -173.114 
-1.82517 -61.8055 -173.114 
-1.7304 -61.9394 -173.108 
-1.61396 -61.9688 -173.108 
-1.51919 -62.1028 -173.102 
-1.42442 -62.2367 -173.096 
-1.30798 -62.2661 -173.096 
-1.19155 -62.2956 -173.096 
-1.07511 -62.325 -173.096 
-0.980339 -62.4589 -173.09 
-0.863901 -62.4884 -173.09 
-0.7258 -62.4133 -173.097 
-0.609366 -62.4428 -173.097 
-0.49293 -62.4722 -173.097 
-0.376492 -62.5016 -173.097 
-0.260055 -62.5311 -173.098 
-0.143621 -62.5605 -173.098 
-0.0271836 -62.59 -173.098 
0.0892494 -62.6194 -173.098 
0.227351 -62.5443 -173.105 
0.343789 -62.5738 -173.105 
0.460223 -62.6032 -173.105 
0.576659 -62.6327 -173.105 
0.693097 -62.6621 -173.105 
0.809535 -62.6915 -173.105 
0.947631 -62.6165 -173.112 
1.06407 -62.6459 -173.112 
1.18051 -62.6754 -173.112 
1.29694 -62.7048 -173.112 
1.43505 -62.6297 -173.119 
1.55148 -62.6592 -173.119 
1.66792 -62.6886 -173.119 
1.80601 -62.6136 -173.126 
1.92245 -62.643 -173.126 
2.06055 -62.5679 -173.132 
2.19865 -62.4929 -173.139 
2.31509 -62.5223 -173.139 
2.45319 -62.4473 -173.146 
2.59129 -62.3722 -173.152 
2.72939 -62.2972 -173.159 
2.8675 -62.2221 -173.165 
3.00559 -62.1471 -173.172 
3.1437 -62.072 -173.178 
3.30346 -61.8925 -173.191 
3.44156 -61.8174 -173.197 
3.57966 -61.7424 -173.204 
3.71776 -61.6673 -173.21 
3.85586 -61.5923 -173.217 
3.99396 -61.5172 -173.223 
4.13207 -61.4422 -173.23 
4.27016 -61.3671 -173.237 
4.3866 -61.3965 -173.237 
4.5247 -61.3215 -173.243 
4.6628 -61.2464 -173.25 
4.8009 -61.1714 -173.256 
4.939 -61.0963 -173.263 
5.0771 -61.0213 -173.269 
5.21521 -60.9462 -173.276 
5.35331 -60.8712 -173.282 
5.49141 -60.7961 -173.289 
5.62951 -60.7211 -173.295 
5.76761 -60.646 -173.302 
5.90571 -60.571 -173.308 
6.04381 -60.4959 -173.315 
6.18191 -60.4209 -173.321 
6.32001 -60.3458 -173.328 
6.45812 -60.2708 -173.334 
6.59622 -60.1957 -173.341 
6.73432 -60.1207 -173.347 
6.87241 -60.0456 -173.354 
7.01052 -59.9706 -173.36 
7.14862 -59.8955 -173.367 
7.28672 -59.8204 -173.373 
7.42482 -59.7454 -173.38 
7.56292 -59.6703 -173.386 
7.70102 -59.5953 -173.393 
7.83912 -59.5202 -173.399 
7.95556 -59.5497 -173.399 
8.09366 -59.4746 -173.406 
8.23176 -59.3996 -173.412 
8.34819 -59.429 -173.413 
8.48629 -59.354 -173.419 
8.60273 -59.3834 -173.419 
8.74083 -59.3083 -173.426 
8.87894 -59.2333 -173.432 
9.01704 -59.1582 -173.439 
9.15514 -59.0832 -173.445 
9.29324 -59.0081 -173.452 
9.453 -58.8286 -173.465 
9.61277 -58.6491 -173.478 
9.77253 -58.4695 -173.49 
9.91063 -58.3945 -173.497 
10.0704 -58.2149 -173.51 
10.2302 -58.0354 -173.523 
10.3683 -57.9603 -173.529 
10.5064 -57.8853 -173.536 
10.6445 -57.8102 -173.542 
10.7826 -57.7352 -173.549 
10.899 -57.7646 -173.549 
11.0371 -57.6896 -173.555 
11.1752 -57.6145 -173.562 
11.2916 -57.6439 -173.562 
11.4297 -57.5689 -173.568 
11.5678 -57.4938 -173.575 
11.7059 -57.4188 -173.581 
11.844 -57.3437 -173.588 
11.9821 -57.2687 -173.594 
12.1419 -57.0891 -173.607 
12.28 -57.0141 -173.614 
12.4181 -56.939 -173.62 
12.5779 -56.7595 -173.633 
12.716 -56.6844 -173.64 
12.8541 -56.6094 -173.646 
13.0139 -56.4298 -173.659 
13.1519 -56.3548 -173.666 
13.29 -56.2797 -173.672 
