ply
format ascii 1.0
comment VCGLIB generated
element vertex 870
property float x
property float y
property float z
element face 0
property list uchar int vertex_indices
end_header
19.1738 -52.9284 -167.348 
19.2819 -52.8761 -167.348 
19.39 -52.8238 -167.348 
19.4981 -52.7715 -167.348 
19.6062 -52.7193 -167.348 
19.7144 -52.667 -167.349 
19.8225 -52.6147 -167.349 
19.9306 -52.5624 -167.349 
20.0387 -52.5101 -167.349 
20.1468 -52.4578 -167.349 
20.2549 -52.4055 -167.349 
20.3125 -52.2592 -167.356 
20.4206 -52.2069 -167.356 
20.5287 -52.1546 -167.356 
20.6368 -52.1024 -167.356 
20.745 -52.0501 -167.357 
20.8531 -51.9978 -167.357 
20.9612 -51.9455 -167.357 
21.0693 -51.8932 -167.357 
21.1774 -51.8409 -167.357 
21.2855 -51.7886 -167.357 
21.3937 -51.7363 -167.358 
21.4512 -51.59 -167.364 
21.5593 -51.5377 -167.364 
21.6169 -51.3915 -167.371 
21.725 -51.3392 -167.371 
21.7825 -51.1929 -167.377 
21.8401 -51.0467 -167.384 
21.8976 -50.9004 -167.39 
21.9552 -50.7541 -167.397 
22.0633 -50.7019 -167.397 
22.1209 -50.5556 -167.404 
22.229 -50.5033 -167.404 
22.2865 -50.357 -167.41 
22.3946 -50.3047 -167.411 
22.5028 -50.2524 -167.411 
22.6109 -50.2001 -167.411 
22.719 -50.1479 -167.411 
22.8271 -50.0956 -167.411 
22.9352 -50.0433 -167.411 
23.0433 -49.991 -167.411 
23.1515 -49.9387 -167.412 
23.2596 -49.8864 -167.412 
23.3677 -49.8341 -167.412 
23.4252 -49.6878 -167.419 
23.5334 -49.6355 -167.419 
23.6415 -49.5833 -167.419 
23.7496 -49.531 -167.419 
23.8577 -49.4787 -167.419 
23.9658 -49.4264 -167.419 
24.0739 -49.3741 -167.42 
24.1315 -49.2278 -167.426 
24.2396 -49.1755 -167.426 
24.3477 -49.1232 -167.426 
24.4559 -49.0709 -167.427 
24.564 -49.0186 -167.427 
24.6721 -48.9664 -167.427 
24.7802 -48.9141 -167.427 
24.8883 -48.8618 -167.427 
24.9964 -48.8095 -167.427 
25.1046 -48.7572 -167.428 
25.2127 -48.7049 -167.428 
25.3208 -48.6526 -167.428 
25.4289 -48.6003 -167.428 
25.537 -48.548 -167.428 
25.6451 -48.4957 -167.428 
25.8038 -48.5374 -167.422 
25.9119 -48.4851 -167.422 
26.0201 -48.4328 -167.423 
26.1282 -48.3805 -167.423 
26.2869 -48.4222 -167.417 
26.395 -48.3699 -167.417 
26.5031 -48.3176 -167.417 
26.6112 -48.2653 -167.417 
26.7699 -48.307 -167.411 
26.878 -48.2547 -167.411 
26.9861 -48.2024 -167.411 
27.0943 -48.1501 -167.411 
27.2529 -48.1918 -167.405 
27.3611 -48.1395 -167.405 
27.4692 -48.0872 -167.406 
27.6279 -48.1289 -167.399 
27.736 -48.0766 -167.399 
27.8947 -48.1183 -167.393 
28.0534 -48.1599 -167.387 
28.1615 -48.1076 -167.387 
28.3202 -48.1493 -167.381 
28.4283 -48.097 -167.381 
28.5364 -48.0447 -167.381 
28.6951 -48.0864 -167.375 
28.8032 -48.0341 -167.375 
28.9113 -47.9818 -167.376 
29.0194 -47.9295 -167.376 
29.1781 -47.9712 -167.37 
29.2862 -47.9189 -167.37 
29.3944 -47.8666 -167.37 
29.5025 -47.8143 -167.37 
29.6106 -47.762 -167.37 
29.7187 -47.7097 -167.37 
29.8774 -47.7514 -167.364 
29.9855 -47.6991 -167.364 
30.0936 -47.6468 -167.365 
30.2523 -47.6885 -167.358 
30.3604 -47.6362 -167.359 
30.5191 -47.6779 -167.352 
30.6272 -47.6256 -167.353 
30.7859 -47.6673 -167.346 
30.894 -47.615 -167.347 
31.0527 -47.6567 -167.34 
31.2114 -47.6983 -167.334 
31.3195 -47.646 -167.334 
31.4782 -47.6877 -167.328 
31.6369 -47.7294 -167.322 
31.745 -47.6771 -167.322 
31.8531 -47.6248 -167.322 
32.0118 -47.6665 -167.316 
32.1199 -47.6142 -167.316 
32.2281 -47.5619 -167.317 
32.3867 -47.6036 -167.31 
32.4949 -47.5513 -167.311 
32.603 -47.499 -167.311 
32.7617 -47.5407 -167.305 
32.8698 -47.4884 -167.305 
32.9779 -47.4361 -167.305 
33.1366 -47.4778 -167.299 
33.2447 -47.4255 -167.299 
33.4034 -47.4671 -167.293 
33.5115 -47.4149 -167.293 
33.6196 -47.3626 -167.293 
33.7783 -47.4042 -167.287 
33.8864 -47.3519 -167.287 
34.0451 -47.3936 -167.281 
34.1532 -47.3413 -167.281 
34.3119 -47.383 -167.275 
34.42 -47.3307 -167.275 
34.5787 -47.3724 -167.269 
34.7374 -47.4141 -167.263 
34.8455 -47.3618 -167.263 
35.0042 -47.4035 -167.257 
35.1123 -47.3512 -167.257 
35.2204 -47.2989 -167.257 
35.3791 -47.3405 -167.251 
35.4872 -47.2883 -167.251 
35.5954 -47.236 -167.251 
35.7035 -47.1837 -167.251 
35.8116 -47.1314 -167.252 
35.9197 -47.0791 -167.252 
36.0278 -47.0268 -167.252 
36.136 -46.9745 -167.252 
36.2441 -46.9222 -167.252 
36.3522 -46.8699 -167.252 
36.4603 -46.8176 -167.253 
36.5684 -46.7653 -167.253 
36.7271 -46.807 -167.247 
36.8352 -46.7547 -167.247 
36.9939 -46.7964 -167.241 
37.1526 -46.8381 -167.234 
37.2607 -46.7858 -167.235 
37.4194 -46.8274 -167.228 
37.5275 -46.7752 -167.229 
37.6356 -46.7229 -167.229 
37.7438 -46.6706 -167.229 
37.8519 -46.6183 -167.229 
37.96 -46.566 -167.229 
38.0681 -46.5137 -167.229 
38.1762 -46.4614 -167.23 
38.2843 -46.4091 -167.23 
38.3925 -46.3568 -167.23 
38.5006 -46.3045 -167.23 
38.6087 -46.2522 -167.23 
38.7674 -46.2939 -167.224 
38.8755 -46.2416 -167.224 
38.9836 -46.1893 -167.224 
39.1423 -46.231 -167.218 
39.2504 -46.1787 -167.218 
39.3585 -46.1264 -167.218 
39.4667 -46.0741 -167.219 
39.5748 -46.0218 -167.219 
39.6829 -45.9695 -167.219 
39.791 -45.9172 -167.219 
39.8991 -45.8649 -167.219 
40.0072 -45.8126 -167.219 
40.1154 -45.7604 -167.22 
40.2235 -45.7081 -167.22 
40.3316 -45.6558 -167.22 
40.4397 -45.6035 -167.22 
40.5478 -45.5512 -167.22 
40.6559 -45.4989 -167.22 
40.7641 -45.4466 -167.221 
40.8722 -45.3943 -167.221 
40.9803 -45.342 -167.221 
41.0884 -45.2897 -167.221 
41.1965 -45.2374 -167.221 
41.3046 -45.1851 -167.221 
41.3622 -45.0389 -167.228 
41.4703 -44.9866 -167.228 
41.5784 -44.9343 -167.228 
41.6866 -44.882 -167.229 
41.7441 -44.7357 -167.235 
41.8522 -44.6834 -167.235 
41.9603 -44.6311 -167.235 
42.0685 -44.5788 -167.236 
42.126 -44.4326 -167.242 
42.2341 -44.3803 -167.242 
42.3422 -44.328 -167.242 
42.4504 -44.2757 -167.243 
42.5585 -44.2234 -167.243 
42.6666 -44.1711 -167.243 
42.7747 -44.1188 -167.243 
42.8828 -44.0665 -167.243 
42.9909 -44.0142 -167.243 
43.0991 -43.9619 -167.244 
43.1566 -43.8157 -167.25 
43.2647 -43.7634 -167.25 
43.3728 -43.7111 -167.25 
43.481 -43.6588 -167.251 
43.5891 -43.6065 -167.251 
43.6972 -43.5542 -167.251 
43.8053 -43.5019 -167.251 
43.9134 -43.4496 -167.251 
43.971 -43.3034 -167.258 
44.0791 -43.2511 -167.258 
44.1872 -43.1988 -167.258 
44.2953 -43.1465 -167.258 
44.4034 -43.0942 -167.258 
44.5116 -43.0419 -167.259 
44.5691 -42.8956 -167.265 
44.6772 -42.8433 -167.265 
44.7853 -42.7911 -167.265 
44.8429 -42.6448 -167.272 
44.951 -42.5925 -167.272 
45.0086 -42.4462 -167.279 
45.0661 -42.3 -167.285 
45.1742 -42.2477 -167.285 
45.2318 -42.1014 -167.292 
45.2893 -41.9552 -167.298 
45.3469 -41.8089 -167.305 
45.4044 -41.6626 -167.311 
45.5125 -41.6103 -167.311 
45.5701 -41.4641 -167.318 
45.6276 -41.3178 -167.324 
45.7358 -41.2655 -167.325 
45.8439 -41.2132 -167.325 
45.9014 -41.067 -167.331 
46.0095 -41.0147 -167.331 
46.1177 -40.9624 -167.332 
46.1752 -40.8161 -167.338 
46.2833 -40.7638 -167.338 
46.3914 -40.7115 -167.338 
46.449 -40.5653 -167.345 
46.5571 -40.513 -167.345 
46.6652 -40.4607 -167.345 
46.7228 -40.3144 -167.352 
46.8309 -40.2621 -167.352 
46.8884 -40.1159 -167.358 
46.946 -39.9696 -167.365 
47.0035 -39.8233 -167.371 
47.0611 -39.6771 -167.378 
47.1186 -39.5308 -167.384 
47.1762 -39.3845 -167.391 
47.1832 -39.1443 -167.404 
47.2407 -38.998 -167.41 
47.2983 -38.8518 -167.417 
47.3558 -38.7055 -167.423 
47.4134 -38.5593 -167.43 
47.4709 -38.413 -167.436 
47.579 -38.3607 -167.437 
47.6366 -38.2144 -167.443 
47.6941 -38.0682 -167.45 
47.8022 -38.0159 -167.45 
47.8598 -37.8696 -167.456 
47.9679 -37.8173 -167.456 
48.076 -37.765 -167.457 
48.1336 -37.6188 -167.463 
48.2417 -37.5665 -167.463 
48.2992 -37.4202 -167.47 
48.4073 -37.3679 -167.47 
48.4649 -37.2217 -167.476 
48.573 -37.1694 -167.477 
48.6306 -37.0231 -167.483 
48.6881 -36.8768 -167.49 
48.7457 -36.7306 -167.496 
48.8032 -36.5843 -167.503 
48.8608 -36.4381 -167.509 
48.9183 -36.2918 -167.516 
48.9759 -36.1455 -167.522 
49.0334 -35.9993 -167.529 
49.091 -35.853 -167.535 
49.1991 -35.8007 -167.535 
49.2566 -35.6544 -167.542 
49.3647 -35.6022 -167.542 
0.760689 -62.1022 -166.999 
0.880174 -62.09 -166.999 
0.999654 -62.0779 -166.999 
1.11914 -62.0657 -167 
1.23862 -62.0535 -167 
1.3581 -62.0414 -167 
1.47759 -62.0292 -167 
1.59707 -62.017 -167 
1.71655 -62.0049 -167 
1.83603 -61.9927 -167.001 
1.95551 -61.9806 -167.001 
2.075 -61.9684 -167.001 
2.19448 -61.9562 -167.001 
2.31396 -61.9441 -167.001 
2.43344 -61.9319 -167.001 
2.55293 -61.9198 -167.002 
2.67241 -61.9076 -167.002 
2.79189 -61.8954 -167.002 
2.92675 -61.9889 -166.996 
3.04624 -61.9767 -166.996 
3.16572 -61.9646 -166.996 
3.2852 -61.9524 -166.996 
3.40468 -61.9402 -166.996 
3.52416 -61.9281 -166.997 
3.64364 -61.9159 -166.997 
3.76313 -61.9038 -166.997 
3.86723 -61.786 -167.003 
3.98671 -61.7738 -167.004 
4.09082 -61.6561 -167.01 
4.2103 -61.6439 -167.01 
4.3144 -61.5262 -167.017 
4.43389 -61.514 -167.017 
4.55337 -61.5018 -167.017 
4.65747 -61.3841 -167.024 
4.77695 -61.3719 -167.024 
4.89644 -61.3597 -167.024 
5.01592 -61.3476 -167.024 
5.12002 -61.2298 -167.031 
5.2395 -61.2177 -167.031 
5.35899 -61.2055 -167.031 
5.47847 -61.1933 -167.031 
5.59795 -61.1812 -167.031 
5.71743 -61.169 -167.032 
5.82153 -61.0513 -167.038 
5.94102 -61.0391 -167.038 
6.0605 -61.0269 -167.038 
6.17998 -61.0148 -167.039 
6.29946 -61.0026 -167.039 
6.41895 -60.9905 -167.039 
6.53843 -60.9783 -167.039 
6.65791 -60.9661 -167.039 
6.76202 -60.8484 -167.046 
6.8815 -60.8362 -167.046 
7.00098 -60.8241 -167.046 
7.10508 -60.7063 -167.053 
7.22457 -60.6941 -167.053 
7.34405 -60.682 -167.053 
7.44815 -60.5642 -167.059 
7.55225 -60.4465 -167.066 
7.67174 -60.4343 -167.066 
7.77584 -60.3165 -167.073 
7.87994 -60.1988 -167.079 
7.99942 -60.1866 -167.079 
8.10353 -60.0689 -167.086 
8.20763 -59.9511 -167.092 
8.31173 -59.8333 -167.099 
8.43122 -59.8212 -167.099 
8.53532 -59.7034 -167.105 
8.63942 -59.5857 -167.112 
8.74352 -59.4679 -167.118 
8.86301 -59.4557 -167.119 
8.96711 -59.338 -167.125 
9.07121 -59.2202 -167.132 
9.1907 -59.2081 -167.132 
9.2948 -59.0903 -167.138 
9.41428 -59.0781 -167.138 
9.51838 -58.9604 -167.145 
9.63787 -58.9482 -167.145 
9.74197 -58.8305 -167.152 
9.86145 -58.8183 -167.152 
9.98093 -58.8061 -167.152 
10.1004 -58.794 -167.152 
10.2045 -58.6762 -167.159 
10.324 -58.6641 -167.159 
10.4435 -58.6519 -167.159 
10.563 -58.6397 -167.159 
10.6671 -58.522 -167.166 
10.7865 -58.5098 -167.166 
10.906 -58.4977 -167.166 
11.0101 -58.3799 -167.172 
11.1142 -58.2621 -167.179 
11.2337 -58.25 -167.179 
11.3378 -58.1322 -167.186 
11.4419 -58.0145 -167.192 
11.5614 -58.0023 -167.192 
11.6655 -57.8845 -167.199 
11.7696 -57.7668 -167.205 
11.8891 -57.7546 -167.205 
11.9932 -57.6369 -167.212 
12.0973 -57.5191 -167.219 
12.2168 -57.5069 -167.219 
12.3209 -57.3892 -167.225 
12.4404 -57.377 -167.225 
12.5445 -57.2593 -167.232 
12.6486 -57.1415 -167.238 
12.7681 -57.1293 -167.239 
12.8722 -57.0116 -167.245 
12.9916 -56.9994 -167.245 
13.0957 -56.8817 -167.252 
13.2152 -56.8695 -167.252 
13.3193 -56.7517 -167.258 
13.4388 -56.7396 -167.259 
13.5583 -56.7274 -167.259 
13.6624 -56.6097 -167.265 
13.7819 -56.5975 -167.265 
13.9014 -56.5853 -167.266 
14.0055 -56.4676 -167.272 
14.125 -56.4554 -167.272 
14.2291 -56.3377 -167.279 
14.3485 -56.3255 -167.279 
14.4526 -56.2077 -167.285 
14.5721 -56.1956 -167.286 
14.6762 -56.0778 -167.292 
14.7803 -55.9601 -167.299 
14.8998 -55.9479 -167.299 
15.0039 -55.8301 -167.305 
15.108 -55.7124 -167.312 
15.2121 -55.5946 -167.318 
15.3162 -55.4769 -167.325 
15.4203 -55.3591 -167.331 
15.5244 -55.2413 -167.338 
15.6439 -55.2292 -167.338 
15.748 -55.1114 -167.344 
15.8521 -54.9937 -167.351 
15.9716 -54.9815 -167.351 
16.0757 -54.8637 -167.358 
16.1952 -54.8516 -167.358 
16.2993 -54.7338 -167.364 
16.4188 -54.7217 -167.364 
16.5229 -54.6039 -167.371 
16.6424 -54.5917 -167.371 
16.7618 -54.5796 -167.371 
16.8659 -54.4618 -167.378 
16.9854 -54.4497 -167.378 
17.0895 -54.3319 -167.384 
17.209 -54.3197 -167.385 
17.3131 -54.202 -167.391 
17.4326 -54.1898 -167.391 
17.5367 -54.0721 -167.398 
17.6408 -53.9543 -167.404 
17.7603 -53.9421 -167.404 
17.8644 -53.8244 -167.411 
17.9685 -53.7066 -167.417 
18.088 -53.6945 -167.418 
18.1921 -53.5767 -167.424 
18.3116 -53.5645 -167.424 
18.4157 -53.4468 -167.431 
18.5351 -53.4346 -167.431 
18.6392 -53.3169 -167.438 
18.7587 -53.3047 -167.438 
18.8782 -53.2925 -167.438 
18.9823 -53.1748 -167.444 
19.1018 -53.1626 -167.445 
19.2059 -53.0449 -167.451 
19.3254 -53.0327 -167.451 
19.4295 -52.9149 -167.458 
19.549 -52.9028 -167.458 
19.6531 -52.785 -167.464 
19.7572 -52.6673 -167.471 
19.8613 -52.5495 -167.477 
19.9654 -52.4317 -167.484 
20.0695 -52.314 -167.49 
20.1736 -52.1962 -167.497 
20.2931 -52.1841 -167.497 
20.3972 -52.0663 -167.504 
20.5013 -51.9485 -167.51 
20.6054 -51.8308 -167.517 
20.7249 -51.8186 -167.517 
20.8443 -51.8065 -167.517 
20.9484 -51.6887 -167.523 
21.0679 -51.6765 -167.524 
21.1874 -51.6644 -167.524 
21.2915 -51.5466 -167.53 
21.411 -51.5345 -167.53 
21.5151 -51.4167 -167.537 
21.6346 -51.4045 -167.537 
21.7387 -51.2868 -167.544 
21.8428 -51.169 -167.55 
21.9623 -51.1569 -167.55 
22.0664 -51.0391 -167.557 
22.1705 -50.9213 -167.563 
22.2746 -50.8036 -167.57 
22.3787 -50.6858 -167.576 
22.4828 -50.5681 -167.583 
22.5869 -50.4503 -167.589 
22.691 -50.3325 -167.596 
22.7951 -50.2148 -167.602 
22.9146 -50.2026 -167.602 
23.0187 -50.0849 -167.609 
23.1228 -49.9671 -167.615 
23.2269 -49.8493 -167.622 
23.3464 -49.8372 -167.622 
23.4505 -49.7194 -167.629 
23.5699 -49.7073 -167.629 
23.674 -49.5895 -167.635 
23.7935 -49.5773 -167.636 
23.8976 -49.4596 -167.642 
24.0171 -49.4474 -167.642 
24.1366 -49.4353 -167.642 
24.2407 -49.3175 -167.649 
24.3448 -49.1997 -167.655 
24.4643 -49.1876 -167.656 
24.5684 -49.0698 -167.662 
24.6879 -49.0577 -167.662 
24.792 -48.9399 -167.669 
24.9115 -48.9277 -167.669 
25.0309 -48.9156 -167.669 
25.135 -48.7978 -167.676 
25.2545 -48.7857 -167.676 
25.374 -48.7735 -167.676 
25.4781 -48.6557 -167.682 
25.5976 -48.6436 -167.683 
25.7171 -48.6314 -167.683 
25.8366 -48.6193 -167.683 
25.956 -48.6071 -167.683 
26.0755 -48.5949 -167.683 
26.195 -48.5828 -167.683 
26.3145 -48.5706 -167.684 
26.434 -48.5585 -167.684 
26.5535 -48.5463 -167.684 
26.6729 -48.5341 -167.684 
26.7924 -48.522 -167.684 
26.9119 -48.5098 -167.684 
27.0314 -48.4977 -167.685 
27.1509 -48.4855 -167.685 
27.2703 -48.4733 -167.685 
27.3745 -48.3556 -167.691 
27.4939 -48.3434 -167.692 
27.6134 -48.3313 -167.692 
27.7329 -48.3191 -167.692 
27.8524 -48.3069 -167.692 
27.9719 -48.2948 -167.692 
28.0913 -48.2826 -167.692 
28.2108 -48.2704 -167.693 
28.3303 -48.2583 -167.693 
28.4498 -48.2461 -167.693 
28.5693 -48.234 -167.693 
28.6888 -48.2218 -167.693 
28.8082 -48.2096 -167.693 
28.9277 -48.1975 -167.694 
29.0472 -48.1853 -167.694 
29.1667 -48.1732 -167.694 
29.2862 -48.161 -167.694 
29.4057 -48.1488 -167.694 
29.5251 -48.1367 -167.694 
29.6446 -48.1245 -167.695 
29.7641 -48.1124 -167.695 
29.8836 -48.1002 -167.695 
30.0031 -48.088 -167.695 
30.1225 -48.0759 -167.695 
30.242 -48.0637 -167.695 
30.3615 -48.0515 -167.696 
30.481 -48.0394 -167.696 
30.6005 -48.0272 -167.696 
30.72 -48.0151 -167.696 
30.8394 -48.0029 -167.696 
30.9589 -47.9907 -167.696 
31.0784 -47.9786 -167.697 
31.1979 -47.9664 -167.697 
31.3174 -47.9543 -167.697 
31.4369 -47.9421 -167.697 
31.5563 -47.9299 -167.697 
31.6758 -47.9178 -167.697 
31.7953 -47.9056 -167.698 
31.9148 -47.8935 -167.698 
32.0343 -47.8813 -167.698 
32.1691 -47.9747 -167.692 
32.2886 -47.9626 -167.692 
32.4081 -47.9504 -167.692 
32.5276 -47.9383 -167.692 
32.6471 -47.9261 -167.692 
32.7665 -47.9139 -167.693 
32.886 -47.9018 -167.693 
33.0209 -47.9952 -167.687 
33.1404 -47.983 -167.687 
33.2598 -47.9709 -167.687 
33.3793 -47.9587 -167.687 
33.4988 -47.9466 -167.687 
33.6183 -47.9344 -167.687 
33.7378 -47.9222 -167.688 
33.8573 -47.9101 -167.688 
-17.013 -43.4499 -167.925 
-16.8966 -43.4793 -167.925 
-16.8018 -43.6133 -167.919 
-16.707 -43.7472 -167.913 
-16.6123 -43.8811 -167.907 
-16.5175 -44.0151 -167.901 
-16.4444 -44.2535 -167.888 
-16.3496 -44.3874 -167.882 
-16.2548 -44.5213 -167.876 
-16.1817 -44.7598 -167.863 
-16.087 -44.8937 -167.857 
-16.0139 -45.1321 -167.845 
-15.9191 -45.266 -167.838 
-15.8243 -45.4 -167.832 
-15.7512 -45.6384 -167.82 
-15.6564 -45.7723 -167.814 
-15.5617 -45.9062 -167.807 
-15.4669 -46.0402 -167.801 
-15.3938 -46.2786 -167.789 
-15.299 -46.4125 -167.782 
-15.2042 -46.5464 -167.776 
-15.0878 -46.5759 -167.776 
-14.993 -46.7098 -167.77 
-14.8983 -46.8437 -167.764 
-14.8035 -46.9777 -167.758 
-14.6871 -47.0071 -167.758 
-14.5923 -47.141 -167.752 
-14.4758 -47.1705 -167.752 
-14.3811 -47.3044 -167.746 
-14.2646 -47.3338 -167.746 
-14.1699 -47.4678 -167.74 
-14.0751 -47.6017 -167.734 
-13.9803 -47.7356 -167.728 
-13.8856 -47.8695 -167.721 
-13.8125 -48.108 -167.709 
-13.7177 -48.2419 -167.703 
-13.6446 -48.4803 -167.69 
-13.5498 -48.6142 -167.684 
-13.4767 -48.8526 -167.672 
-13.3819 -48.9866 -167.665 
-13.2872 -49.1205 -167.659 
-13.1924 -49.2544 -167.653 
-13.0976 -49.3884 -167.647 
-13.0028 -49.5223 -167.641 
-12.9081 -49.6562 -167.635 
-12.8133 -49.7901 -167.628 
-12.7185 -49.9241 -167.622 
-12.6238 -50.058 -167.616 
-12.529 -50.1919 -167.61 
-12.4342 -50.3259 -167.604 
-12.3394 -50.4598 -167.597 
-12.2447 -50.5937 -167.591 
-12.1499 -50.7276 -167.585 
-12.0551 -50.8616 -167.579 
-11.9604 -50.9955 -167.573 
-11.8656 -51.1294 -167.567 
-11.7708 -51.2633 -167.56 
-11.676 -51.3973 -167.554 
-11.6029 -51.6357 -167.542 
-11.5082 -51.7696 -167.536 
-11.4134 -51.9036 -167.529 
-11.3186 -52.0375 -167.523 
-11.2238 -52.1714 -167.517 
-11.1291 -52.3053 -167.511 
-11.0343 -52.4393 -167.505 
-10.9179 -52.4687 -167.505 
-10.8231 -52.6026 -167.499 
-10.7283 -52.7366 -167.493 
-10.6119 -52.766 -167.493 
-10.5171 -52.8999 -167.487 
-10.4007 -52.9294 -167.487 
-10.3059 -53.0633 -167.481 
-10.2111 -53.1972 -167.474 
-10.1164 -53.3312 -167.468 
-10.0216 -53.4651 -167.462 
-9.92683 -53.599 -167.456 
-9.83205 -53.7329 -167.45 
-9.75895 -53.9714 -167.437 
-9.66418 -54.1053 -167.431 
-9.56941 -54.2392 -167.425 
-9.47464 -54.3731 -167.419 
-9.37987 -54.5071 -167.413 
-9.28509 -54.641 -167.406 
-9.19032 -54.7749 -167.4 
-9.09555 -54.9088 -167.394 
-9.00078 -55.0428 -167.388 
-8.90601 -55.1767 -167.382 
-8.81124 -55.3106 -167.375 
-8.71646 -55.4446 -167.369 
-8.60003 -55.474 -167.369 
-8.50526 -55.6079 -167.363 
-8.41048 -55.7419 -167.357 
-8.29405 -55.7713 -167.357 
-8.19928 -55.9052 -167.351 
-8.08284 -55.9347 -167.351 
-7.98807 -56.0686 -167.345 
-7.8933 -56.2025 -167.339 
-7.77686 -56.2319 -167.339 
-7.68209 -56.3659 -167.333 
-7.58732 -56.4998 -167.327 
-7.47088 -56.5292 -167.327 
-7.37611 -56.6632 -167.321 
-7.25968 -56.6926 -167.321 
-7.16491 -56.8265 -167.315 
-7.04847 -56.856 -167.315 
-6.9537 -56.9899 -167.309 
-6.83726 -57.0193 -167.309 
-6.74249 -57.1533 -167.303 
-6.62606 -57.1827 -167.303 
-6.50962 -57.2121 -167.303 
-6.41485 -57.3461 -167.297 
-6.29841 -57.3755 -167.297 
-6.18197 -57.4049 -167.297 
-6.08721 -57.5389 -167.291 
-5.97077 -57.5683 -167.291 
-5.876 -57.7022 -167.285 
-5.75956 -57.7317 -167.285 
-5.66479 -57.8656 -167.279 
-5.54835 -57.895 -167.279 
-5.45358 -58.029 -167.273 
-5.35881 -58.1629 -167.267 
-5.24237 -58.1923 -167.267 
-5.1476 -58.3263 -167.261 
-5.05283 -58.4602 -167.255 
-4.9364 -58.4896 -167.255 
-4.84162 -58.6236 -167.249 
-4.72519 -58.653 -167.249 
-4.63042 -58.7869 -167.243 
-4.53565 -58.9209 -167.237 
-4.41921 -58.9503 -167.237 
-4.32444 -59.0842 -167.231 
-4.208 -59.1137 -167.231 
-4.11323 -59.2476 -167.225 
-3.9968 -59.277 -167.225 
-3.88036 -59.3065 -167.225 
-3.78559 -59.4404 -167.219 
-3.69082 -59.5743 -167.212 
-3.57438 -59.6038 -167.213 
-3.47961 -59.7377 -167.206 
-3.36317 -59.7671 -167.207 
-3.2684 -59.9011 -167.2 
-3.15197 -59.9305 -167.201 
-3.0572 -60.0644 -167.194 
-2.94076 -60.0939 -167.195 
-2.82433 -60.1233 -167.195 
-2.72955 -60.2572 -167.189 
-2.61311 -60.2867 -167.189 
-2.49668 -60.3161 -167.189 
-2.38024 -60.3455 -167.189 
-2.26381 -60.375 -167.189 
-2.16903 -60.5089 -167.183 
-2.0526 -60.5383 -167.183 
-1.93616 -60.5678 -167.183 
-1.84139 -60.7017 -167.177 
-1.72495 -60.7311 -167.177 
-1.63019 -60.8651 -167.171 
-1.51375 -60.8945 -167.171 
-1.39731 -60.924 -167.172 
-1.30254 -61.0579 -167.165 
-1.1861 -61.0873 -167.166 
-1.06967 -61.1168 -167.166 
-0.953234 -61.1462 -167.166 
-0.836796 -61.1756 -167.166 
-0.720364 -61.2051 -167.166 
-0.603926 -61.2345 -167.166 
-0.487487 -61.2639 -167.167 
-0.371055 -61.2934 -167.167 
-0.254617 -61.3228 -167.167 
-0.138181 -61.3522 -167.167 
-0.021743 -61.3817 -167.167 
0.0730263 -61.5156 -167.161 
0.189464 -61.5451 -167.161 
0.284233 -61.679 -167.155 
0.400671 -61.7084 -167.155 
0.495445 -61.8424 -167.149 
0.611877 -61.8718 -167.149 
0.728315 -61.9012 -167.149 
0.823084 -62.0352 -167.143 
0.939522 -62.0646 -167.143 
1.05595 -62.094 -167.144 
1.17239 -62.1235 -167.144 
1.28883 -62.1529 -167.144 
1.40527 -62.1823 -167.144 
1.5217 -62.2118 -167.144 
1.63814 -62.2412 -167.144 
1.75458 -62.2707 -167.145 
1.89267 -62.1956 -167.151 
2.00911 -62.225 -167.151 
2.12554 -62.2545 -167.151 
2.26365 -62.1794 -167.158 
2.38008 -62.2089 -167.158 
2.49652 -62.2383 -167.158 
2.61295 -62.2677 -167.158 
2.72939 -62.2972 -167.159 
2.84583 -62.3266 -167.159 
2.98393 -62.2516 -167.165 
3.10037 -62.281 -167.165 
3.2168 -62.3104 -167.166 
3.33324 -62.3399 -167.166 
3.47134 -62.2648 -167.172 
3.60944 -62.1898 -167.179 
3.74754 -62.1147 -167.185 
3.88564 -62.0397 -167.192 
4.02374 -61.9646 -167.198 
4.16184 -61.8896 -167.205 
4.29994 -61.8145 -167.211 
4.43804 -61.7395 -167.218 
4.57614 -61.6644 -167.224 
4.71425 -61.5894 -167.231 
4.85234 -61.5143 -167.237 
4.96878 -61.5437 -167.238 
5.10688 -61.4687 -167.244 
5.24498 -61.3936 -167.251 
5.36142 -61.4231 -167.251 
5.49952 -61.348 -167.257 
5.63762 -61.273 -167.264 
5.77572 -61.1979 -167.27 
5.91382 -61.1229 -167.277 
6.05192 -61.0478 -167.283 
6.19002 -60.9728 -167.29 
6.32813 -60.8977 -167.296 
6.46623 -60.8227 -167.303 
6.60433 -60.7476 -167.309 
6.74243 -60.6726 -167.316 
6.88053 -60.5975 -167.322 
7.01863 -60.5224 -167.329 
7.15673 -60.4474 -167.335 
7.29483 -60.3723 -167.342 
7.43293 -60.2973 -167.348 
7.54937 -60.3267 -167.348 
7.68747 -60.2517 -167.355 
7.82557 -60.1766 -167.361 
7.96367 -60.1016 -167.368 
8.10177 -60.0265 -167.374 
8.21821 -60.056 -167.375 
8.35631 -59.9809 -167.381 
8.4944 -59.9058 -167.388 
8.63251 -59.8308 -167.394 
8.77061 -59.7557 -167.401 
8.90871 -59.6807 -167.407 
9.04681 -59.6056 -167.414 
9.18491 -59.5306 -167.42 
9.32302 -59.4555 -167.427 
9.48278 -59.276 -167.44 
9.62088 -59.2009 -167.446 
9.75898 -59.1259 -167.453 
9.89708 -59.0508 -167.459 
10.0352 -58.9758 -167.466 
10.1733 -58.9007 -167.472 
10.3114 -58.8257 -167.479 
10.4495 -58.7506 -167.485 
10.5876 -58.6756 -167.492 
10.7257 -58.6005 -167.498 
10.8638 -58.5255 -167.505 
11.0019 -58.4504 -167.511 
11.14 -58.3754 -167.518 
11.2781 -58.3003 -167.524 
11.4379 -58.1208 -167.537 
11.5976 -57.9412 -167.55 
11.7574 -57.7617 -167.563 
11.8955 -57.6866 -167.569 
12.0553 -57.5071 -167.582 
12.215 -57.3275 -167.595 
12.3531 -57.2525 -167.601 
12.4912 -57.1774 -167.608 
12.6293 -57.1024 -167.614 
12.7674 -57.0273 -167.621 
12.9055 -56.9523 -167.627 
13.0436 -56.8772 -167.634 
13.1601 -56.9067 -167.634 
13.2982 -56.8316 -167.641 
13.4363 -56.7566 -167.647 
13.5744 -56.6815 -167.654 
13.7125 -56.6065 -167.66 
13.8722 -56.4269 -167.673 
14.0103 -56.3519 -167.679 
14.1701 -56.1723 -167.692 
14.3082 -56.0973 -167.699 
14.468 -55.9177 -167.712 
14.6277 -55.7382 -167.724 
14.7875 -55.5586 -167.737 
14.9473 -55.3791 -167.75 
15.107 -55.1996 -167.763 
15.2668 -55.02 -167.776 
15.4266 -54.8405 -167.789 
15.5647 -54.7654 -167.795 
15.7244 -54.5859 -167.808 
15.8625 -54.5108 -167.814 
