ply
format ascii 1.0
comment VCGLIB generated
element vertex 873
property float x
property float y
property float z
element face 0
property list uchar int vertex_indices
end_header
18.4152 -51.5189 -176.443 
18.5233 -51.4666 -176.443 
18.6315 -51.4143 -176.443 
18.7396 -51.362 -176.443 
18.8477 -51.3097 -176.444 
18.9558 -51.2574 -176.444 
19.0639 -51.2051 -176.444 
19.1721 -51.1528 -176.444 
19.2802 -51.1005 -176.444 
19.3883 -51.0482 -176.444 
19.4964 -50.9959 -176.445 
19.6045 -50.9437 -176.445 
19.7126 -50.8914 -176.445 
19.8208 -50.8391 -176.445 
19.9289 -50.7868 -176.445 
20.037 -50.7345 -176.445 
20.1451 -50.6822 -176.446 
20.2532 -50.6299 -176.446 
20.3613 -50.5776 -176.446 
20.4695 -50.5253 -176.446 
20.5776 -50.473 -176.446 
20.6857 -50.4207 -176.446 
20.7938 -50.3684 -176.447 
20.9019 -50.3161 -176.447 
21.0101 -50.2638 -176.447 
21.1182 -50.2116 -176.447 
21.2263 -50.1593 -176.447 
21.3344 -50.107 -176.447 
21.4425 -50.0547 -176.448 
21.6012 -50.0964 -176.441 
21.7093 -50.0441 -176.442 
21.8174 -49.9918 -176.442 
21.9256 -49.9395 -176.442 
22.0842 -49.9812 -176.436 
22.1924 -49.9289 -176.436 
22.3005 -49.8766 -176.436 
22.4592 -49.9182 -176.43 
22.5673 -49.8659 -176.43 
22.726 -49.9076 -176.424 
22.8341 -49.8553 -176.424 
22.9422 -49.803 -176.424 
23.1009 -49.8447 -176.418 
23.209 -49.7924 -176.418 
23.3171 -49.7401 -176.418 
23.4252 -49.6878 -176.419 
23.5839 -49.7295 -176.412 
23.692 -49.6772 -176.413 
23.8002 -49.6249 -176.413 
23.9083 -49.5726 -176.413 
24.0164 -49.5203 -176.413 
24.1245 -49.4681 -176.413 
24.2832 -49.5097 -176.407 
24.3913 -49.4574 -176.407 
24.4994 -49.4051 -176.407 
24.6076 -49.3528 -176.408 
24.7662 -49.3945 -176.401 
24.9249 -49.4362 -176.395 
25.033 -49.3839 -176.395 
25.1917 -49.4256 -176.389 
25.3504 -49.4673 -176.383 
25.5091 -49.5089 -176.377 
25.6678 -49.5506 -176.371 
25.7759 -49.4983 -176.371 
25.9346 -49.54 -176.365 
26.0933 -49.5817 -176.358 
26.2014 -49.5294 -176.359 
26.3095 -49.4771 -176.359 
26.4682 -49.5188 -176.353 
26.5763 -49.4665 -176.353 
26.6844 -49.4142 -176.353 
26.8431 -49.4559 -176.347 
26.9512 -49.4036 -176.347 
27.0594 -49.3513 -176.347 
27.218 -49.3929 -176.341 
27.3262 -49.3407 -176.341 
27.4848 -49.3823 -176.335 
27.6435 -49.424 -176.329 
27.7516 -49.3717 -176.329 
27.9103 -49.4134 -176.323 
28.069 -49.4551 -176.317 
28.2277 -49.4967 -176.31 
28.3864 -49.5384 -176.304 
28.5451 -49.5801 -176.298 
28.7038 -49.6218 -176.292 
28.8625 -49.6635 -176.286 
28.9706 -49.6112 -176.286 
29.1293 -49.6528 -176.28 
29.2879 -49.6945 -176.274 
29.4466 -49.7362 -176.267 
29.5547 -49.6839 -176.268 
29.7134 -49.7256 -176.261 
29.8216 -49.6733 -176.262 
29.9802 -49.715 -176.255 
30.0884 -49.6627 -176.256 
30.247 -49.7043 -176.249 
30.3552 -49.6521 -176.25 
30.4633 -49.5998 -176.25 
30.622 -49.6414 -176.244 
30.7301 -49.5891 -176.244 
30.8382 -49.5368 -176.244 
30.9463 -49.4846 -176.244 
31.0544 -49.4323 -176.244 
31.1625 -49.38 -176.244 
31.2707 -49.3277 -176.245 
31.3788 -49.2754 -176.245 
31.4869 -49.2231 -176.245 
31.595 -49.1708 -176.245 
31.7031 -49.1185 -176.245 
31.8113 -49.0662 -176.245 
31.9194 -49.0139 -176.246 
32.0275 -48.9616 -176.246 
32.1356 -48.9093 -176.246 
32.2437 -48.857 -176.246 
32.4024 -48.8987 -176.24 
32.5105 -48.8464 -176.24 
32.6692 -48.8881 -176.234 
32.8279 -48.9298 -176.228 
32.936 -48.8775 -176.228 
33.0947 -48.9192 -176.222 
33.2028 -48.8669 -176.222 
33.3109 -48.8146 -176.222 
33.4191 -48.7623 -176.222 
33.5272 -48.71 -176.222 
33.6353 -48.6577 -176.223 
33.7434 -48.6054 -176.223 
33.8515 -48.5531 -176.223 
33.9596 -48.5008 -176.223 
34.0678 -48.4485 -176.223 
34.1759 -48.3962 -176.223 
34.284 -48.3439 -176.223 
34.3921 -48.2916 -176.224 
34.5002 -48.2394 -176.224 
34.6083 -48.1871 -176.224 
34.767 -48.2287 -176.218 
34.8752 -48.1764 -176.218 
34.9833 -48.1241 -176.218 
35.0914 -48.0719 -176.218 
35.1995 -48.0196 -176.218 
35.3582 -48.0612 -176.212 
35.4663 -48.0089 -176.212 
35.5744 -47.9567 -176.213 
35.6825 -47.9044 -176.213 
35.8412 -47.946 -176.207 
35.9493 -47.8937 -176.207 
36.0575 -47.8415 -176.207 
36.2162 -47.8831 -176.201 
36.3243 -47.8308 -176.201 
36.4324 -47.7785 -176.201 
36.5405 -47.7263 -176.201 
36.6992 -47.7679 -176.195 
36.8073 -47.7156 -176.195 
36.9154 -47.6633 -176.195 
37.0235 -47.611 -176.196 
37.1317 -47.5588 -176.196 
37.2398 -47.5065 -176.196 
37.3479 -47.4542 -176.196 
37.456 -47.4019 -176.196 
37.5641 -47.3496 -176.196 
37.6722 -47.2973 -176.197 
37.7804 -47.245 -176.197 
37.8885 -47.1927 -176.197 
37.9966 -47.1404 -176.197 
38.1553 -47.1821 -176.191 
38.2634 -47.1298 -176.191 
38.3715 -47.0775 -176.191 
38.4796 -47.0252 -176.191 
38.6383 -47.0669 -176.185 
38.7464 -47.0146 -176.185 
38.8546 -46.9623 -176.186 
38.9627 -46.91 -176.186 
39.1214 -46.9517 -176.18 
39.2295 -46.8994 -176.18 
39.3376 -46.8471 -176.18 
39.4457 -46.7948 -176.18 
39.5538 -46.7425 -176.18 
39.6619 -46.6902 -176.18 
39.7701 -46.6379 -176.181 
39.8782 -46.5856 -176.181 
39.9863 -46.5333 -176.181 
40.0944 -46.481 -176.181 
40.2025 -46.4288 -176.181 
40.3107 -46.3765 -176.181 
40.4188 -46.3242 -176.182 
40.5269 -46.2719 -176.182 
40.635 -46.2196 -176.182 
40.7431 -46.1673 -176.182 
40.8512 -46.115 -176.182 
41.0099 -46.1567 -176.176 
41.118 -46.1044 -176.176 
41.2262 -46.0521 -176.176 
41.3343 -45.9998 -176.177 
41.4424 -45.9475 -176.177 
41.5505 -45.8952 -176.177 
41.6586 -45.8429 -176.177 
41.7667 -45.7906 -176.177 
41.8749 -45.7383 -176.177 
41.983 -45.686 -176.178 
42.0405 -45.5398 -176.184 
42.1487 -45.4875 -176.184 
42.2568 -45.4352 -176.184 
42.3649 -45.3829 -176.185 
42.473 -45.3306 -176.185 
42.5811 -45.2783 -176.185 
42.6387 -45.132 -176.191 
42.7468 -45.0798 -176.192 
42.8549 -45.0275 -176.192 
42.963 -44.9752 -176.192 
43.0711 -44.9229 -176.192 
43.1793 -44.8706 -176.192 
43.2874 -44.8183 -176.192 
43.3955 -44.766 -176.193 
43.5036 -44.7137 -176.193 
43.5612 -44.5674 -176.199 
43.6693 -44.5152 -176.199 
43.7774 -44.4629 -176.2 
43.8855 -44.4106 -176.2 
43.9936 -44.3583 -176.2 
44.1017 -44.306 -176.2 
44.1593 -44.1597 -176.207 
44.2674 -44.1074 -176.207 
44.3755 -44.0551 -176.207 
44.4836 -44.0028 -176.207 
44.5412 -43.8566 -176.214 
44.6493 -43.8043 -176.214 
44.7574 -43.752 -176.214 
44.815 -43.6057 -176.22 
44.9231 -43.5534 -176.221 
45.0312 -43.5011 -176.221 
45.0888 -43.3549 -176.227 
45.1969 -43.3026 -176.227 
45.2544 -43.1563 -176.234 
45.3625 -43.104 -176.234 
45.4707 -43.0517 -176.234 
45.5282 -42.9055 -176.241 
45.6363 -42.8532 -176.241 
45.6939 -42.7069 -176.248 
45.802 -42.6546 -176.248 
45.9101 -42.6023 -176.248 
45.9677 -42.4561 -176.254 
46.0758 -42.4038 -176.255 
46.1839 -42.3515 -176.255 
46.2414 -42.2052 -176.261 
46.3496 -42.1529 -176.261 
46.4577 -42.1006 -176.262 
46.5152 -41.9544 -176.268 
46.6233 -41.9021 -176.268 
46.6809 -41.7558 -176.275 
46.789 -41.7035 -176.275 
46.8971 -41.6512 -176.275 
46.9547 -41.505 -176.282 
47.0628 -41.4527 -176.282 
47.1203 -41.3064 -176.288 
47.2285 -41.2541 -176.288 
47.286 -41.1079 -176.295 
47.3941 -41.0556 -176.295 
47.4517 -40.9093 -176.302 
47.5092 -40.763 -176.308 
47.6173 -40.7107 -176.308 
47.6749 -40.5645 -176.315 
47.783 -40.5122 -176.315 
47.8406 -40.3659 -176.321 
47.8981 -40.2197 -176.328 
48.0062 -40.1674 -176.328 
48.0638 -40.0211 -176.335 
48.1213 -39.8748 -176.341 
48.2294 -39.8225 -176.341 
48.287 -39.6763 -176.348 
48.3445 -39.53 -176.354 
48.4021 -39.3838 -176.361 
48.5102 -39.3315 -176.361 
48.5677 -39.1852 -176.367 
48.6253 -39.0389 -176.374 
48.6828 -38.8927 -176.38 
48.7404 -38.7464 -176.387 
48.7979 -38.6002 -176.393 
48.8555 -38.4539 -176.4 
48.913 -38.3076 -176.406 
48.9706 -38.1614 -176.413 
49.0787 -38.1091 -176.413 
49.1363 -37.9628 -176.42 
49.1938 -37.8165 -176.426 
49.3019 -37.7643 -176.426 
49.41 -37.712 -176.426 
49.4676 -37.5657 -176.433 
49.5757 -37.5134 -176.433 
49.6838 -37.4611 -176.433 
49.7414 -37.3148 -176.44 
49.8495 -37.2626 -176.44 
49.9576 -37.2103 -176.44 
50.0152 -37.064 -176.447 
50.0727 -36.9177 -176.453 
0.637654 -61.2574 -176.05 
0.757132 -61.2452 -176.05 
0.876616 -61.2331 -176.05 
0.996099 -61.2209 -176.05 
1.11558 -61.2087 -176.051 
1.21969 -61.091 -176.057 
1.33917 -61.0788 -176.057 
1.45865 -61.0667 -176.057 
1.57813 -61.0545 -176.058 
1.69762 -61.0423 -176.058 
1.8171 -61.0302 -176.058 
1.9212 -60.9124 -176.064 
2.04068 -60.9003 -176.065 
2.16017 -60.8881 -176.065 
2.27965 -60.8759 -176.065 
2.39913 -60.8638 -176.065 
2.51861 -60.8516 -176.065 
2.6381 -60.8395 -176.065 
2.7422 -60.7217 -176.072 
2.86168 -60.7095 -176.072 
2.98116 -60.6974 -176.072 
3.10064 -60.6852 -176.072 
3.20475 -60.5675 -176.079 
3.32423 -60.5553 -176.079 
3.44371 -60.5431 -176.079 
3.54782 -60.4254 -176.086 
3.6673 -60.4132 -176.086 
3.78678 -60.4011 -176.086 
3.89089 -60.2833 -176.093 
4.01037 -60.2711 -176.093 
4.11447 -60.1534 -176.099 
4.23395 -60.1412 -176.099 
4.35343 -60.1291 -176.1 
4.45754 -60.0113 -176.106 
4.57702 -59.9991 -176.106 
4.6965 -59.987 -176.106 
4.8006 -59.8692 -176.113 
4.92009 -59.857 -176.113 
5.02419 -59.7393 -176.12 
5.14367 -59.7271 -176.12 
5.26315 -59.715 -176.12 
5.36726 -59.5972 -176.126 
5.48674 -59.585 -176.127 
5.59084 -59.4673 -176.133 
5.71033 -59.4551 -176.133 
5.82981 -59.443 -176.133 
5.93391 -59.3252 -176.14 
6.05339 -59.313 -176.14 
6.17288 -59.3009 -176.14 
6.29236 -59.2887 -176.14 
6.39646 -59.171 -176.147 
6.51595 -59.1588 -176.147 
6.63543 -59.1466 -176.147 
6.75491 -59.1345 -176.147 
6.85901 -59.0167 -176.154 
6.97849 -59.0046 -176.154 
7.09798 -58.9924 -176.154 
7.20208 -58.8746 -176.161 
7.32156 -58.8625 -176.161 
7.42566 -58.7447 -176.167 
7.54515 -58.7326 -176.168 
7.64925 -58.6148 -176.174 
7.76873 -58.6026 -176.174 
7.87284 -58.4849 -176.181 
7.99232 -58.4727 -176.181 
8.09642 -58.355 -176.187 
8.2159 -58.3428 -176.188 
8.32 -58.225 -176.194 
8.43949 -58.2129 -176.194 
8.54359 -58.0951 -176.201 
8.66308 -58.083 -176.201 
8.76718 -57.9652 -176.207 
8.87128 -57.8474 -176.214 
8.99076 -57.8353 -176.214 
9.09486 -57.7175 -176.221 
9.19897 -57.5998 -176.227 
9.31845 -57.5876 -176.227 
9.42255 -57.4698 -176.234 
9.54203 -57.4577 -176.234 
9.64614 -57.3399 -176.241 
9.76562 -57.3278 -176.241 
9.86973 -57.21 -176.247 
9.98921 -57.1978 -176.247 
10.0933 -57.0801 -176.254 
10.2128 -57.0679 -176.254 
10.3323 -57.0558 -176.254 
10.4364 -56.938 -176.261 
10.5559 -56.9258 -176.261 
10.6753 -56.9137 -176.261 
10.7794 -56.7959 -176.268 
10.8989 -56.7838 -176.268 
11.003 -56.666 -176.274 
11.1225 -56.6538 -176.274 
11.2266 -56.5361 -176.281 
11.3461 -56.5239 -176.281 
11.4502 -56.4062 -176.288 
11.5543 -56.2884 -176.294 
11.6738 -56.2762 -176.294 
11.7933 -56.2641 -176.294 
11.8974 -56.1463 -176.301 
12.0169 -56.1342 -176.301 
12.121 -56.0164 -176.308 
12.2404 -56.0042 -176.308 
12.3445 -55.8865 -176.314 
12.4486 -55.7687 -176.321 
12.5681 -55.7566 -176.321 
12.6722 -55.6388 -176.327 
12.7917 -55.6266 -176.328 
12.8958 -55.5089 -176.334 
12.9999 -55.3911 -176.341 
13.1194 -55.379 -176.341 
13.2235 -55.2612 -176.347 
13.3276 -55.1434 -176.354 
13.4471 -55.1313 -176.354 
13.5512 -55.0135 -176.36 
13.6553 -54.8958 -176.367 
13.7748 -54.8836 -176.367 
13.8789 -54.7658 -176.374 
13.9984 -54.7537 -176.374 
14.1025 -54.6359 -176.38 
14.2219 -54.6238 -176.38 
14.3261 -54.506 -176.387 
14.4455 -54.4938 -176.387 
14.5496 -54.3761 -176.394 
14.6691 -54.3639 -176.394 
14.7732 -54.2462 -176.4 
14.8927 -54.234 -176.4 
14.9968 -54.1162 -176.407 
15.1009 -53.9985 -176.413 
15.205 -53.8807 -176.42 
15.3091 -53.763 -176.427 
15.4132 -53.6452 -176.433 
15.5173 -53.5274 -176.44 
15.6214 -53.4097 -176.446 
15.7255 -53.2919 -176.453 
15.8296 -53.1742 -176.459 
15.9337 -53.0564 -176.466 
16.0378 -52.9386 -176.472 
16.1573 -52.9265 -176.472 
16.2614 -52.8087 -176.479 
16.3809 -52.7966 -176.479 
16.485 -52.6788 -176.485 
16.6045 -52.6666 -176.486 
16.7086 -52.5489 -176.492 
16.8127 -52.4311 -176.499 
16.9322 -52.419 -176.499 
17.0363 -52.3012 -176.505 
17.1404 -52.1835 -176.512 
17.2445 -52.0657 -176.518 
17.364 -52.0535 -176.518 
17.4681 -51.9358 -176.525 
17.5722 -51.818 -176.531 
17.6763 -51.7003 -176.538 
17.7958 -51.6881 -176.538 
17.8999 -51.5703 -176.545 
18.004 -51.4526 -176.551 
18.1234 -51.4404 -176.551 
18.2276 -51.3227 -176.558 
18.3317 -51.2049 -176.564 
18.4511 -51.1927 -176.564 
18.5706 -51.1806 -176.565 
18.6747 -51.0628 -176.571 
18.7942 -51.0507 -176.571 
18.8983 -50.9329 -176.578 
19.0178 -50.9207 -176.578 
19.1373 -50.9086 -176.578 
19.2414 -50.7908 -176.585 
19.3609 -50.7787 -176.585 
19.4803 -50.7665 -176.585 
19.5844 -50.6487 -176.591 
19.7039 -50.6366 -176.592 
19.808 -50.5188 -176.598 
19.9275 -50.5066 -176.598 
20.047 -50.4945 -176.598 
20.1511 -50.3767 -176.605 
20.2706 -50.3646 -176.605 
20.3901 -50.3524 -176.605 
20.4942 -50.2346 -176.612 
20.6136 -50.2225 -176.612 
20.7331 -50.2103 -176.612 
20.8526 -50.1982 -176.612 
20.9567 -50.0804 -176.619 
21.0762 -50.0682 -176.619 
21.1957 -50.0561 -176.619 
21.3152 -50.0439 -176.619 
21.4346 -50.0318 -176.62 
21.5541 -50.0196 -176.62 
21.6582 -49.9018 -176.626 
21.7777 -49.8897 -176.626 
21.8972 -49.8775 -176.627 
22.0167 -49.8654 -176.627 
22.1362 -49.8532 -176.627 
22.2556 -49.841 -176.627 
22.3751 -49.8289 -176.627 
22.4946 -49.8167 -176.627 
22.5987 -49.699 -176.634 
22.7182 -49.6868 -176.634 
22.8377 -49.6746 -176.634 
22.9572 -49.6625 -176.634 
23.0766 -49.6503 -176.635 
23.1961 -49.6382 -176.635 
23.3156 -49.626 -176.635 
23.4351 -49.6138 -176.635 
23.5546 -49.6017 -176.635 
23.674 -49.5895 -176.635 
23.7935 -49.5773 -176.636 
23.913 -49.5652 -176.636 
24.0325 -49.553 -176.636 
24.152 -49.5409 -176.636 
24.2715 -49.5287 -176.636 
24.3909 -49.5165 -176.636 
24.5104 -49.5044 -176.637 
24.6299 -49.4922 -176.637 
24.7494 -49.4801 -176.637 
24.8689 -49.4679 -176.637 
24.9884 -49.4557 -176.637 
25.1078 -49.4436 -176.637 
25.2273 -49.4314 -176.638 
25.3622 -49.5249 -176.631 
25.4817 -49.5127 -176.632 
25.6011 -49.5005 -176.632 
25.736 -49.594 -176.626 
25.8555 -49.5818 -176.626 
25.975 -49.5696 -176.626 
26.0945 -49.5575 -176.626 
26.2139 -49.5453 -176.626 
26.3334 -49.5332 -176.626 
26.4683 -49.6266 -176.62 
26.5878 -49.6144 -176.62 
26.7073 -49.6023 -176.62 
26.8267 -49.5901 -176.621 
26.9462 -49.578 -176.621 
27.0657 -49.5658 -176.621 
27.1852 -49.5536 -176.621 
27.32 -49.6471 -176.615 
27.4395 -49.6349 -176.615 
27.559 -49.6227 -176.615 
27.6939 -49.7162 -176.609 
27.8133 -49.704 -176.609 
27.9328 -49.6919 -176.609 
28.0523 -49.6797 -176.61 
28.1718 -49.6675 -176.61 
28.2913 -49.6554 -176.61 
28.4108 -49.6432 -176.61 
28.5302 -49.6311 -176.61 
28.6497 -49.6189 -176.61 
28.7692 -49.6067 -176.611 
28.8887 -49.5946 -176.611 
29.0082 -49.5824 -176.611 
29.1277 -49.5703 -176.611 
29.2471 -49.5581 -176.611 
29.3666 -49.5459 -176.611 
29.4861 -49.5338 -176.612 
29.6056 -49.5216 -176.612 
29.7404 -49.6151 -176.606 
29.8599 -49.6029 -176.606 
29.9794 -49.5907 -176.606 
30.1143 -49.6842 -176.6 
30.2338 -49.672 -176.6 
30.3686 -49.7654 -176.594 
30.5035 -49.8589 -176.588 
30.623 -49.8467 -176.588 
30.7578 -49.9402 -176.582 
30.8773 -49.928 -176.582 
30.9968 -49.9158 -176.582 
31.1316 -50.0093 -176.576 
31.2511 -49.9971 -176.576 
31.3706 -49.985 -176.576 
31.4901 -49.9728 -176.576 
31.6096 -49.9606 -176.576 
31.7137 -49.8429 -176.583 
31.8332 -49.8307 -176.583 
31.9373 -49.713 -176.59 
32.0568 -49.7008 -176.59 
32.1609 -49.583 -176.596 
32.265 -49.4653 -176.603 
32.3844 -49.4531 -176.603 
32.4885 -49.3354 -176.609 
32.5926 -49.2176 -176.616 
32.7121 -49.2054 -176.616 
32.8316 -49.1933 -176.616 
32.9357 -49.0755 -176.623 
33.0552 -49.0634 -176.623 
33.1747 -49.0512 -176.623 
33.2942 -49.039 -176.623 
33.4136 -49.0269 -176.623 
33.5331 -49.0147 -176.624 
33.6526 -49.0025 -176.624 
33.7567 -48.8848 -176.63 
33.8762 -48.8726 -176.631 
33.9803 -48.7549 -176.637 
-17.3407 -43.2571 -176.931 
-17.2242 -43.2865 -176.931 
-17.1294 -43.4205 -176.925 
-17.013 -43.4499 -176.925 
-16.9182 -43.5838 -176.919 
-16.8235 -43.7178 -176.913 
-16.7504 -43.9562 -176.9 
-16.6556 -44.0901 -176.894 
-16.5608 -44.224 -176.888 
-16.4877 -44.4625 -176.875 
-16.3929 -44.5964 -176.869 
-16.3198 -44.8348 -176.857 
-16.2251 -44.9687 -176.851 
-16.1303 -45.1027 -176.844 
-16.0572 -45.3411 -176.832 
-15.9624 -45.475 -176.826 
-15.8676 -45.6089 -176.82 
-15.7729 -45.7429 -176.813 
-15.6781 -45.8768 -176.807 
-15.5833 -46.0107 -176.801 
-15.4886 -46.1446 -176.795 
-15.3938 -46.2786 -176.789 
-15.299 -46.4125 -176.782 
-15.2042 -46.5464 -176.776 
-15.1095 -46.6804 -176.77 
-15.0147 -46.8143 -176.764 
-14.8983 -46.8437 -176.764 
-14.8035 -46.9777 -176.758 
-14.7087 -47.1116 -176.752 
-14.614 -47.2455 -176.746 
-14.5192 -47.3794 -176.739 
-14.4244 -47.5134 -176.733 
-14.3296 -47.6473 -176.727 
-14.2349 -47.7812 -176.721 
-14.1618 -48.0196 -176.708 
-14.067 -48.1536 -176.702 
-13.9722 -48.2875 -176.696 
-13.8991 -48.5259 -176.684 
-13.8043 -48.6598 -176.677 
-13.7096 -48.7938 -176.671 
-13.6148 -48.9277 -176.665 
-13.52 -49.0616 -176.659 
-13.4036 -49.0911 -176.659 
-13.3088 -49.225 -176.653 
-13.214 -49.3589 -176.647 
-13.0976 -49.3884 -176.647 
-13.0028 -49.5223 -176.641 
-12.9081 -49.6562 -176.635 
-12.8133 -49.7901 -176.628 
-12.7185 -49.9241 -176.622 
-12.6238 -50.058 -176.616 
-12.529 -50.1919 -176.61 
-12.4342 -50.3259 -176.604 
-12.3611 -50.5643 -176.591 
-12.2663 -50.6982 -176.585 
-12.1716 -50.8321 -176.579 
-12.0768 -50.9661 -176.573 
-11.982 -51.1 -176.566 
-11.9089 -51.3384 -176.554 
-11.8141 -51.4723 -176.548 
-11.7194 -51.6063 -176.542 
-11.6246 -51.7402 -176.535 
-11.5298 -51.8741 -176.529 
-11.4351 -52.008 -176.523 
-11.3403 -52.142 -176.517 
-11.2455 -52.2759 -176.511 
-11.1507 -52.4098 -176.505 
-11.056 -52.5438 -176.498 
-10.9395 -52.5732 -176.499 
-10.8448 -52.7071 -176.492 
-10.75 -52.841 -176.486 
-10.6552 -52.975 -176.48 
-10.5604 -53.1089 -176.474 
-10.4657 -53.2428 -176.468 
-10.3709 -53.3768 -176.462 
-10.2545 -53.4062 -176.462 
-10.1597 -53.5401 -176.456 
-10.0649 -53.6741 -176.449 
-9.97016 -53.808 -176.443 
-9.87538 -53.9419 -176.437 
-9.78061 -54.0758 -176.431 
-9.68584 -54.2098 -176.425 
-9.59107 -54.3437 -176.419 
-9.47464 -54.3731 -176.419 
-9.37987 -54.5071 -176.413 
-9.28509 -54.641 -176.406 
-9.19032 -54.7749 -176.4 
-9.09555 -54.9088 -176.394 
-9.00078 -55.0428 -176.388 
-8.90601 -55.1767 -176.382 
-8.81124 -55.3106 -176.375 
-8.71646 -55.4446 -176.369 
-8.62169 -55.5785 -176.363 
-8.50526 -55.6079 -176.363 
-8.41048 -55.7419 -176.357 
-8.31571 -55.8758 -176.351 
-8.22094 -56.0097 -176.345 
-8.10451 -56.0391 -176.345 
-8.00973 -56.1731 -176.339 
-7.91496 -56.307 -176.333 
-7.79853 -56.3364 -176.333 
-7.70376 -56.4704 -176.327 
-7.58732 -56.4998 -176.327 
-7.49255 -56.6337 -176.321 
-7.39778 -56.7677 -176.314 
-7.28134 -56.7971 -176.315 
-7.18657 -56.931 -176.308 
-7.0918 -57.0649 -176.302 
-6.99703 -57.1989 -176.296 
-6.90226 -57.3328 -176.29 
-6.80749 -57.4667 -176.284 
-6.71271 -57.6007 -176.278 
-6.61794 -57.7346 -176.271 
-6.54484 -57.973 -176.259 
-6.47173 -58.2114 -176.246 
-6.37696 -58.3454 -176.24 
-6.30385 -58.5838 -176.228 
-6.20908 -58.7177 -176.221 
-6.13597 -58.9561 -176.209 
-6.0412 -59.0901 -176.203 
-5.94643 -59.224 -176.197 
-5.85166 -59.3579 -176.19 
-5.73522 -59.3873 -176.191 
-5.61879 -59.4168 -176.191 
-5.52402 -59.5507 -176.185 
-5.40758 -59.5802 -176.185 
-5.31281 -59.7141 -176.179 
-5.19637 -59.7435 -176.179 
-5.1016 -59.8774 -176.173 
-4.98517 -59.9069 -176.173 
-4.8904 -60.0408 -176.167 
-4.79562 -60.1747 -176.16 
-4.70085 -60.3087 -176.154 
-4.60608 -60.4426 -176.148 
-4.51131 -60.5765 -176.142 
-4.41654 -60.7104 -176.136 
-4.32177 -60.8444 -176.13 
-4.227 -60.9783 -176.123 
-4.11056 -61.0077 -176.124 
-4.01579 -61.1417 -176.117 
-3.92101 -61.2756 -176.111 
-3.80458 -61.305 -176.111 
-3.70981 -61.439 -176.105 
-3.59337 -61.4684 -176.105 
-3.47694 -61.4978 -176.106 
-3.38217 -61.6318 -176.099 
-3.26573 -61.6612 -176.1 
-3.1493 -61.6906 -176.1 
-3.05452 -61.8246 -176.094 
-2.93809 -61.854 -176.094 
-2.82165 -61.8834 -176.094 
-2.70522 -61.9129 -176.094 
-2.58878 -61.9423 -176.094 
-2.47234 -61.9718 -176.094 
-2.35591 -62.0012 -176.095 
-2.23947 -62.0306 -176.095 
-2.12303 -62.0601 -176.095 
-2.0066 -62.0895 -176.095 
-1.89016 -62.1189 -176.095 
-1.77372 -62.1484 -176.095 
-1.65729 -62.1778 -176.096 
-1.54085 -62.2073 -176.096 
-1.42442 -62.2367 -176.096 
-1.30798 -62.2661 -176.096 
-1.19155 -62.2956 -176.096 
-1.07511 -62.325 -176.096 
-0.958675 -62.3545 -176.097 
-0.820574 -62.2794 -176.103 
-0.682467 -62.2044 -176.11 
-0.544371 -62.1293 -176.116 
-0.406269 -62.0542 -176.123 
-0.246504 -61.8747 -176.135 
-0.108403 -61.7996 -176.142 
0.0513589 -61.6201 -176.155 
0.189464 -61.5451 -176.161 
0.327562 -61.47 -176.168 
0.465663 -61.395 -176.174 
0.582101 -61.4244 -176.174 
0.720201 -61.3493 -176.181 
0.836638 -61.3788 -176.181 
0.953072 -61.4082 -176.181 
1.09118 -61.3332 -176.188 
1.20761 -61.3626 -176.188 
1.32405 -61.392 -176.188 
1.44048 -61.4215 -176.188 
1.57858 -61.3464 -176.195 
1.69502 -61.3759 -176.195 
1.83312 -61.3008 -176.201 
1.97122 -61.2258 -176.208 
2.08766 -61.2552 -176.208 
2.22576 -61.1801 -176.215 
2.36386 -61.1051 -176.221 
2.50196 -61.03 -176.228 
2.64006 -60.955 -176.234 
2.75649 -60.9844 -176.234 
2.8946 -60.9094 -176.241 
3.0327 -60.8343 -176.247 
3.1708 -60.7593 -176.254 
3.28723 -60.7887 -176.254 
3.42534 -60.7137 -176.261 
3.56344 -60.6386 -176.267 
3.67987 -60.668 -176.267 
3.81797 -60.593 -176.274 
3.93441 -60.6224 -176.274 
4.07251 -60.5474 -176.28 
4.21061 -60.4723 -176.287 
4.32705 -60.5018 -176.287 
4.46515 -60.4267 -176.294 
4.60325 -60.3517 -176.3 
4.74135 -60.2766 -176.307 
4.87945 -60.2015 -176.313 
5.01755 -60.1265 -176.32 
5.15565 -60.0514 -176.326 
5.29375 -59.9764 -176.333 
5.45352 -59.7968 -176.345 
5.59162 -59.7218 -176.352 
5.72972 -59.6467 -176.358 
5.88949 -59.4672 -176.371 
6.02759 -59.3922 -176.378 
6.16568 -59.3171 -176.384 
6.30379 -59.242 -176.391 
6.44189 -59.167 -176.397 
6.57999 -59.0919 -176.404 
6.71809 -59.0169 -176.41 
6.85619 -58.9418 -176.417 
6.97263 -58.9713 -176.417 
7.11073 -58.8962 -176.423 
7.24883 -58.8212 -176.43 
7.36527 -58.8506 -176.43 
7.50337 -58.7756 -176.437 
7.64146 -58.7005 -176.443 
7.77956 -58.6254 -176.45 
7.91767 -58.5504 -176.456 
8.07744 -58.3708 -176.469 
8.21554 -58.2958 -176.476 
8.3753 -58.1163 -176.488 
8.53507 -57.9367 -176.501 
8.67317 -57.8617 -176.508 
8.83293 -57.6821 -176.521 
8.97103 -57.6071 -176.527 
9.10913 -57.532 -176.534 
9.24724 -57.457 -176.54 
9.36367 -57.4864 -176.54 
9.50177 -57.4114 -176.547 
9.61821 -57.4408 -176.547 
9.75631 -57.3657 -176.553 
9.87274 -57.3952 -176.554 
10.0108 -57.3201 -176.56 
10.1489 -57.2451 -176.567 
10.287 -57.17 -176.573 
10.4251 -57.095 -176.58 
10.5849 -56.9154 -176.592 
10.723 -56.8404 -176.599 
10.8611 -56.7653 -176.605 
11.0209 -56.5858 -176.618 
11.159 -56.5107 -176.625 
11.2971 -56.4357 -176.631 
11.4352 -56.3606 -176.638 
11.5733 -56.2856 -176.644 
11.7114 -56.2105 -176.651 
11.8495 -56.1355 -176.657 
11.9876 -56.0604 -176.664 
12.1257 -55.9854 -176.67 
12.2638 -55.9103 -176.677 
12.4019 -55.8353 -176.683 
12.5617 -55.6557 -176.696 
12.6998 -55.5807 -176.703 
12.8595 -55.4011 -176.716 
13.0193 -55.2216 -176.728 
13.1574 -55.1465 -176.735 
13.3172 -54.967 -176.748 
13.4553 -54.8919 -176.754 
13.5934 -54.8169 -176.761 
13.7315 -54.7418 -176.767 
13.8696 -54.6668 -176.774 
14.0077 -54.5917 -176.78 
14.1674 -54.4122 -176.793 
14.3055 -54.3371 -176.8 
14.4436 -54.2621 -176.806 
14.6034 -54.0825 -176.819 
14.7632 -53.903 -176.832 
14.9229 -53.7234 -176.845 
15.1044 -53.4394 -176.864 
15.2641 -53.2599 -176.877 
15.4455 -52.9758 -176.896 
15.6053 -52.7963 -176.909 
15.7651 -52.6167 -176.922 
15.9248 -52.4372 -176.934 
16.0629 -52.3622 -176.941 
16.201 -52.2871 -176.947 
16.3391 -52.2121 -176.954 
