ply
format ascii 1.0
comment VCGLIB generated
element vertex 873
property float x
property float y
property float z
element face 0
property list uchar int vertex_indices
end_header
18.6175 -51.8948 -175.418 
18.7256 -51.8425 -175.418 
18.8337 -51.7902 -175.418 
18.9419 -51.7379 -175.418 
19.05 -51.6856 -175.418 
19.1581 -51.6333 -175.418 
19.2662 -51.581 -175.419 
19.3743 -51.5287 -175.419 
19.4824 -51.4764 -175.419 
19.5906 -51.4241 -175.419 
19.6987 -51.3718 -175.419 
19.7562 -51.2256 -175.426 
19.8643 -51.1733 -175.426 
19.9725 -51.121 -175.426 
20.0806 -51.0687 -175.426 
20.1887 -51.0164 -175.426 
20.2968 -50.9641 -175.427 
20.4049 -50.9118 -175.427 
20.5131 -50.8595 -175.427 
20.6212 -50.8072 -175.427 
20.7799 -50.8489 -175.421 
20.888 -50.7966 -175.421 
20.9961 -50.7443 -175.421 
21.1042 -50.692 -175.421 
21.2123 -50.6397 -175.422 
21.3204 -50.5874 -175.422 
21.4286 -50.5351 -175.422 
21.5367 -50.4828 -175.422 
21.6954 -50.5245 -175.416 
21.8035 -50.4722 -175.416 
21.9116 -50.4199 -175.416 
22.0197 -50.3676 -175.416 
22.1278 -50.3154 -175.417 
22.2865 -50.357 -175.41 
22.3946 -50.3047 -175.411 
22.5028 -50.2524 -175.411 
22.6109 -50.2001 -175.411 
22.7696 -50.2418 -175.405 
22.8777 -50.1895 -175.405 
22.9858 -50.1372 -175.405 
23.0939 -50.0849 -175.405 
23.202 -50.0327 -175.405 
23.3101 -49.9804 -175.406 
23.4183 -49.9281 -175.406 
23.5264 -49.8758 -175.406 
23.6345 -49.8235 -175.406 
23.7932 -49.8652 -175.4 
23.9013 -49.8129 -175.4 
24.0094 -49.7606 -175.4 
24.1681 -49.8022 -175.394 
24.3268 -49.8439 -175.388 
24.4349 -49.7916 -175.388 
24.5936 -49.8333 -175.382 
24.7523 -49.875 -175.376 
24.8604 -49.8227 -175.376 
25.0191 -49.8644 -175.37 
25.1272 -49.8121 -175.37 
25.2859 -49.8538 -175.364 
25.394 -49.8015 -175.364 
25.5021 -49.7492 -175.364 
25.6608 -49.7909 -175.358 
25.7689 -49.7386 -175.358 
25.877 -49.6863 -175.358 
26.0357 -49.7279 -175.352 
26.1944 -49.7696 -175.346 
26.3025 -49.7173 -175.346 
26.4612 -49.759 -175.34 
26.6199 -49.8007 -175.334 
26.7786 -49.8424 -175.327 
26.9373 -49.884 -175.321 
27.0454 -49.8317 -175.321 
27.2041 -49.8734 -175.315 
27.3628 -49.9151 -175.309 
27.4709 -49.8628 -175.309 
27.579 -49.8105 -175.309 
27.7377 -49.8522 -175.303 
27.8458 -49.7999 -175.303 
27.9539 -49.7476 -175.304 
28.1126 -49.7893 -175.297 
28.2207 -49.737 -175.298 
28.3288 -49.6847 -175.298 
28.4875 -49.7264 -175.292 
28.5957 -49.6741 -175.292 
28.7038 -49.6218 -175.292 
28.8625 -49.6635 -175.286 
28.9706 -49.6112 -175.286 
29.1293 -49.6528 -175.28 
29.2374 -49.6005 -175.28 
29.3455 -49.5483 -175.28 
29.5042 -49.5899 -175.274 
29.6123 -49.5376 -175.274 
29.7204 -49.4853 -175.274 
29.8285 -49.433 -175.274 
29.9872 -49.4747 -175.268 
30.0953 -49.4224 -175.268 
30.2035 -49.3701 -175.269 
30.3116 -49.3178 -175.269 
30.4197 -49.2656 -175.269 
30.5278 -49.2133 -175.269 
30.6865 -49.2549 -175.263 
30.7946 -49.2026 -175.263 
30.9027 -49.1504 -175.263 
31.0108 -49.0981 -175.263 
31.119 -49.0458 -175.264 
31.2271 -48.9935 -175.264 
31.3352 -48.9412 -175.264 
31.4433 -48.8889 -175.264 
31.5514 -48.8366 -175.264 
31.6595 -48.7843 -175.264 
31.7677 -48.732 -175.265 
31.8758 -48.6797 -175.265 
31.9839 -48.6274 -175.265 
32.092 -48.5751 -175.265 
32.2001 -48.5228 -175.265 
32.3083 -48.4705 -175.265 
32.4164 -48.4183 -175.266 
32.5245 -48.366 -175.266 
32.6326 -48.3137 -175.266 
32.7913 -48.3553 -175.26 
32.8994 -48.3031 -175.26 
33.0075 -48.2508 -175.26 
33.1662 -48.2924 -175.254 
33.2743 -48.2401 -175.254 
33.433 -48.2818 -175.248 
33.5917 -48.3235 -175.242 
33.6998 -48.2712 -175.242 
33.8585 -48.3129 -175.236 
33.9666 -48.2606 -175.236 
34.0747 -48.2083 -175.236 
34.2334 -48.25 -175.23 
34.3415 -48.1977 -175.23 
34.4497 -48.1454 -175.23 
34.5578 -48.0931 -175.23 
34.7165 -48.1348 -175.224 
34.8246 -48.0825 -175.224 
34.9327 -48.0302 -175.225 
35.0408 -47.9779 -175.225 
35.1995 -48.0196 -175.218 
35.3076 -47.9673 -175.219 
35.4157 -47.915 -175.219 
35.5744 -47.9567 -175.213 
35.6825 -47.9044 -175.213 
35.8412 -47.946 -175.207 
35.9493 -47.8937 -175.207 
36.0575 -47.8415 -175.207 
36.2162 -47.8831 -175.201 
36.3243 -47.8308 -175.201 
36.4324 -47.7785 -175.201 
36.5405 -47.7263 -175.201 
36.6992 -47.7679 -175.195 
36.8073 -47.7156 -175.195 
36.9154 -47.6633 -175.195 
37.0235 -47.611 -175.196 
37.1317 -47.5588 -175.196 
37.2398 -47.5065 -175.196 
37.3985 -47.5481 -175.19 
37.5066 -47.4958 -175.19 
37.6147 -47.4436 -175.19 
37.7228 -47.3913 -175.19 
37.8309 -47.339 -175.19 
37.939 -47.2867 -175.191 
38.0472 -47.2344 -175.191 
38.1553 -47.1821 -175.191 
38.2634 -47.1298 -175.191 
38.4221 -47.1715 -175.185 
38.5302 -47.1192 -175.185 
38.6383 -47.0669 -175.185 
38.7464 -47.0146 -175.185 
38.8546 -46.9623 -175.186 
38.9627 -46.91 -175.186 
39.0708 -46.8577 -175.186 
39.1789 -46.8054 -175.186 
39.3376 -46.8471 -175.18 
39.4457 -46.7948 -175.18 
39.5538 -46.7425 -175.18 
39.6619 -46.6902 -175.18 
39.7701 -46.6379 -175.181 
39.8782 -46.5856 -175.181 
39.9863 -46.5333 -175.181 
40.145 -46.575 -175.175 
40.2531 -46.5227 -175.175 
40.3612 -46.4704 -175.175 
40.4693 -46.4181 -175.175 
40.5775 -46.3658 -175.175 
40.6856 -46.3136 -175.176 
40.7937 -46.2613 -175.176 
40.9018 -46.209 -175.176 
41.0099 -46.1567 -175.176 
41.118 -46.1044 -175.176 
41.2262 -46.0521 -175.176 
41.3343 -45.9998 -175.177 
41.4424 -45.9475 -175.177 
41.5505 -45.8952 -175.177 
41.6586 -45.8429 -175.177 
41.7667 -45.7906 -175.177 
41.8749 -45.7383 -175.177 
41.983 -45.686 -175.178 
42.0911 -45.6337 -175.178 
42.1992 -45.5815 -175.178 
42.3073 -45.5292 -175.178 
42.4155 -45.4769 -175.178 
42.5236 -45.4246 -175.178 
42.6317 -45.3723 -175.179 
42.7398 -45.32 -175.179 
42.8479 -45.2677 -175.179 
42.956 -45.2154 -175.179 
43.0642 -45.1631 -175.179 
43.1723 -45.1108 -175.179 
43.2804 -45.0585 -175.18 
43.3885 -45.0062 -175.18 
43.4461 -44.86 -175.186 
43.5542 -44.8077 -175.186 
43.6623 -44.7554 -175.187 
43.7704 -44.7031 -175.187 
43.828 -44.5568 -175.193 
43.9361 -44.5045 -175.193 
44.0442 -44.4522 -175.194 
44.1017 -44.306 -175.2 
44.2099 -44.2537 -175.2 
44.318 -44.2014 -175.2 
44.4261 -44.1491 -175.201 
44.4836 -44.0028 -175.207 
44.5918 -43.9505 -175.207 
44.6999 -43.8982 -175.207 
44.808 -43.846 -175.208 
44.9161 -43.7937 -175.208 
44.9737 -43.6474 -175.214 
45.0818 -43.5951 -175.214 
45.1899 -43.5428 -175.215 
45.298 -43.4905 -175.215 
45.3556 -43.3443 -175.221 
45.4637 -43.292 -175.221 
45.5718 -43.2397 -175.222 
45.6293 -43.0934 -175.228 
45.7375 -43.0411 -175.228 
45.8456 -42.9888 -175.229 
45.9031 -42.8426 -175.235 
46.0112 -42.7903 -175.235 
46.1194 -42.738 -175.235 
46.1769 -42.5917 -175.242 
46.2345 -42.4455 -175.248 
46.3426 -42.3932 -175.249 
46.4001 -42.2469 -175.255 
46.5082 -42.1946 -175.255 
46.5658 -42.0483 -175.262 
46.6233 -41.9021 -175.268 
46.7315 -41.8498 -175.268 
46.789 -41.7035 -175.275 
46.8466 -41.5573 -175.281 
46.9547 -41.505 -175.282 
47.0122 -41.3587 -175.288 
47.1203 -41.3064 -175.288 
47.1779 -41.1601 -175.295 
47.286 -41.1079 -175.295 
47.3436 -40.9616 -175.301 
47.4517 -40.9093 -175.302 
47.5598 -40.857 -175.302 
47.6173 -40.7107 -175.308 
47.7255 -40.6585 -175.308 
47.783 -40.5122 -175.315 
47.8911 -40.4599 -175.315 
47.9487 -40.3136 -175.322 
48.0568 -40.2613 -175.322 
48.1143 -40.1151 -175.328 
48.1719 -39.9688 -175.335 
48.2294 -39.8225 -175.341 
48.287 -39.6763 -175.348 
48.3445 -39.53 -175.354 
48.4021 -39.3838 -175.361 
48.4596 -39.2375 -175.367 
48.5172 -39.0912 -175.374 
48.5747 -38.945 -175.38 
48.6323 -38.7987 -175.387 
48.6898 -38.6524 -175.393 
48.7979 -38.6002 -175.393 
48.8555 -38.4539 -175.4 
48.913 -38.3076 -175.406 
48.9706 -38.1614 -175.413 
49.0787 -38.1091 -175.413 
49.1363 -37.9628 -175.42 
49.1938 -37.8165 -175.426 
49.3019 -37.7643 -175.426 
49.3595 -37.618 -175.433 
49.417 -37.4717 -175.439 
49.4746 -37.3255 -175.446 
49.5827 -37.2732 -175.446 
49.6402 -37.1269 -175.453 
49.7483 -37.0746 -175.453 
49.8059 -36.9283 -175.459 
49.914 -36.8761 -175.459 
50.0221 -36.8238 -175.46 
0.72993 -61.891 -175.012 
0.849415 -61.8788 -175.012 
0.968898 -61.8667 -175.012 
1.08838 -61.8545 -175.012 
1.19248 -61.7367 -175.019 
1.31196 -61.7246 -175.019 
1.41606 -61.6068 -175.026 
1.53555 -61.5947 -175.026 
1.65503 -61.5825 -175.026 
1.75913 -61.4647 -175.032 
1.87861 -61.4526 -175.033 
1.98272 -61.3348 -175.039 
2.1022 -61.3227 -175.039 
2.20631 -61.2049 -175.046 
2.32579 -61.1927 -175.046 
2.44527 -61.1806 -175.046 
2.56475 -61.1684 -175.046 
2.68423 -61.1563 -175.046 
2.80372 -61.1441 -175.047 
2.9232 -61.1319 -175.047 
3.04268 -61.1198 -175.047 
3.16216 -61.1076 -175.047 
3.28165 -61.0954 -175.047 
3.40113 -61.0833 -175.047 
3.52061 -61.0711 -175.048 
3.64009 -61.059 -175.048 
3.75957 -61.0468 -175.048 
3.86368 -60.929 -175.054 
3.98316 -60.9169 -175.055 
4.10264 -60.9047 -175.055 
4.20675 -60.787 -175.061 
4.32623 -60.7748 -175.061 
4.44571 -60.7626 -175.062 
4.54981 -60.6449 -175.068 
4.65392 -60.5271 -175.075 
4.7734 -60.515 -175.075 
4.8775 -60.3972 -175.081 
4.99699 -60.385 -175.081 
5.10109 -60.2673 -175.088 
5.22057 -60.2551 -175.088 
5.34005 -60.243 -175.088 
5.44415 -60.1252 -175.095 
5.56364 -60.113 -175.095 
5.68312 -60.1009 -175.095 
5.78723 -59.9831 -175.102 
5.90671 -59.971 -175.102 
6.02619 -59.9588 -175.102 
6.13029 -59.841 -175.108 
6.2344 -59.7233 -175.115 
6.35388 -59.7111 -175.115 
6.45798 -59.5934 -175.122 
6.56208 -59.4756 -175.128 
6.68156 -59.4634 -175.128 
6.78567 -59.3457 -175.135 
6.88977 -59.2279 -175.141 
7.00925 -59.2158 -175.141 
7.12874 -59.2036 -175.142 
7.24822 -59.1914 -175.142 
7.3677 -59.1793 -175.142 
7.48718 -59.1671 -175.142 
7.60667 -59.155 -175.142 
7.72615 -59.1428 -175.142 
7.83025 -59.025 -175.149 
7.94973 -59.0129 -175.149 
8.05383 -58.8951 -175.156 
8.17332 -58.883 -175.156 
8.27742 -58.7652 -175.162 
8.38152 -58.6474 -175.169 
8.48562 -58.5297 -175.175 
8.58973 -58.4119 -175.182 
8.70921 -58.3998 -175.182 
8.81331 -58.282 -175.188 
8.9328 -58.2698 -175.189 
9.0369 -58.1521 -175.195 
9.15638 -58.1399 -175.195 
9.27586 -58.1278 -175.195 
9.39535 -58.1156 -175.196 
9.51483 -58.1034 -175.196 
9.61893 -57.9857 -175.202 
9.73842 -57.9735 -175.202 
9.84252 -57.8558 -175.209 
9.962 -57.8436 -175.209 
10.0661 -57.7258 -175.216 
10.1702 -57.6081 -175.222 
10.2743 -57.4903 -175.229 
10.3784 -57.3726 -175.235 
10.4979 -57.3604 -175.235 
10.602 -57.2426 -175.242 
10.7061 -57.1249 -175.248 
10.8256 -57.1127 -175.249 
10.9451 -57.1006 -175.249 
11.0492 -56.9828 -175.255 
11.1686 -56.9706 -175.255 
11.2881 -56.9585 -175.256 
11.3922 -56.8407 -175.262 
11.5117 -56.8286 -175.262 
11.6312 -56.8164 -175.262 
11.7353 -56.6986 -175.269 
11.8548 -56.6865 -175.269 
11.9589 -56.5687 -175.276 
12.0784 -56.5566 -175.276 
12.1825 -56.4388 -175.282 
12.302 -56.4266 -175.282 
12.4061 -56.3089 -175.289 
12.5102 -56.1911 -175.295 
12.6296 -56.179 -175.296 
12.7337 -56.0612 -175.302 
12.8379 -55.9434 -175.309 
12.9573 -55.9313 -175.309 
13.0614 -55.8135 -175.315 
13.1655 -55.6958 -175.322 
13.285 -55.6836 -175.322 
13.4045 -55.6714 -175.322 
13.5086 -55.5537 -175.329 
13.6281 -55.5415 -175.329 
13.7476 -55.5294 -175.329 
13.8517 -55.4116 -175.335 
13.9712 -55.3994 -175.336 
14.0753 -55.2817 -175.342 
14.1947 -55.2695 -175.342 
14.2988 -55.1517 -175.349 
14.4183 -55.1396 -175.349 
14.5224 -55.0218 -175.355 
14.6265 -54.9041 -175.362 
14.746 -54.8919 -175.362 
14.8501 -54.7742 -175.369 
14.9542 -54.6564 -175.375 
15.0583 -54.5386 -175.382 
15.1624 -54.4209 -175.388 
15.2665 -54.3031 -175.395 
15.3706 -54.1854 -175.401 
15.4901 -54.1732 -175.401 
15.5942 -54.0554 -175.408 
15.6983 -53.9377 -175.414 
15.8178 -53.9255 -175.415 
15.9219 -53.8078 -175.421 
16.026 -53.69 -175.428 
16.1455 -53.6778 -175.428 
16.265 -53.6657 -175.428 
16.3691 -53.5479 -175.434 
16.4886 -53.5358 -175.435 
16.5927 -53.418 -175.441 
16.7121 -53.4058 -175.441 
16.8162 -53.2881 -175.448 
16.9204 -53.1703 -175.454 
17.0245 -53.0526 -175.461 
17.1439 -53.0404 -175.461 
17.248 -52.9226 -175.467 
17.3521 -52.8049 -175.474 
17.4562 -52.6871 -175.48 
17.5603 -52.5694 -175.487 
17.6645 -52.4516 -175.493 
17.7686 -52.3338 -175.5 
17.888 -52.3217 -175.5 
17.9921 -52.2039 -175.507 
18.0962 -52.0862 -175.513 
18.2157 -52.074 -175.513 
18.3198 -51.9562 -175.52 
18.4393 -51.9441 -175.52 
18.5434 -51.8263 -175.526 
18.6475 -51.7086 -175.533 
18.767 -51.6964 -175.533 
18.8711 -51.5786 -175.54 
18.9752 -51.4609 -175.546 
19.0947 -51.4487 -175.546 
19.1988 -51.331 -175.553 
19.3029 -51.2132 -175.559 
19.4224 -51.201 -175.559 
19.5419 -51.1889 -175.56 
19.646 -51.0711 -175.566 
19.7654 -51.059 -175.566 
19.8849 -51.0468 -175.566 
20.0044 -51.0346 -175.567 
20.1085 -50.9169 -175.573 
20.228 -50.9047 -175.573 
20.3475 -50.8926 -175.573 
20.467 -50.8804 -175.574 
20.5711 -50.7626 -175.58 
20.6905 -50.7505 -175.58 
20.81 -50.7383 -175.58 
20.9295 -50.7262 -175.581 
21.0336 -50.6084 -175.587 
21.1531 -50.5962 -175.587 
21.2726 -50.5841 -175.587 
21.3921 -50.5719 -175.588 
21.5115 -50.5598 -175.588 
21.631 -50.5476 -175.588 
21.7505 -50.5354 -175.588 
21.87 -50.5233 -175.588 
21.9895 -50.5111 -175.588 
22.109 -50.499 -175.589 
22.2284 -50.4868 -175.589 
22.3479 -50.4746 -175.589 
22.452 -50.3569 -175.595 
22.5715 -50.3447 -175.596 
22.6756 -50.2269 -175.602 
22.7951 -50.2148 -175.602 
22.9146 -50.2026 -175.602 
23.0187 -50.0849 -175.609 
23.1382 -50.0727 -175.609 
23.2576 -50.0605 -175.609 
23.3771 -50.0484 -175.609 
23.4966 -50.0362 -175.61 
23.6161 -50.0241 -175.61 
23.7356 -50.0119 -175.61 
23.8551 -49.9997 -175.61 
23.9745 -49.9876 -175.61 
24.094 -49.9754 -175.61 
24.2135 -49.9633 -175.611 
24.333 -49.9511 -175.611 
24.4371 -49.8333 -175.617 
24.5566 -49.8212 -175.617 
24.676 -49.809 -175.618 
24.7955 -49.7969 -175.618 
24.915 -49.7847 -175.618 
25.0345 -49.7725 -175.618 
25.154 -49.7604 -175.618 
25.2888 -49.8538 -175.612 
25.4083 -49.8416 -175.612 
25.5432 -49.9351 -175.606 
25.678 -50.0285 -175.6 
25.7975 -50.0164 -175.6 
25.9324 -50.1098 -175.594 
26.0519 -50.0976 -175.594 
26.1714 -50.0855 -175.594 
26.2908 -50.0733 -175.594 
26.4103 -50.0612 -175.595 
26.5298 -50.049 -175.595 
26.6493 -50.0368 -175.595 
26.7688 -50.0247 -175.595 
26.8729 -49.9069 -175.602 
26.9923 -49.8948 -175.602 
27.1118 -49.8826 -175.602 
27.2313 -49.8704 -175.602 
27.3508 -49.8583 -175.602 
27.4703 -49.8461 -175.602 
27.5898 -49.8339 -175.603 
27.7092 -49.8218 -175.603 
27.8287 -49.8096 -175.603 
27.9482 -49.7975 -175.603 
28.0677 -49.7853 -175.603 
28.2026 -49.8787 -175.597 
28.322 -49.8666 -175.597 
28.4415 -49.8544 -175.597 
28.561 -49.8423 -175.598 
28.6959 -49.9357 -175.591 
28.8153 -49.9235 -175.592 
28.9348 -49.9114 -175.592 
29.0543 -49.8992 -175.592 
29.1738 -49.8871 -175.592 
29.2933 -49.8749 -175.592 
29.4128 -49.8627 -175.592 
29.5322 -49.8506 -175.593 
29.6517 -49.8384 -175.593 
29.7712 -49.8263 -175.593 
29.8907 -49.8141 -175.593 
30.0102 -49.8019 -175.593 
30.1297 -49.7898 -175.593 
30.2491 -49.7776 -175.594 
30.3686 -49.7654 -175.594 
30.5035 -49.8589 -175.588 
30.6076 -49.7411 -175.594 
30.7271 -49.729 -175.594 
30.8465 -49.7168 -175.594 
30.966 -49.7046 -175.595 
31.0701 -49.5869 -175.601 
31.1742 -49.4691 -175.608 
31.2783 -49.3514 -175.614 
31.3978 -49.3392 -175.614 
31.5019 -49.2214 -175.621 
31.606 -49.1037 -175.627 
31.7255 -49.0915 -175.628 
31.845 -49.0794 -175.628 
31.9645 -49.0672 -175.628 
32.084 -49.055 -175.628 
32.2034 -49.0429 -175.628 
32.3229 -49.0307 -175.628 
32.4424 -49.0186 -175.628 
32.5619 -49.0064 -175.629 
32.6814 -48.9942 -175.629 
32.8008 -48.9821 -175.629 
32.9203 -48.9699 -175.629 
33.0398 -48.9578 -175.629 
33.1439 -48.84 -175.636 
33.2634 -48.8278 -175.636 
33.3829 -48.8157 -175.636 
33.5024 -48.8035 -175.636 
33.6065 -48.6857 -175.643 
33.726 -48.6736 -175.643 
33.8454 -48.6614 -175.643 
33.9649 -48.6493 -175.643 
-17.319 -43.1526 -175.937 
-17.2026 -43.1821 -175.937 
-17.1078 -43.316 -175.931 
-17.013 -43.4499 -175.925 
-16.9399 -43.6883 -175.913 
-16.8668 -43.9267 -175.9 
-16.772 -44.0607 -175.894 
-16.6989 -44.2991 -175.881 
-16.6042 -44.433 -175.875 
-16.531 -44.6714 -175.863 
-16.4363 -44.8054 -175.857 
-16.3415 -44.9393 -175.85 
-16.2467 -45.0732 -175.844 
-16.152 -45.2071 -175.838 
-16.0572 -45.3411 -175.832 
-15.9624 -45.475 -175.826 
-15.8676 -45.6089 -175.82 
-15.7729 -45.7429 -175.813 
-15.6781 -45.8768 -175.807 
-15.5833 -46.0107 -175.801 
-15.5102 -46.2491 -175.788 
-15.4155 -46.3831 -175.782 
-15.3207 -46.517 -175.776 
-15.2259 -46.6509 -175.77 
-15.1311 -46.7849 -175.764 
-15.0364 -46.9188 -175.758 
-14.9416 -47.0527 -175.751 
-14.8468 -47.1866 -175.745 
-14.752 -47.3206 -175.739 
-14.6573 -47.4545 -175.733 
-14.5625 -47.5884 -175.727 
-14.4677 -47.7223 -175.721 
-14.373 -47.8563 -175.714 
-14.2782 -47.9902 -175.708 
-14.1834 -48.1241 -175.702 
-14.1103 -48.3625 -175.69 
-14.0155 -48.4965 -175.683 
-13.9208 -48.6304 -175.677 
-13.826 -48.7643 -175.671 
-13.7312 -48.8983 -175.665 
-13.6365 -49.0322 -175.659 
-13.5417 -49.1661 -175.653 
-13.4253 -49.1956 -175.653 
-13.3305 -49.3295 -175.647 
-13.2357 -49.4634 -175.64 
-13.1193 -49.4928 -175.641 
-13.0245 -49.6268 -175.634 
-12.9297 -49.7607 -175.628 
-12.835 -49.8946 -175.622 
-12.7402 -50.0286 -175.616 
-12.6454 -50.1625 -175.61 
-12.5506 -50.2964 -175.604 
-12.4559 -50.4303 -175.597 
-12.3611 -50.5643 -175.591 
-12.2663 -50.6982 -175.585 
-12.1716 -50.8321 -175.579 
-12.0768 -50.9661 -175.573 
-11.982 -51.1 -175.566 
-11.8872 -51.2339 -175.56 
-11.7708 -51.2633 -175.56 
-11.676 -51.3973 -175.554 
-11.5813 -51.5312 -175.548 
-11.4865 -51.6651 -175.542 
-11.3917 -51.7991 -175.536 
-11.297 -51.933 -175.53 
-11.2022 -52.0669 -175.523 
-11.1291 -52.3053 -175.511 
-11.0343 -52.4393 -175.505 
-10.9395 -52.5732 -175.499 
-10.8664 -52.8116 -175.486 
-10.7717 -52.9455 -175.48 
-10.6769 -53.0795 -175.474 
-10.5821 -53.2134 -175.468 
-10.4873 -53.3473 -175.461 
-10.3926 -53.4813 -175.455 
-10.2761 -53.5107 -175.455 
-10.1814 -53.6446 -175.449 
-10.0866 -53.7785 -175.443 
-9.97016 -53.808 -175.443 
-9.87538 -53.9419 -175.437 
-9.78061 -54.0758 -175.431 
-9.68584 -54.2098 -175.425 
-9.56941 -54.2392 -175.425 
-9.47464 -54.3731 -175.419 
-9.37987 -54.5071 -175.413 
-9.28509 -54.641 -175.406 
-9.19032 -54.7749 -175.4 
-9.09555 -54.9088 -175.394 
-9.00078 -55.0428 -175.388 
-8.90601 -55.1767 -175.382 
-8.81124 -55.3106 -175.375 
-8.71646 -55.4446 -175.369 
-8.62169 -55.5785 -175.363 
-8.52692 -55.7124 -175.357 
-8.43215 -55.8463 -175.351 
-8.33738 -55.9803 -175.345 
-8.24261 -56.1142 -175.338 
-8.14784 -56.2481 -175.332 
-8.05307 -56.3821 -175.326 
-7.93663 -56.4115 -175.326 
-7.84186 -56.5454 -175.32 
-7.74709 -56.6793 -175.314 
-7.63065 -56.7088 -175.314 
-7.53588 -56.8427 -175.308 
-7.44111 -56.9766 -175.302 
-7.32467 -57.0061 -175.302 
-7.2299 -57.14 -175.296 
-7.11347 -57.1694 -175.296 
-7.01869 -57.3034 -175.29 
-6.90226 -57.3328 -175.29 
-6.80749 -57.4667 -175.284 
-6.71271 -57.6007 -175.278 
-6.61794 -57.7346 -175.271 
-6.52317 -57.8685 -175.265 
-6.45007 -58.1069 -175.253 
-6.35529 -58.2409 -175.247 
-6.28219 -58.4793 -175.234 
-6.18742 -58.6132 -175.228 
-6.11431 -58.8516 -175.215 
-6.01954 -58.9856 -175.209 
-5.92477 -59.1195 -175.203 
-5.85166 -59.3579 -175.19 
-5.75689 -59.4918 -175.184 
-5.66212 -59.6258 -175.178 
-5.56735 -59.7597 -175.172 
-5.47258 -59.8936 -175.166 
-5.35614 -59.9231 -175.166 
-5.26137 -60.057 -175.16 
-5.14493 -60.0864 -175.16 
-5.05016 -60.2204 -175.154 
-4.93373 -60.2498 -175.154 
-4.81729 -60.2792 -175.154 
-4.70085 -60.3087 -175.154 
-4.58442 -60.3381 -175.154 
-4.48964 -60.472 -175.148 
-4.37321 -60.5015 -175.148 
-4.27844 -60.6354 -175.142 
-4.162 -60.6648 -175.142 
-4.06723 -60.7988 -175.136 
-3.97246 -60.9327 -175.13 
-3.87769 -61.0666 -175.124 
-3.78292 -61.2006 -175.118 
-3.66648 -61.23 -175.118 
-3.57171 -61.3639 -175.112 
-3.47694 -61.4978 -175.106 
-3.3605 -61.5273 -175.106 
-3.24407 -61.5567 -175.106 
-3.1493 -61.6906 -175.1 
-3.03286 -61.7201 -175.1 
-2.91642 -61.7495 -175.1 
-2.79999 -61.779 -175.1 
-2.68355 -61.8084 -175.1 
-2.56711 -61.8378 -175.101 
-2.45068 -61.8673 -175.101 
-2.33424 -61.8967 -175.101 
-2.21781 -61.9261 -175.101 
-2.10137 -61.9556 -175.101 
-1.98493 -61.985 -175.101 
-1.8685 -62.0145 -175.102 
-1.75206 -62.0439 -175.102 
-1.63563 -62.0733 -175.102 
-1.54085 -62.2073 -175.096 
-1.42442 -62.2367 -175.096 
-1.30798 -62.2661 -175.096 
-1.21321 -62.4001 -175.09 
-1.09677 -62.4295 -175.09 
-0.980339 -62.4589 -175.09 
-0.863901 -62.4884 -175.09 
-0.747464 -62.5178 -175.091 
-0.63103 -62.5473 -175.091 
-0.49293 -62.4722 -175.097 
-0.376492 -62.5016 -175.097 
-0.238391 -62.4266 -175.104 
-0.121957 -62.456 -175.104 
0.0161448 -62.381 -175.111 
0.132582 -62.4104 -175.111 
0.249019 -62.4398 -175.111 
0.387121 -62.3648 -175.117 
0.503554 -62.3942 -175.118 
0.61999 -62.4237 -175.118 
0.758088 -62.3486 -175.124 
0.874526 -62.3781 -175.124 
1.01263 -62.303 -175.131 
1.15073 -62.228 -175.137 
1.28883 -62.1529 -175.144 
1.4486 -61.9734 -175.157 
1.5867 -61.8983 -175.163 
1.74646 -61.7188 -175.176 
1.88456 -61.6437 -175.183 
2.04433 -61.4642 -175.195 
2.18243 -61.3891 -175.202 
2.32053 -61.3141 -175.208 
2.45863 -61.239 -175.215 
2.57507 -61.2685 -175.215 
2.71316 -61.1934 -175.222 
2.8296 -61.2228 -175.222 
2.94604 -61.2523 -175.222 
3.06248 -61.2817 -175.222 
3.20058 -61.2067 -175.229 
3.31701 -61.2361 -175.229 
3.45512 -61.161 -175.235 
3.57155 -61.1905 -175.236 
3.70965 -61.1154 -175.242 
3.84775 -61.0404 -175.249 
3.98585 -60.9653 -175.255 
4.12395 -60.8903 -175.262 
4.26206 -60.8152 -175.268 
4.40015 -60.7402 -175.275 
4.53825 -60.6651 -175.281 
4.67636 -60.5901 -175.288 
4.79279 -60.6195 -175.288 
4.93089 -60.5445 -175.294 
5.06899 -60.4694 -175.301 
5.20709 -60.3943 -175.307 
5.34519 -60.3193 -175.314 
5.4833 -60.2442 -175.32 
5.6214 -60.1692 -175.327 
5.78116 -59.9897 -175.34 
5.91926 -59.9146 -175.346 
6.05736 -59.8395 -175.353 
6.21713 -59.66 -175.365 
6.35523 -59.5849 -175.372 
6.49333 -59.5099 -175.378 
6.63143 -59.4348 -175.385 
6.76954 -59.3598 -175.391 
6.88597 -59.3892 -175.392 
7.02407 -59.3142 -175.398 
7.14051 -59.3436 -175.398 
7.27861 -59.2686 -175.405 
7.39504 -59.298 -175.405 
7.53314 -59.223 -175.411 
7.67124 -59.1479 -175.418 
7.80935 -59.0728 -175.424 
7.94745 -58.9978 -175.431 
8.10721 -58.8182 -175.444 
8.24531 -58.7432 -175.45 
8.40508 -58.5637 -175.463 
8.54318 -58.4886 -175.47 
8.70294 -58.3091 -175.483 
8.84104 -58.234 -175.489 
8.97915 -58.159 -175.496 
9.11725 -58.0839 -175.502 
9.27701 -57.9044 -175.515 
9.41512 -57.8293 -175.521 
9.53155 -57.8587 -175.522 
9.66965 -57.7837 -175.528 
9.80775 -57.7086 -175.535 
9.94585 -57.6336 -175.541 
10.0839 -57.5585 -175.548 
10.2221 -57.4835 -175.554 
10.3385 -57.5129 -175.554 
10.4766 -57.4379 -175.561 
10.6147 -57.3628 -175.567 
10.7528 -57.2878 -175.574 
10.8909 -57.2127 -175.58 
11.029 -57.1377 -175.587 
11.1671 -57.0626 -175.593 
11.3052 -56.9876 -175.6 
11.4433 -56.9125 -175.606 
11.5814 -56.8375 -175.613 
11.7195 -56.7624 -175.619 
11.8793 -56.5829 -175.632 
12.0174 -56.5078 -175.639 
12.1555 -56.4328 -175.645 
12.2936 -56.3577 -175.652 
12.4317 -56.2826 -175.658 
12.5698 -56.2076 -175.665 
12.7295 -56.0281 -175.678 
12.8676 -55.953 -175.684 
13.0057 -55.8779 -175.691 
13.1438 -55.8029 -175.697 
13.2819 -55.7278 -175.704 
13.42 -55.6528 -175.71 
13.5581 -55.5777 -175.717 
13.6962 -55.5027 -175.723 
13.856 -55.3232 -175.736 
13.9941 -55.2481 -175.742 
14.1539 -55.0686 -175.755 
14.3136 -54.889 -175.768 
14.4734 -54.7095 -175.781 
14.6332 -54.5299 -175.794 
14.8146 -54.2459 -175.813 
14.996 -53.9619 -175.832 
15.1775 -53.6778 -175.851 
15.3589 -53.3938 -175.871 
15.5187 -53.2142 -175.883 
15.7001 -52.9302 -175.903 
15.8599 -52.7507 -175.915 
15.998 -52.6756 -175.922 
16.1361 -52.6006 -175.928 
16.2742 -52.5255 -175.935 
