ply
format ascii 1.0
comment VCGLIB generated
element vertex 1111
property float x
property float y
property float z
element face 0
property list uchar int vertex_indices
end_header
15.0501 -11.268 -26.7368
15.2705 -11.1719 -26.7371
15.3405 -11.0925 -26.7385
15.4909 -11.0757 -26.7375
15.5609 -10.9964 -26.7388
15.5503 -10.8546 -26.7426
15.6202 -10.7753 -26.744
15.6097 -10.6335 -26.7478
15.6796 -10.5542 -26.7491
15.7496 -10.4749 -26.7505
15.8195 -10.3956 -26.7519
15.8895 -10.3162 -26.7532
15.9594 -10.2369 -26.7546
16.0293 -10.1576 -26.756
16.0993 -10.0783 -26.7573
16.1692 -9.99899 -26.7587
16.2392 -9.91967 -26.7601
16.3091 -9.84036 -26.7614
16.3791 -9.76104 -26.7628
16.449 -9.68173 -26.7642
16.5995 -9.66488 -26.7631
16.5889 -9.5231 -26.7669
16.6588 -9.44378 -26.7682
16.7288 -9.36447 -26.7696
16.7987 -9.28515 -26.771
16.7882 -9.14338 -26.7748
16.8581 -9.06406 -26.7761
16.928 -8.98475 -26.7775
16.998 -8.90543 -26.7789
17.0679 -8.82612 -26.7802
17.0574 -8.68434 -26.784
17.0468 -8.54256 -26.7878
17.0362 -8.40078 -26.7916
17.0257 -8.259 -26.7954
17.0151 -8.11722 -26.7992
17.0046 -7.97544 -26.803
17.0745 -7.89612 -26.8043
17.1444 -7.81681 -26.8057
17.2144 -7.73749 -26.8071
17.2038 -7.59571 -26.8109
17.2738 -7.51639 -26.8122
17.3437 -7.43708 -26.8136
17.3332 -7.2953 -26.8174
17.3226 -7.15352 -26.8212
17.312 -7.01174 -26.825
17.382 -6.93243 -26.8263
17.3714 -6.79065 -26.8301
17.3609 -6.64887 -26.8339
17.1893 -6.38215 -26.8425
17.0982 -6.17791 -26.8488
17.1682 -6.0986 -26.8501
17.1576 -5.95682 -26.8539
17.147 -5.81504 -26.8577
17.1365 -5.67325 -26.8615
16.2687 -4.35445 -26.7514
16.3906 -4.26464 -26.7504
16.4115 -4.16097 -26.7518
16.4324 -4.05732 -26.7531
16.4533 -3.95366 -26.7545
16.4742 -3.85 -26.7559
16.3942 -3.73249 -26.7596
16.4151 -3.62883 -26.761
16.3351 -3.51133 -26.7648
16.255 -3.39382 -26.7686
16.2759 -3.29016 -26.77
16.1959 -3.17266 -26.7737
16.2168 -3.069 -26.7751
16.1368 -2.95149 -26.7789
16.1577 -2.84783 -26.7803
16.0777 -2.73033 -26.7841
15.9976 -2.61282 -26.7879
16.0185 -2.50916 -26.7892
15.9385 -2.39166 -26.793
15.7575 -2.26031 -26.7992
15.6775 -2.14281 -26.803
15.5974 -2.0253 -26.8068
15.6184 -1.92164 -26.8082
15.6393 -1.81798 -26.8095
15.5592 -1.70048 -26.8133
15.5801 -1.59682 -26.8147
15.5001 -1.47931 -26.8185
15.3191 -1.34796 -26.8247
15.2391 -1.23046 -26.8285
15.26 -1.1268 -26.8298
15.18 -1.00929 -26.8336
15.2009 -0.905634 -26.835
15.1208 -0.788128 -26.8388
15.0408 -0.670625 -26.8426
14.9608 -0.553118 -26.8464
14.9817 -0.449458 -26.8477
14.9016 -0.331955 -26.8515
14.9226 -0.228295 -26.8529
14.8425 -0.110792 -26.8567
14.8634 -0.00712991 -26.858
14.8844 0.0965297 -26.8594
14.8043 0.214037 -26.8632
14.8252 0.317693 -26.8646
14.7452 0.435198 -26.8683
14.6652 0.552704 -26.8721
14.6861 0.656363 -26.8735
14.606 0.773869 -26.8773
14.627 0.877528 -26.8787
14.5469 0.995033 -26.8824
14.5678 1.09869 -26.8838
14.4878 1.2162 -26.8876
14.4078 1.3337 -26.8914
14.4287 1.43736 -26.8928
14.4496 1.54102 -26.8941
14.4705 1.64468 -26.8955
14.3905 1.76219 -26.8993
14.3104 1.87969 -26.9031
14.2304 1.99719 -26.9069
14.2513 2.10085 -26.9082
14.1713 2.21836 -26.912
14.1922 2.32202 -26.9134
14.2131 2.42568 -26.9147
14.234 2.52934 -26.9161
14.2549 2.633 -26.9175
14.2758 2.73666 -26.9188
14.2968 2.84032 -26.9202
14.3177 2.94398 -26.9216
14.2376 3.06149 -26.9254
14.1576 3.17899 -26.9292
14.0776 3.2965 -26.9329
14.0985 3.40016 -26.9343
14.0184 3.51766 -26.9381
14.0394 3.62132 -26.9395
14.0603 3.72498 -26.9408
14.0812 3.82864 -26.9422
14.0012 3.94614 -26.946
14.0221 4.0498 -26.9474
13.942 4.16731 -26.9511
13.862 4.28481 -26.9549
13.782 4.40232 -26.9587
13.8029 4.50598 -26.9601
13.8238 4.60964 -26.9615
13.8447 4.7133 -26.9628
13.8656 4.81696 -26.9642
13.7856 4.93446 -26.968
13.8065 5.03812 -26.9693
13.8274 5.14179 -26.9707
13.7474 5.25929 -26.9745
13.7683 5.36295 -26.9759
13.7892 5.46661 -26.9772
13.8101 5.57027 -26.9786
13.831 5.67393 -26.9799
13.8519 5.77759 -26.9813
13.8729 5.88125 -26.9827
13.8938 5.98491 -26.9841
13.9147 6.08857 -26.9854
13.9356 6.19223 -26.9868
13.9565 6.29589 -26.9882
13.9774 6.39955 -26.9895
13.9984 6.50321 -26.9909
14.0193 6.60687 -26.9922
14.0402 6.71053 -26.9936
14.0611 6.81419 -26.995
14.082 6.91785 -26.9964
14.1029 7.02151 -26.9977
14.1238 7.12517 -26.9991
14.0438 7.24267 -27.0029
14.0647 7.34633 -27.0042
14.0856 7.45 -27.0056
14.1066 7.55365 -27.007
14.1275 7.65732 -27.0083
14.1484 7.76098 -27.0097
14.1693 7.86463 -27.0111
14.1902 7.9683 -27.0124
14.2111 8.07196 -27.0138
14.333 8.16177 -27.0127
14.4549 8.25159 -27.0117
14.4758 8.35525 -27.013
14.4967 8.45891 -27.0144
14.5176 8.56257 -27.0158
14.5385 8.66623 -27.0172
14.4585 8.78373 -27.0209
14.3785 8.90124 -27.0247
15.7821 -1.53341 -26.7389
15.7484 -1.43318 -26.7402
15.7147 -1.33295 -26.7416
15.681 -1.23272 -26.743
15.5529 -1.17098 -26.7468
15.5192 -1.07075 -26.7481
15.4855 -0.970517 -26.7495
15.4518 -0.870288 -26.7509
15.4181 -0.770059 -26.7522
15.3843 -0.669829 -26.7536
15.3506 -0.569598 -26.755
15.3169 -0.469368 -26.7563
15.2832 -0.369138 -26.7577
15.2495 -0.268908 -26.7591
15.3101 -0.130191 -26.758
15.2764 -0.0299625 -26.7594
15.2427 0.0702677 -26.7607
15.209 0.170497 -26.7621
15.1752 0.270727 -26.7635
15.1415 0.370958 -26.7648
15.0135 0.432701 -26.7686
14.9797 0.53293 -26.77
14.946 0.633161 -26.7714
15.0067 0.771877 -26.7703
14.9729 0.872107 -26.7717
14.9392 0.972338 -26.773
14.9055 1.07257 -26.7744
14.8718 1.1728 -26.7758
14.8381 1.27303 -26.7771
14.8044 1.37326 -26.7785
14.7706 1.47349 -26.7799
14.7369 1.57372 -26.7812
14.7032 1.67395 -26.7826
14.7638 1.81266 -26.7815
14.7301 1.91289 -26.7829
14.6964 2.01312 -26.7843
14.6627 2.11335 -26.7856
14.5346 2.17509 -26.7894
14.5009 2.27533 -26.7908
14.4672 2.37556 -26.7922
14.4335 2.47579 -26.7935
14.3997 2.57601 -26.7949
14.366 2.67624 -26.7963
14.4267 2.81496 -26.7952
14.393 2.91519 -26.7966
14.3592 3.01542 -26.7979
14.3255 3.11565 -26.7993
14.2918 3.21588 -26.8007
14.2581 3.31611 -26.802
14.2244 3.41634 -26.8034
14.1906 3.51657 -26.8048
14.1569 3.6168 -26.8061
14.1232 3.71703 -26.8075
14.0895 3.81726 -26.8089
14.0558 3.91749 -26.8102
14.1164 4.05621 -26.8092
14.0827 4.15644 -26.8105
14.049 4.25667 -26.8119
14.1096 4.39538 -26.8109
14.0759 4.49561 -26.8122
14.0422 4.59584 -26.8136
14.0085 4.69607 -26.8149
13.9747 4.7963 -26.8163
13.941 4.89653 -26.8177
13.9073 4.99676 -26.819
13.9679 5.13548 -26.818
13.9342 5.23571 -26.8194
13.9005 5.33594 -26.8207
13.9611 5.47465 -26.8197
13.9274 5.57489 -26.821
13.9881 5.7136 -26.82
13.9543 5.81383 -26.8213
14.015 5.95255 -26.8203
13.9812 6.05278 -26.8216
14.0419 6.19149 -26.8206
14.0082 6.29172 -26.8219
13.9744 6.39195 -26.8233
13.9407 6.49218 -26.8247
13.907 6.59241 -26.826
13.8733 6.69264 -26.8274
13.8396 6.79287 -26.8288
13.8059 6.8931 -26.8302
13.7721 6.99333 -26.8315
13.8328 7.13205 -26.8305
13.8934 7.27077 -26.8294
13.954 7.40948 -26.8283
13.9203 7.50971 -26.8297
13.981 7.64843 -26.8286
13.9472 7.74866 -26.83
14.0079 7.88737 -26.829
13.9742 7.9876 -26.8303
14.0348 8.12632 -26.8293
14.0011 8.22655 -26.8306
13.9674 8.32678 -26.832
14.028 8.4655 -26.8309
13.9943 8.56573 -26.8323
14.0549 8.70444 -26.8313
14.0212 8.80467 -26.8326
13.9875 8.9049 -26.834
14.0481 9.04362 -26.8329
14.0144 9.14385 -26.8343
13.9807 9.24408 -26.8357
13.9469 9.34431 -26.837
14.1963 9.56 -26.8311
14.2569 9.69872 -26.8301
14.2232 9.79894 -26.8314
14.1895 9.89917 -26.8328
14.1558 9.9994 -26.8342
14.0277 10.0611 -26.838
13.994 10.1614 -26.8393
13.9603 10.2616 -26.8407
13.8322 10.3234 -26.8445
13.7985 10.4236 -26.8458
13.6704 10.4853 -26.8496
13.5423 10.5471 -26.8534
13.5086 10.6473 -26.8548
13.4749 10.7475 -26.8562
13.3468 10.8093 -26.8599
13.3131 10.9095 -26.8613
13.1851 10.9712 -26.8651
13.057 11.033 -26.8689
12.9289 11.0947 -26.8727
12.5178 11.041 -26.8837
12.2011 11.0258 -26.8924
11.6956 10.9336 -26.9059
11.6619 11.0338 -26.9072
11.6282 11.134 -26.9086
11.5944 11.2343 -26.9099
11.5607 11.3345 -26.9113
11.527 11.4347 -26.9127
11.4933 11.535 -26.914
11.3652 11.5967 -26.9178
11.3315 11.6969 -26.9192
10.826 11.6047 -26.9327
10.7923 11.705 -26.9341
10.7586 11.8052 -26.9354
10.6305 11.8669 -26.9392
10.5968 11.9672 -26.9406
10.5631 12.0674 -26.9419
10.435 12.1291 -26.9457
10.4013 12.2294 -26.9471
10.2733 12.2911 -26.9509
17.6206 -4.65313 -26.7675
17.6038 -4.50268 -26.7665
17.5244 -4.43274 -26.7679
17.4451 -4.36279 -26.7692
17.3658 -4.29285 -26.7706
17.349 -4.14241 -26.7695
17.2696 -4.07246 -26.7709
17.1903 -4.00252 -26.7723
17.1735 -3.85207 -26.7712
17.0942 -3.78213 -26.7726
17.0773 -3.63168 -26.7715
17.1854 -3.32022 -26.7656
17.1685 -3.16977 -26.7646
17.0892 -3.09983 -26.7659
17.0724 -2.94938 -26.7649
16.9931 -2.87944 -26.7662
16.9762 -2.72899 -26.7652
16.8969 -2.65905 -26.7665
16.8801 -2.5086 -26.7655
16.8007 -2.43866 -26.7668
16.7214 -2.36871 -26.7682
16.6421 -2.29877 -26.7696
16.5628 -2.22883 -26.7709
16.4835 -2.15889 -26.7723
16.4042 -2.08894 -26.7737
16.3249 -2.019 -26.775
16.2455 -1.94906 -26.7764
16.2287 -1.79861 -26.7753
16.1494 -1.72866 -26.7767
16.1325 -1.57822 -26.7757
16.0532 -1.50828 -26.777
15.9739 -1.43833 -26.7784
15.8946 -1.36839 -26.7798
15.8153 -1.29844 -26.7811
15.7984 -1.14799 -26.7801
15.7816 -0.997551 -26.779
15.7647 -0.847102 -26.778
15.7479 -0.696651 -26.7769
15.6686 -0.626707 -26.7783
15.5892 -0.556763 -26.7796
15.5099 -0.486823 -26.781
15.4931 -0.336374 -26.7799
15.4138 -0.266431 -26.7813
15.3344 -0.196487 -26.7827
15.2551 -0.126544 -26.784
15.2383 0.0239029 -26.783
15.159 0.0938463 -26.7843
15.1421 0.244295 -26.7833
15.1253 0.394743 -26.7822
15.2958 0.786704 -26.7739
15.279 0.937149 -26.7728
15.2621 1.0876 -26.7718
15.1828 1.15754 -26.7731
15.166 1.30799 -26.7721
15.0866 1.37793 -26.7735
15.0698 1.52838 -26.7724
15.0529 1.67883 -26.7713
15.0361 1.82928 -26.7703
15.0192 1.97973 -26.7692
14.9399 2.04967 -26.7706
14.9231 2.20012 -26.7695
14.9062 2.35056 -26.7685
14.8269 2.42051 -26.7699
14.8101 2.57096 -26.7688
14.7308 2.6409 -26.7702
14.7139 2.79135 -26.7691
14.6346 2.86129 -26.7705
14.5553 2.93123 -26.7718
14.476 3.00117 -26.7732
14.4591 3.15163 -26.7721
14.3798 3.22157 -26.7735
14.3629 3.37202 -26.7724
14.3461 3.52246 -26.7714
14.3292 3.67291 -26.7703
14.3124 3.82336 -26.7693
14.2331 3.8933 -26.7706
14.2162 4.04375 -26.7696
14.1994 4.1942 -26.7685
14.1825 4.34465 -26.7675
14.1657 4.4951 -26.7664
14.1488 4.64554 -26.7654
14.0695 4.71549 -26.7667
14.0527 4.86593 -26.7657
14.0358 5.01638 -26.7646
13.9565 5.08633 -26.766
13.9397 5.23677 -26.7649
13.8603 5.30672 -26.7663
13.781 5.37666 -26.7677
13.8891 5.68811 -26.7617
13.8723 5.83856 -26.7607
13.8554 5.98901 -26.7596
13.8386 6.13946 -26.7586
13.8217 6.28991 -26.7575
13.8049 6.44035 -26.7565
13.788 6.5908 -26.7554
13.8336 6.82176 -26.7519
13.8792 7.05271 -26.7484
13.8624 7.20316 -26.7474
13.8455 7.3536 -26.7463
13.8912 7.58456 -26.7429
13.8743 7.73501 -26.7418
13.9199 7.96596 -26.7383
12.8909 10.7717 -26.7372
12.8116 10.8416 -26.7385
12.7947 10.9921 -26.7375
12.7154 11.062 -26.7388
12.5736 11.0514 -26.7426
12.4943 11.1214 -26.744
12.415 11.1913 -26.7454
12.3357 11.2613 -26.7467
12.1939 11.2507 -26.7505
12.1146 11.3206 -26.7519
12.0353 11.3906 -26.7533
11.956 11.4605 -26.7546
11.8142 11.45 -26.7584
11.7349 11.5199 -26.7598
11.5931 11.5094 -26.7636
11.5138 11.5793 -26.7649
11.372 11.5687 -26.7687
11.2927 11.6387 -26.7701
11.2134 11.7086 -26.7715
11.1965 11.8591 -26.7704
11.1172 11.929 -26.7718
11.0379 11.999 -26.7731
10.9586 12.0689 -26.7745
10.8793 12.1388 -26.7759
10.7375 12.1283 -26.7796
10.6582 12.1982 -26.781
10.5788 12.2682 -26.7824
10.4371 12.2576 -26.7862
10.3578 12.3275 -26.7875
10.216 12.317 -26.7913
10.1367 12.3869 -26.7927
9.99488 12.3764 -26.7965
9.91556 12.4463 -26.7979
9.77378 12.4357 -26.8016
9.69447 12.5057 -26.803
9.55269 12.4951 -26.8068
9.47337 12.5651 -26.8082
9.20666 12.3935 -26.8168
9.06488 12.3829 -26.8206
8.98556 12.4529 -26.8219
8.84378 12.4423 -26.8257
8.76447 12.5123 -26.8271
8.68515 12.5822 -26.8285
8.60584 12.6521 -26.8298
8.46406 12.6416 -26.8336
8.32228 12.631 -26.8374
7.9931 12.379 -26.8485
7.85132 12.3684 -26.8523
7.77201 12.4383 -26.8536
7.75516 12.5888 -26.8526
7.67584 12.6587 -26.8539
7.59653 12.7287 -26.8553
7.51722 12.7986 -26.8567
9.50233 12.6364 -26.7396
9.38483 12.5563 -26.7434
9.26732 12.4763 -26.7472
9.16366 12.4972 -26.7486
9.06 12.5181 -26.7499
8.95634 12.5391 -26.7513
8.85268 12.56 -26.7527
8.76287 12.6818 -26.7516
8.65921 12.7028 -26.753
8.56939 12.8246 -26.7519
8.46573 12.8455 -26.7533
8.36207 12.8665 -26.7547
8.25841 12.8874 -26.756
8.15475 12.9083 -26.7574
8.03724 12.8282 -26.7612
7.93359 12.8492 -26.7625
7.82992 12.8701 -26.7639
7.72626 12.891 -26.7653
7.62261 12.9119 -26.7666
7.51894 12.9328 -26.768
7.41528 12.9537 -26.7694
7.31162 12.9747 -26.7707
7.20796 12.9956 -26.7721
7.1043 13.0165 -26.7735
7.00064 13.0374 -26.7748
6.89698 13.0583 -26.7762
6.79332 13.0792 -26.7776
6.68966 13.1001 -26.7789
6.586 13.1211 -26.7803
6.48234 13.142 -26.7817
6.37868 13.1629 -26.783
6.26118 13.0829 -26.7868
6.15752 13.1038 -26.7882
6.05386 13.1247 -26.7896
5.93635 13.0446 -26.7934
5.83269 13.0656 -26.7947
5.71519 12.9855 -26.7985
5.61153 13.0064 -26.7999
5.50787 13.0274 -26.8012
5.40421 13.0483 -26.8026
5.30055 13.0692 -26.804
5.19689 13.0901 -26.8053
5.07938 13.0101 -26.8091
4.96188 12.93 -26.8129
4.85822 12.9509 -26.8143
4.75456 12.9719 -26.8156
4.6509 12.9928 -26.817
4.54724 13.0137 -26.8184
4.42973 12.9337 -26.8222
4.31223 12.8536 -26.826
4.20857 12.8745 -26.8273
4.09107 12.7945 -26.8311
3.98741 12.8154 -26.8325
3.88375 12.8363 -26.8338
3.76624 12.7563 -26.8376
3.66258 12.7772 -26.839
3.54508 12.6972 -26.8428
3.44141 12.7181 -26.8441
3.32391 12.638 -26.8479
3.22025 12.659 -26.8493
3.11659 12.6799 -26.8507
2.99909 12.5998 -26.8545
2.89542 12.6208 -26.8558
2.77792 12.5407 -26.8596
2.66042 12.4607 -26.8634
2.55676 12.4816 -26.8648
2.43925 12.4016 -26.8686
2.33559 12.4225 -26.8699
2.21809 12.3424 -26.8737
2.10058 12.2624 -26.8775
1.9277 11.7786 -26.891
1.8102 11.6985 -26.8948
1.70654 11.7194 -26.8961
1.60288 11.7403 -26.8975
1.49922 11.7613 -26.8989
1.38171 11.6812 -26.9027
1.27805 11.7021 -26.904
1.17439 11.7231 -26.9054
1.05689 11.643 -26.9092
0.884006 11.1592 -26.9227
0.780345 11.1801 -26.924
0.676685 11.201 -26.9254
0.559178 11.121 -26.9292
0.441677 11.0409 -26.933
0.324171 10.9609 -26.9368
0.206667 10.8809 -26.9406
0.0891627 10.8008 -26.9443
-0.0421867 10.6198 -26.9506
-0.159692 10.5398 -26.9543
-0.304884 10.2579 -26.963
-0.505454 9.57211 -26.9813
-0.622957 9.49207 -26.9851
-0.740464 9.41203 -26.9889
-0.941034 8.72628 -27.0072
-1.05854 8.64625 -27.011
-1.18989 8.46526 -27.0172
-1.30739 8.38522 -27.021
-1.41105 8.40614 -27.0224
-1.55624 8.1242 -27.031
-1.65991 8.14511 -27.0324
-1.77741 8.06508 -27.0362
-1.88107 8.08599 -27.0375
-1.99857 8.00595 -27.0413
-2.11608 7.92592 -27.0451
-2.23358 7.84588 -27.0489
-2.37878 7.56394 -27.0575
-2.49628 7.4839 -27.0613
-2.59994 7.50482 -27.0627
-2.71744 7.42478 -27.0665
-2.84879 7.24379 -27.0727
6.10302 13.2421 -26.7886
5.9643 13.3027 -26.7876
5.86408 13.269 -26.7889
5.76384 13.2353 -26.7903
5.62513 13.2959 -26.7892
5.5249 13.2622 -26.7906
5.42467 13.2285 -26.792
5.32444 13.1948 -26.7933
5.22421 13.1611 -26.7947
5.12398 13.1274 -26.7961
5.02375 13.0936 -26.7974
4.92352 13.0599 -26.7988
4.7848 13.1206 -26.7977
4.64609 13.1812 -26.7967
4.50737 13.2418 -26.7956
4.36865 13.3024 -26.7946
4.26842 13.2687 -26.7959
4.12971 13.3294 -26.7949
4.02948 13.2956 -26.7962
3.92925 13.2619 -26.7976
3.79053 13.3226 -26.7966
3.6903 13.2888 -26.7979
3.55159 13.3495 -26.7969
3.45135 13.3158 -26.7982
3.35112 13.282 -26.7996
3.2509 13.2483 -26.801
3.15067 13.2146 -26.8023
3.05044 13.1809 -26.8037
2.95021 13.1472 -26.8051
2.88846 13.0191 -26.8089
2.82672 12.891 -26.8126
2.76498 12.763 -26.8164
2.66474 12.7293 -26.8178
2.603 12.6012 -26.8216
2.50277 12.5675 -26.823
2.40254 12.5338 -26.8243
2.3408 12.4057 -26.8281
2.24057 12.372 -26.8295
2.14034 12.3383 -26.8308
2.04011 12.3045 -26.8322
1.93988 12.2708 -26.8336
1.83965 12.2371 -26.8349
1.73942 12.2034 -26.8363
1.63919 12.1697 -26.8377
1.53896 12.136 -26.839
1.43873 12.1022 -26.8404
1.37699 11.9742 -26.8442
1.27675 11.9405 -26.8456
1.17653 11.9067 -26.8469
1.0763 11.873 -26.8483
0.976065 11.8393 -26.8497
0.875835 11.8056 -26.851
0.775605 11.7719 -26.8524
0.713864 11.6438 -26.8562
0.613634 11.6101 -26.8575
0.513404 11.5764 -26.8589
0.413173 11.5427 -26.8603
0.351428 11.4146 -26.8641
0.2512 11.3809 -26.8654
0.150969 11.3472 -26.8668
0.0507383 11.3134 -26.8681
-0.0494914 11.2797 -26.8695
-0.149721 11.246 -26.8709
-0.24995 11.2123 -26.8723
-0.350181 11.1786 -26.8736
-0.450411 11.1449 -26.875
-0.550641 11.1111 -26.8764
-0.612383 10.9831 -26.8801
-0.712612 10.9494 -26.8815
-0.812843 10.9156 -26.8829
-0.874587 10.7876 -26.8867
-0.936331 10.6595 -26.8905
-0.959586 10.4371 -26.8967
-1.02133 10.309 -26.9005
-1.12156 10.2753 -26.9018
-1.1833 10.1472 -26.9056
-1.28354 10.1135 -26.907
-1.30679 9.8911 -26.9132
-1.36853 9.76304 -26.917
-1.43028 9.63498 -26.9208
-1.53051 9.60126 -26.9221
-1.63074 9.56754 -26.9235
-1.69248 9.43947 -26.9273
-1.79271 9.40576 -26.9286
-1.89294 9.37204 -26.93
-1.95469 9.24397 -26.9338
-2.01643 9.11591 -26.9376
-2.07817 8.98784 -26.9414
-2.10143 8.76543 -26.9476
-2.16317 8.63736 -26.9514
-2.22492 8.5093 -26.9552
-2.32515 8.47558 -26.9565
-2.42537 8.44186 -26.9579
-2.52561 8.40814 -26.9593
-2.58735 8.28008 -26.9631
-2.68758 8.24636 -26.9644
-2.74932 8.11829 -26.9682
-2.84955 8.08458 -26.9696
-2.94978 8.05086 -26.9709
-3.05001 8.01715 -26.9723
-3.15025 7.98343 -26.9737
-3.21199 7.85536 -26.9775
-3.31222 7.82164 -26.9788
-3.37396 7.69358 -26.9826
-3.47419 7.65986 -26.984
-3.53593 7.5318 -26.9878
-3.63616 7.49808 -26.9892
-3.69791 7.37001 -26.9929
-3.75965 7.24194 -26.9967
-3.78291 7.01953 -27.0029
-3.84465 6.89146 -27.0067
-3.90639 6.76339 -27.0105
-4.00662 6.72968 -27.0119
-4.10685 6.69596 -27.0132
-4.20708 6.66225 -27.0146
-4.26883 6.53418 -27.0184
-4.36906 6.50046 -27.0198
-4.4308 6.3724 -27.0236
3.53545 13.278 -26.8693
3.385 13.2612 -26.8682
3.23455 13.2443 -26.8672
3.16461 13.165 -26.8685
3.09467 13.0857 -26.8699
2.94422 13.0688 -26.8688
2.63276 13.1769 -26.8629
2.48231 13.1601 -26.8619
2.33187 13.1432 -26.8608
2.26192 13.0639 -26.8622
2.19198 12.9846 -26.8636
2.12204 12.9053 -26.8649
2.05209 12.826 -26.8663
1.98215 12.7466 -26.8677
1.8317 12.7298 -26.8666
1.60075 12.7754 -26.8631
1.53081 12.6961 -26.8645
1.46086 12.6168 -26.8658
1.39092 12.5375 -26.8672
1.32097 12.4581 -26.8686
1.25103 12.3788 -26.8699
1.18109 12.2995 -26.8713
1.11114 12.2202 -26.8727
1.0412 12.1409 -26.874
0.971258 12.0616 -26.8754
0.901317 11.9823 -26.8768
0.831373 11.9029 -26.8781
0.680928 11.8861 -26.8771
0.610984 11.8068 -26.8784
0.460538 11.7899 -26.8774
0.390595 11.7106 -26.8788
0.240144 11.6938 -26.8777
0.1702 11.6145 -26.8791
0.0197549 11.5976 -26.878
-0.130693 11.5808 -26.877
-0.200637 11.5014 -26.8783
-0.351085 11.4846 -26.8773
-0.501533 11.4677 -26.8762
-0.571477 11.3884 -26.8776
-0.721923 11.3716 -26.8765
-0.791866 11.2923 -26.8779
-0.861811 11.2129 -26.8792
-0.931755 11.1336 -26.8806
-1.0017 11.0543 -26.882
-1.07164 10.975 -26.8833
-1.14158 10.8957 -26.8847
-1.21153 10.8164 -26.8861
-1.28147 10.7371 -26.8875
-1.35141 10.6577 -26.8888
-1.34085 10.516 -26.8926
-1.41079 10.4366 -26.894
-1.48074 10.3573 -26.8953
-1.55068 10.278 -26.8967
-1.62062 10.1987 -26.8981
-1.77107 10.1819 -26.897
-1.84101 10.1025 -26.8984
-1.83045 9.96076 -26.9022
-1.9004 9.88145 -26.9035
-1.97034 9.80213 -26.9049
-2.04028 9.72282 -26.9063
-2.11023 9.6435 -26.9076
-2.18017 9.56419 -26.909
-2.25011 9.48487 -26.9104
-2.32005 9.40556 -26.9117
-2.39 9.32624 -26.9131
-2.45994 9.24693 -26.9145
-2.52989 9.16761 -26.9158
-2.59983 9.0883 -26.9172
-2.66977 9.00898 -26.9185
-2.73971 8.92967 -26.9199
-2.80966 8.85036 -26.9213
-2.8796 8.77104 -26.9227
-2.94954 8.69172 -26.924
-3.01949 8.61241 -26.9254
-3.08943 8.5331 -26.9267
-3.15937 8.45378 -26.9281
-3.22932 8.37447 -26.9295
-3.29926 8.29515 -26.9308
-3.3692 8.21584 -26.9322
-3.43915 8.13652 -26.9336
-3.50909 8.05721 -26.935
-3.49853 7.91543 -26.9387
-3.56847 7.83611 -26.9401
-3.63841 7.7568 -26.9415
-3.70836 7.67748 -26.9428
-3.7783 7.59817 -26.9442
-3.84824 7.51885 -26.9456
-3.99869 7.502 -26.9445
-4.14914 7.48516 -26.9435
-4.38009 7.53077 -26.94
-4.53054 7.51392 -26.9389
-4.60048 7.43461 -26.9403
-4.75093 7.41776 -26.9392
-4.82087 7.33844 -26.9406
-4.89081 7.25913 -26.942
-5.04127 7.24228 -26.9409
-5.11121 7.16297 -26.9423
-5.18115 7.08365 -26.9436
-5.25109 7.00434 -26.945
-5.32104 6.92502 -26.9464
-5.39098 6.84571 -26.9477
-5.38042 6.70393 -26.9515
-5.45036 6.62461 -26.9529
-5.5203 6.5453 -26.9543
-5.59025 6.46598 -26.9556
-5.66019 6.38667 -26.957
-5.64963 6.24489 -26.9608
-5.71957 6.16557 -26.9621
-5.78952 6.08626 -26.9635
-5.77896 5.94448 -26.9673
-5.8489 5.86516 -26.9687
-5.91884 5.78585 -26.97
-5.98879 5.70654 -26.9714
-6.05873 5.62722 -26.9727
-6.12867 5.54791 -26.9741
-6.19861 5.46859 -26.9755
-6.26856 5.38928 -26.9769
-6.3385 5.30996 -26.9782
-6.32794 5.16818 -26.982
-6.39788 5.08887 -26.9834
-6.38732 4.94708 -26.9872
-6.37676 4.80531 -26.991
-6.4467 4.72599 -26.9923
-6.43614 4.58421 -26.9961
-6.50608 4.5049 -26.9975
-6.57603 4.42558 -26.9988
-6.56546 4.2838 -27.0026
-6.63541 4.20449 -27.004
-6.70535 4.12517 -27.0054
-6.77529 4.04586 -27.0067
-6.76473 3.90408 -27.0105
-6.83467 3.82476 -27.0119
-6.90462 3.74545 -27.0132
-6.97456 3.66613 -27.0146
-6.964 3.52435 -27.0184
-7.03395 3.44504 -27.0198
-6.94288 3.24079 -27.026
-6.93232 3.09901 -27.0298
-6.92175 2.95723 -27.0336
-6.91119 2.81545 -27.0374
-6.90063 2.67367 -27.0411
-6.97058 2.59436 -27.0425
-6.96001 2.45258 -27.0463
-7.02996 2.37326 -27.0477
-7.0999 2.29395 -27.049
-7.16984 2.21463 -27.0504
-7.15928 2.07285 -27.0542
-7.14872 1.93107 -27.058
-7.05765 1.72683 -27.0642
-4.93309 7.06105 -26.9488
-5.15591 6.98508 -26.9453
-5.27777 6.89526 -26.9443
-5.29869 6.7916 -26.9456
-5.42055 6.70178 -26.9446
-5.44147 6.59813 -26.946
-5.56334 6.50831 -26.9449
-5.58425 6.40465 -26.9463
-5.70612 6.31483 -26.9452
-5.82798 6.22502 -26.9442
-5.8489 6.12136 -26.9455
-5.86982 6.0177 -26.9469
-5.89073 5.91404 -26.9482
-5.91164 5.81038 -26.9496
-5.93256 5.70672 -26.951
-6.05443 5.6169 -26.9499
-6.17629 5.52708 -26.9489
-6.29816 5.43727 -26.9478
-6.31908 5.33361 -26.9492
-6.44094 5.24379 -26.9481
-6.56281 5.15398 -26.9471
-6.58373 5.05032 -26.9484
-6.70559 4.9605 -26.9474
-6.82746 4.87068 -26.9463
-6.84837 4.76702 -26.9477
-6.86929 4.66336 -26.9491
-6.8902 4.5597 -26.9504
-6.91112 4.45604 -26.9518
-7.03299 4.36623 -26.9507
-7.0539 4.26257 -26.9521
-7.07482 4.15891 -26.9534
-7.19668 4.06909 -26.9524
-7.31855 3.97928 -26.9513
-7.33947 3.87562 -26.9527
-7.46133 3.7858 -26.9516
-7.48225 3.68214 -26.953
-7.50316 3.57848 -26.9544
-7.52408 3.47482 -26.9557
-7.54499 3.37116 -26.9571
-7.56591 3.2675 -26.9585
-7.48587 3.15 -26.9623
-7.50679 3.04634 -26.9636
-7.5277 2.94267 -26.965
-7.54862 2.83902 -26.9664
-7.46858 2.72151 -26.9702
-7.4895 2.61785 -26.9715
-7.40946 2.50035 -26.9753
-7.43038 2.39669 -26.9767
-7.55224 2.30687 -26.9756
-7.57316 2.20321 -26.977
-7.59407 2.09955 -26.9783
-7.61499 1.99589 -26.9797
-7.6359 1.89223 -26.9811
-7.65682 1.78857 -26.9825
-7.67773 1.68491 -26.9838
-7.5977 1.5674 -26.9876
-7.61861 1.46374 -26.989
-7.63953 1.36008 -26.9903
-7.66044 1.25643 -26.9917
-7.5804 1.13892 -26.9955
-7.60132 1.03526 -26.9969
-7.52128 0.917756 -27.0006
-7.44124 0.800249 -27.0044
-7.36121 0.682746 -27.0082
-7.28118 0.565241 -27.012
-7.30209 0.461581 -27.0134
-7.323 0.357921 -27.0147
-7.34392 0.25426 -27.0161
-7.36484 0.1506 -27.0175
-7.28479 0.033094 -27.0213
-7.30571 -0.0705637 -27.0226
-7.22567 -0.188069 -27.0264
-7.52646 4.10314 -26.9544
-7.58708 3.96443 -26.9534
-7.64772 3.82571 -26.9523
-7.70835 3.687 -26.9512
-7.76899 3.54828 -26.9502
-7.73527 3.44805 -26.9516
-7.79589 3.30933 -26.9505
-7.76218 3.2091 -26.9519
-7.91716 3.0319 -26.9484
-7.97779 2.89318 -26.9473
-7.94407 2.79295 -26.9487
-7.91036 2.69273 -26.9501
-7.87664 2.59249 -26.9514
-7.84292 2.49226 -26.9528
-7.90356 2.35355 -26.9517
-7.86984 2.25332 -26.9531
-7.83612 2.15309 -26.9545
-7.80241 2.05286 -26.9558
-7.86304 1.91414 -26.9548
-7.92367 1.77543 -26.9537
-7.9843 1.63671 -26.9527
-8.04493 1.49799 -26.9516
-8.01122 1.39776 -26.953
-7.9775 1.29753 -26.9543
-8.03814 1.15882 -26.9533
-8.00442 1.05859 -26.9546
-8.06505 0.919871 -26.9536
-8.03133 0.819641 -26.955
-7.99761 0.71941 -26.9563
-7.96389 0.619181 -26.9577
-7.93018 0.518952 -26.959
-7.89646 0.418722 -26.9604
-7.86275 0.31849 -26.9618
-7.82903 0.218261 -26.9632
-7.79531 0.118032 -26.9645
-7.76159 0.0178022 -26.9659
-7.72788 -0.0824273 -26.9672
-7.59982 -0.144172 -26.971
-7.5661 -0.244404 -26.9724
-7.53238 -0.344632 -26.9738
-7.49866 -0.444863 -26.9751
-7.46495 -0.545093 -26.9765
-7.43123 -0.645323 -26.9779
-7.39751 -0.745553 -26.9792
-7.3638 -0.845782 -26.9806
-7.33008 -0.946013 -26.982
-7.29636 -1.04624 -26.9833
-7.16829 -1.10799 -26.9871
-7.13458 -1.20822 -26.9885
-7.10086 -1.30844 -26.9899
-6.97279 -1.37019 -26.9936
-6.93908 -1.47042 -26.995
-6.90536 -1.57065 -26.9964
-6.87164 -1.67088 -26.9977
-6.83792 -1.77111 -26.9991
-6.70986 -1.83285 -27.0029
-6.67614 -1.93308 -27.0043
-6.54808 -1.99483 -27.008
-6.51436 -2.09506 -27.0094
-6.38629 -2.1568 -27.0132
-6.35258 -2.25703 -27.0146
-6.31886 -2.35726 -27.0159
-6.19079 -2.419 -27.0197
-6.15707 -2.51923 -27.0211
-6.12336 -2.61946 -27.0224
-5.99529 -2.68121 -27.0262
-5.96158 -2.78144 -27.0276
-5.83351 -2.84318 -27.0314
-5.79979 -2.94341 -27.0328
-5.67173 -3.00515 -27.0366
-5.63801 -3.10538 -27.0379
-5.60429 -3.20561 -27.0393
-5.57057 -3.30584 -27.0406
-5.53686 -3.40607 -27.042
-5.50314 -3.5063 -27.0434
-5.37508 -3.56805 -27.0472
-5.34136 -3.66828 -27.0485
-5.30764 -3.76851 -27.0499
-5.17957 -3.83025 -27.0537
-5.14586 -3.93048 -27.0551
-5.11214 -4.03071 -27.0564
-5.07843 -4.13094 -27.0578
-5.0447 -4.23117 -27.0592
-5.01099 -4.3314 -27.0605
-4.88292 -4.39314 -27.0643
-4.84921 -4.49337 -27.0657
-4.81549 -4.5936 -27.067
-4.78177 -4.69383 -27.0684
-4.74806 -4.79406 -27.0698
-4.71434 -4.89429 -27.0711
-4.68062 -4.99452 -27.0725
-4.6469 -5.09475 -27.0739
-4.61319 -5.19498 -27.0752
-4.57947 -5.29521 -27.0766
-4.54575 -5.39544 -27.078
-4.51204 -5.49567 -27.0793
-4.38397 -5.55741 -27.0831
-4.35025 -5.65765 -27.0845
-4.31654 -5.75787 -27.0859
-4.28282 -5.8581 -27.0872
-4.2491 -5.95833 -27.0886
-4.21538 -6.05856 -27.09
-4.18167 -6.15879 -27.0913
-4.14795 -6.25902 -27.0927
-4.11424 -6.35925 -27.0941
-4.08052 -6.45948 -27.0954
-4.0468 -6.55971 -27.0968
-4.01308 -6.65994 -27.0982
-3.97937 -6.76017 -27.0995
-3.94565 -6.8604 -27.1009
-3.91193 -6.96063 -27.1022
-3.87821 -7.06086 -27.1036
-3.8445 -7.16109 -27.105
-3.81078 -7.26132 -27.1064
-3.68272 -7.32307 -27.1101
-3.649 -7.4233 -27.1115
-3.61528 -7.52353 -27.1129
-3.58157 -7.62376 -27.1142
-3.54785 -7.72399 -27.1156
-3.51413 -7.82422 -27.117
-3.48041 -7.92445 -27.1183
-3.4467 -8.02468 -27.1197
-3.50733 -8.16339 -27.1186
-3.47361 -8.26362 -27.12
-3.4399 -8.36385 -27.1214
-3.40618 -8.46408 -27.1227
-3.37246 -8.56431 -27.1241
-3.33874 -8.66454 -27.1255
-3.30503 -8.76477 -27.1268
-3.27131 -8.865 -27.1282
-3.14324 -8.92674 -27.132
-3.10953 -9.02698 -27.1334
-3.07581 -9.1272 -27.1347
-3.04209 -9.22744 -27.1361
-3.00837 -9.32767 -27.1375
-2.97466 -9.42789 -27.1388
-2.94094 -9.52812 -27.1402
-2.90723 -9.62835 -27.1416
-2.87351 -9.72859 -27.1429
-2.83979 -9.82881 -27.1443
-2.71172 -9.89056 -27.1481
-2.67801 -9.99079 -27.1494
-2.64429 -10.091 -27.1508
-2.61058 -10.1912 -27.1522
-2.48251 -10.253 -27.156
-2.44879 -10.3532 -27.1573
-2.32073 -10.415 -27.1611
-2.28701 -10.5152 -27.1625
-2.34764 -10.6539 -27.1614
-2.31392 -10.7541 -27.1628
-2.18586 -10.8159 -27.1666
-2.15214 -10.9161 -27.168
-2.11842 -11.0163 -27.1693
-1.99036 -11.0781 -27.1731
-1.95664 -11.1783 -27.1745
-1.92292 -11.2785 -27.1758
-1.88921 -11.3788 -27.1772
-1.85549 -11.479 -27.1786
-1.72742 -11.5408 -27.1824
-1.6937 -11.641 -27.1837
-1.65999 -11.7412 -27.1851
-1.62627 -11.8414 -27.1865
-1.49821 -11.9032 -27.1902
-1.46449 -12.0034 -27.1916
-1.33642 -12.0652 -27.1954
-1.30271 -12.1654 -27.1968
-1.26899 -12.2656 -27.1981
-1.14092 -12.3274 -27.2019
-1.1072 -12.4276 -27.2033
-1.07349 -12.5278 -27.2047
-0.945422 -12.5896 -27.2085
-0.911705 -12.6898 -27.2098
-0.877985 -12.79 -27.2112
-0.749921 -12.8518 -27.215
-0.716205 -12.952 -27.2163
-0.682488 -13.0522 -27.2177
-0.0826769 -12.9215 -27.2336
-0.0489564 -13.0218 -27.235
-0.0152397 -13.122 -27.2363
0.112823 -13.1837 -27.2401
0.335239 -13.207 -27.2463
0.368955 -13.3072 -27.2477
0.497021 -13.369 -27.2515
0.530736 -13.4692 -27.2529
0.658805 -13.5309 -27.2567
0.78687 -13.5927 -27.2604
0.820586 -13.6929 -27.2618
0.948655 -13.7547 -27.2656
