ply
format ascii 1.0
element vertex 1515
property float x
property float y
property float z
element face 0
property list uchar uint vertex_indices
end_header
16.601675 -8.874310 -185.665001
16.622590 -8.770650 -185.666367
16.744457 -8.680834 -185.665310
16.765372 -8.577174 -185.666676
16.887239 -8.487358 -185.665619
16.908154 -8.383698 -185.666985
16.929069 -8.280037 -185.668351
16.949984 -8.176377 -185.669717
17.071851 -8.086561 -185.668660
17.092767 -7.982901 -185.670026
17.113682 -7.879241 -185.671392
17.134597 -7.775581 -185.672758
17.054560 -7.658076 -185.676547
17.075475 -7.554416 -185.677913
17.096390 -7.450756 -185.679279
17.117305 -7.347096 -185.680645
17.138221 -7.243436 -185.682011
17.159136 -7.139776 -185.683377
17.180051 -7.036115 -185.684743
17.200966 -6.932455 -185.686109
17.221881 -6.828795 -185.687475
17.242796 -6.725135 -185.688841
17.263711 -6.621475 -185.690207
17.183675 -6.503970 -185.693997
17.204590 -6.400310 -185.695363
17.225505 -6.296650 -185.696729
17.246420 -6.192990 -185.698095
17.166383 -6.075485 -185.701884
17.187298 -5.971825 -185.703250
17.208213 -5.868165 -185.704616
17.128177 -5.750661 -185.708405
17.149092 -5.647000 -185.709771
17.170007 -5.543340 -185.711137
17.089970 -5.425836 -185.714926
16.908981 -5.294487 -185.721138
16.828945 -5.176982 -185.724927
16.748908 -5.059478 -185.728717
16.769823 -4.955818 -185.730083
16.790738 -4.852158 -185.731449
16.710701 -4.734653 -185.735238
16.731616 -4.630993 -185.736604
16.651580 -4.513489 -185.740393
16.571543 -4.395984 -185.744182
16.491506 -4.278480 -185.747971
16.310517 -4.147131 -185.754183
16.230481 -4.029626 -185.757973
16.251396 -3.925966 -185.759339
16.171359 -3.808462 -185.763128
16.192274 -3.704801 -185.764494
16.213189 -3.601141 -185.765860
16.234104 -3.497481 -185.767226
16.154068 -3.379977 -185.771015
16.174983 -3.276317 -185.772381
16.094946 -3.158812 -185.776170
16.014909 -3.041308 -185.779959
15.934872 -2.923803 -185.783748
15.854836 -2.806299 -185.787538
15.774799 -2.688794 -185.791327
15.694762 -2.571290 -185.795116
15.614725 -2.453785 -185.798905
15.635640 -2.350125 -185.800271
15.555604 -2.232620 -185.804060
15.475567 -2.115116 -185.807849
15.395530 -1.997611 -185.811638
15.416445 -1.893951 -185.813004
15.336408 -1.776447 -185.816794
15.054468 -1.631254 -185.825429
14.974431 -1.513749 -185.829218
14.995346 -1.410089 -185.830584
15.016261 -1.306429 -185.831950
15.037176 -1.202769 -185.833316
14.957140 -1.085264 -185.837105
14.978055 -0.981604 -185.838471
14.898018 -0.864100 -185.842260
14.817981 -0.746595 -185.846050
14.737944 -0.629091 -185.849839
14.657908 -0.511586 -185.853628
14.577871 -0.394082 -185.857417
14.497834 -0.276577 -185.861206
14.417797 -0.159073 -185.864995
14.438712 -0.055413 -185.866361
14.358676 0.062092 -185.870150
14.278639 0.179596 -185.873940
14.299554 0.283257 -185.875306
14.320469 0.386917 -185.876672
14.341384 0.490577 -185.878038
14.362299 0.594237 -185.879404
14.282263 0.711742 -185.883193
14.303178 0.815402 -185.884559
14.324093 0.919062 -185.885925
14.244056 1.036566 -185.889714
14.164019 1.154071 -185.893503
14.083983 1.271575 -185.897292
14.104898 1.375236 -185.898658
14.125813 1.478896 -185.900024
14.045776 1.596400 -185.903813
14.066691 1.700060 -185.905179
14.087606 1.803720 -185.906545
14.108521 1.907381 -185.907911
14.028485 2.024885 -185.911701
14.049400 2.128545 -185.913067
13.969363 2.246050 -185.916856
13.990278 2.349710 -185.918222
14.011193 2.453370 -185.919588
14.032108 2.557030 -185.920954
14.053023 2.660690 -185.922320
13.972987 2.778195 -185.926109
13.993902 2.881855 -185.927475
13.913865 2.999360 -185.931264
13.833828 3.116864 -185.935053
13.652840 3.248213 -185.941266
13.673755 3.351873 -185.942632
13.694670 3.455533 -185.943998
13.614633 3.573038 -185.947787
13.635548 3.676698 -185.949153
13.656463 3.780358 -185.950519
13.677378 3.884018 -185.951885
13.698294 3.987678 -185.953251
13.618257 4.105183 -185.957040
13.639172 4.208843 -185.958406
13.660087 4.312503 -185.959772
13.681002 4.416163 -185.961138
13.701917 4.519823 -185.962504
13.722832 4.623484 -185.963870
13.743748 4.727144 -185.965236
13.663711 4.844648 -185.969025
13.684626 4.948308 -185.970391
13.705541 5.051969 -185.971757
13.726456 5.155629 -185.973123
13.747371 5.259289 -185.974489
13.768286 5.362949 -185.975855
13.789202 5.466609 -185.977221
13.810117 5.570269 -185.978587
13.730080 5.687774 -185.982376
13.750995 5.791434 -185.983742
13.771910 5.895094 -185.985108
13.792825 5.998754 -185.986474
13.813740 6.102414 -185.987840
13.834656 6.206075 -185.989206
13.855571 6.309735 -185.990572
13.876486 6.413395 -185.991938
13.897401 6.517055 -185.993305
13.918316 6.620715 -185.994671
13.939231 6.724375 -185.996037
13.960146 6.828036 -185.997403
13.981062 6.931696 -185.998769
14.001977 7.035356 -186.000135
13.921940 7.152860 -186.003924
13.942855 7.256521 -186.005290
13.963770 7.360181 -186.006656
14.085637 7.449997 -186.005599
14.106552 7.553657 -186.006965
14.127467 7.657317 -186.008331
14.148383 7.760977 -186.009697
14.068346 7.878481 -186.013486
14.190213 7.968297 -186.012429
14.211128 8.071957 -186.013795
14.232043 8.175618 -186.015161
14.252958 8.279278 -186.016527
14.273873 8.382938 -186.017893
14.294788 8.486598 -186.019259
14.214752 8.604103 -186.023048
14.134715 8.721607 -186.026837
13.852774 8.866800 -186.035472
16.167806 -9.696896 -185.692472
16.228439 -9.558180 -185.691415
16.194722 -9.457950 -185.692781
16.255354 -9.319234 -185.691724
16.315986 -9.180518 -185.690667
16.376618 -9.041801 -185.689610
17.097694 -8.633680 -185.671591
17.158326 -8.494964 -185.670534
17.124609 -8.394734 -185.671900
17.185241 -8.256018 -185.670842
17.528920 -8.001843 -185.662516
17.589553 -7.863126 -185.661459
17.555836 -7.762896 -185.662825
17.522119 -7.662666 -185.664191
17.582751 -7.523950 -185.663134
17.549034 -7.423720 -185.664500
17.515317 -7.323490 -185.665866
17.481600 -7.223260 -185.667232
17.542232 -7.084544 -185.666175
17.508515 -6.984314 -185.667541
17.569147 -6.845598 -185.666484
17.629779 -6.706881 -185.665427
17.690411 -6.568165 -185.664369
17.656694 -6.467935 -185.665735
17.717326 -6.329219 -185.664678
17.683609 -6.228989 -185.666044
17.649892 -6.128759 -185.667410
17.616175 -6.028529 -185.668776
17.582458 -5.928299 -185.670142
17.548741 -5.828069 -185.671508
17.515024 -5.727839 -185.672874
17.481307 -5.627610 -185.674240
17.447590 -5.527380 -185.675606
17.413873 -5.427150 -185.676973
17.380156 -5.326920 -185.678339
17.440788 -5.188203 -185.677281
17.407071 -5.087974 -185.678647
17.373354 -4.987744 -185.680013
17.339637 -4.887514 -185.681379
17.305920 -4.787284 -185.682745
17.272203 -4.687054 -185.684111
17.238486 -4.586824 -185.685478
17.204769 -4.486594 -185.686844
17.076703 -4.424850 -185.690633
17.042986 -4.324621 -185.691999
17.009269 -4.224391 -185.693365
16.881203 -4.162647 -185.697154
16.847486 -4.062417 -185.698520
16.719420 -4.000674 -185.702309
16.685703 -3.900444 -185.703675
16.651986 -3.800214 -185.705041
16.618269 -3.699984 -185.706407
16.584552 -3.599754 -185.707773
16.550835 -3.499524 -185.709139
16.422769 -3.437780 -185.712928
16.389052 -3.337550 -185.714294
16.449684 -3.198834 -185.713237
16.415967 -3.098604 -185.714603
16.382250 -2.998374 -185.715969
16.348533 -2.898144 -185.717335
16.314816 -2.797914 -185.718701
16.281099 -2.697685 -185.720067
16.247382 -2.597455 -185.721433
16.119316 -2.535711 -185.725222
16.085599 -2.435481 -185.726588
15.957533 -2.373738 -185.730378
15.923816 -2.273508 -185.731744
15.795750 -2.211764 -185.735533
15.762033 -2.111534 -185.736899
15.728316 -2.011304 -185.738265
15.694599 -1.911074 -185.739631
15.566533 -1.849331 -185.743420
15.532816 -1.749101 -185.744786
15.499099 -1.648871 -185.746152
15.465382 -1.548641 -185.747518
15.337316 -1.486898 -185.751307
15.303599 -1.386668 -185.752673
15.269882 -1.286438 -185.754039
15.330514 -1.147721 -185.752982
15.296797 -1.047491 -185.754348
15.263080 -0.947262 -185.755714
15.229363 -0.847032 -185.757080
15.195646 -0.746802 -185.758446
15.161929 -0.646572 -185.759812
15.128212 -0.546342 -185.761178
15.094495 -0.446112 -185.762544
15.060778 -0.345882 -185.763910
15.027061 -0.245652 -185.765276
14.993344 -0.145422 -185.766642
14.959627 -0.045192 -185.768008
14.925910 0.055038 -185.769374
14.797844 0.116781 -185.773163
14.764127 0.217011 -185.774529
14.730410 0.317241 -185.775895
14.696693 0.417471 -185.777261
14.757325 0.556187 -185.776204
14.723608 0.656417 -185.777570
14.689891 0.756647 -185.778936
14.656174 0.856877 -185.780302
14.716806 0.995593 -185.779245
14.588740 1.057337 -185.783034
14.460674 1.119080 -185.786823
14.426957 1.219310 -185.788189
14.393240 1.319540 -185.789555
14.359523 1.419770 -185.790922
14.325806 1.520000 -185.792288
14.292089 1.620230 -185.793654
14.258372 1.720460 -185.795020
14.224655 1.820690 -185.796386
14.285287 1.959406 -185.795328
14.251570 2.059636 -185.796694
14.217853 2.159866 -185.798060
14.184136 2.260096 -185.799427
14.150419 2.360326 -185.800793
14.211051 2.499042 -185.799735
14.177334 2.599272 -185.801101
14.143617 2.699502 -185.802467
14.204249 2.838218 -185.801410
14.170532 2.938448 -185.802776
14.136815 3.038678 -185.804142
14.103098 3.138908 -185.805508
14.163730 3.277624 -185.804451
14.130013 3.377854 -185.805817
14.096296 3.478084 -185.807183
14.062579 3.578314 -185.808549
14.028862 3.678544 -185.809915
13.995145 3.778774 -185.811281
13.961428 3.879004 -185.812647
13.927711 3.979234 -185.814013
13.988343 4.117950 -185.812956
13.954626 4.218180 -185.814322
13.920909 4.318410 -185.815688
13.887192 4.418640 -185.817054
13.759126 4.480383 -185.820843
13.725409 4.580613 -185.822209
13.691692 4.680843 -185.823576
13.752324 4.819560 -185.822518
13.718607 4.919790 -185.823884
13.779239 5.058506 -185.822827
13.745522 5.158736 -185.824193
13.806154 5.297452 -185.823136
13.772437 5.397682 -185.824502
13.833069 5.536398 -185.823445
13.799352 5.636628 -185.824811
13.765635 5.736858 -185.826177
13.731918 5.837088 -185.827543
13.698201 5.937318 -185.828909
13.664484 6.037548 -185.830275
13.725117 6.176264 -185.829218
13.691400 6.276494 -185.830584
13.657683 6.376724 -185.831950
13.718315 6.515440 -185.830893
13.684598 6.615670 -185.832259
13.650881 6.715900 -185.833625
13.617164 6.816130 -185.834991
13.677796 6.954846 -185.833934
13.644079 7.055076 -185.835300
13.704711 7.193793 -185.834243
13.765343 7.332509 -185.833186
13.825975 7.471225 -185.832129
13.886607 7.609942 -185.831072
13.947239 7.748658 -185.830014
14.007871 7.887374 -185.828957
13.974154 7.987604 -185.830323
13.940437 8.087834 -185.831689
13.906720 8.188064 -185.833055
13.873003 8.288294 -185.834421
13.839286 8.388524 -185.835787
13.899919 8.527240 -185.834730
13.866202 8.627470 -185.836096
13.832485 8.727700 -185.837462
13.798768 8.827930 -185.838828
13.859400 8.966646 -185.837771
13.825683 9.066876 -185.839137
13.603267 9.090133 -185.845350
13.380852 9.113390 -185.851562
13.347135 9.213620 -185.852928
13.313418 9.313850 -185.854294
13.279701 9.414080 -185.855660
13.340333 9.552796 -185.854603
13.306616 9.653026 -185.855969
13.272899 9.753256 -185.857335
13.333531 9.891973 -185.856278
13.299814 9.992203 -185.857644
13.266097 10.092432 -185.859010
13.326730 10.231149 -185.857953
13.293013 10.331379 -185.859319
13.164946 10.393122 -185.863108
13.131229 10.493352 -185.864474
12.625767 10.401150 -185.877955
12.497701 10.462894 -185.881745
12.180936 10.447665 -185.890380
12.052870 10.509408 -185.894169
12.019153 10.609638 -185.895535
11.985436 10.709868 -185.896901
11.857370 10.771611 -185.900690
11.634955 10.794869 -185.906902
11.506889 10.856612 -185.910692
11.473172 10.956842 -185.912058
11.345106 11.018586 -185.915847
11.311389 11.118816 -185.917213
11.088974 11.142073 -185.923425
10.866558 11.165330 -185.929637
10.738492 11.227073 -185.933426
10.704775 11.327303 -185.934792
10.576709 11.389047 -185.938582
10.071247 11.296845 -185.952063
9.943180 11.358589 -185.955852
9.720765 11.381846 -185.962065
9.687048 11.482076 -185.963431
9.558982 11.543819 -185.967220
9.430916 11.605563 -185.971009
9.208501 11.628820 -185.977221
8.986086 11.652077 -185.983433
8.197576 11.444416 -186.004184
8.069510 11.506160 -186.007974
17.382657 -4.443302 -185.771639
17.365808 -4.292854 -185.770582
17.348959 -4.142406 -185.769525
17.269644 -4.072463 -185.770891
17.252795 -3.922015 -185.769834
17.173480 -3.852072 -185.771200
17.094165 -3.782129 -185.772566
17.077316 -3.631681 -185.771508
16.998001 -3.561738 -185.772874
16.981152 -3.411290 -185.771817
16.964303 -3.260842 -185.770760
16.884988 -3.190899 -185.772126
16.805673 -3.120955 -185.773492
16.726358 -3.051012 -185.774858
16.647043 -2.981069 -185.776224
16.630194 -2.830621 -185.775167
16.550879 -2.760678 -185.776533
16.534030 -2.610230 -185.775476
16.454715 -2.540287 -185.776842
16.375401 -2.470344 -185.778208
16.358551 -2.319896 -185.777151
16.279236 -2.249953 -185.778517
16.262387 -2.099505 -185.777460
16.183072 -2.029561 -185.778826
16.103758 -1.959618 -185.780192
16.086908 -1.809170 -185.779135
16.007594 -1.739227 -185.780501
15.990744 -1.588779 -185.779444
15.911430 -1.518836 -185.780810
15.832115 -1.448893 -185.782176
15.815265 -1.298445 -185.781119
15.735951 -1.228502 -185.782485
15.656636 -1.158559 -185.783851
15.577321 -1.088615 -185.785217
15.498006 -1.018672 -185.786583
15.418692 -0.948729 -185.787949
15.339377 -0.878786 -185.789315
15.260062 -0.808843 -185.790681
15.243213 -0.658395 -185.789624
15.163898 -0.588452 -185.790990
15.147049 -0.438004 -185.789933
15.130199 -0.287556 -185.788875
15.113350 -0.137108 -185.787818
15.034035 -0.067165 -185.789184
15.017186 0.083283 -185.788127
15.000337 0.233731 -185.787070
14.921022 0.303674 -185.788436
14.904173 0.454122 -185.787379
14.824858 0.524065 -185.788745
14.808009 0.674513 -185.787688
14.978556 1.066476 -185.779362
14.961707 1.216924 -185.778304
14.882392 1.286867 -185.779670
14.803077 1.356810 -185.781036
14.723762 1.426753 -185.782402
14.644448 1.496696 -185.783768
14.565133 1.566639 -185.785134
14.485818 1.636583 -185.786501
14.468969 1.787030 -185.785443
14.452120 1.937478 -185.784386
14.372805 2.007422 -185.785752
14.355956 2.157870 -185.784695
14.276641 2.227813 -185.786061
14.384723 2.539270 -185.780158
14.305408 2.609213 -185.781524
14.226093 2.679157 -185.782890
14.146778 2.749100 -185.784256
14.129929 2.899548 -185.783199
14.113080 3.049996 -185.782142
14.096230 3.200444 -185.781085
14.016916 3.270387 -185.782451
14.000066 3.420835 -185.781393
14.045683 3.651787 -185.777913
14.028833 3.802235 -185.776856
14.011984 3.952683 -185.775799
13.932669 4.022626 -185.777165
13.915820 4.173074 -185.776108
13.836505 4.243018 -185.777474
13.819656 4.393465 -185.776417
13.802807 4.543913 -185.775360
13.785958 4.694361 -185.774303
13.831574 4.925314 -185.770822
13.814725 5.075762 -185.769765
13.735410 5.145705 -185.771131
13.656095 5.215648 -185.772497
13.639246 5.366096 -185.771440
13.622397 5.516544 -185.770383
13.668013 5.747497 -185.766903
13.588698 5.817440 -185.768269
13.571849 5.967888 -185.767212
13.554999 6.118336 -185.766155
13.538150 6.268784 -185.765098
13.583767 6.499737 -185.761617
13.629383 6.730689 -185.758137
13.550068 6.800633 -185.759503
13.533219 6.951081 -185.758446
13.516370 7.101528 -185.757389
13.437055 7.171472 -185.758755
13.482671 7.402424 -185.755275
13.590753 7.713882 -185.749371
13.698835 8.025339 -185.743468
13.681985 8.175787 -185.742411
13.665136 8.326235 -185.741354
13.648287 8.476683 -185.740297
13.568972 8.546626 -185.741663
13.552123 8.697074 -185.740606
13.472808 8.767017 -185.741972
13.455959 8.917465 -185.740914
13.439110 9.067913 -185.739857
13.422260 9.218361 -185.738800
13.405411 9.368809 -185.737743
13.388562 9.519257 -185.736686
13.371713 9.669705 -185.735629
13.354863 9.820153 -185.734572
13.275548 9.890096 -185.735938
13.258699 10.040544 -185.734881
13.179384 10.110487 -185.736247
13.162535 10.260935 -185.735190
13.083220 10.330878 -185.736556
13.066371 10.481326 -185.735499
12.987056 10.551270 -185.736865
12.907742 10.621213 -185.738231
12.828427 10.691156 -185.739597
12.749112 10.761099 -185.740963
12.669797 10.831042 -185.742329
12.590482 10.900985 -185.743695
12.511168 10.970929 -185.745061
12.369387 10.960367 -185.748850
12.227607 10.949805 -185.752639
12.085827 10.939244 -185.756428
12.006512 11.009187 -185.757794
11.927197 11.079130 -185.759160
11.847882 11.149073 -185.760526
11.706102 11.138512 -185.764315
11.626787 11.208455 -185.765681
11.485007 11.197893 -185.769470
11.343226 11.187331 -185.773260
11.263912 11.257275 -185.774626
11.122131 11.246713 -185.778415
11.042817 11.316656 -185.779781
10.963502 11.386599 -185.781147
10.884187 11.456542 -185.782513
10.804872 11.526486 -185.783879
10.725557 11.596429 -185.785245
10.583777 11.585867 -185.789034
10.504462 11.655810 -185.790400
10.362682 11.645249 -185.794189
10.220902 11.634687 -185.797978
10.141587 11.704630 -185.799344
9.999806 11.694069 -185.803133
9.920492 11.764012 -185.804499
9.778711 11.753450 -185.808289
9.699397 11.823393 -185.809655
9.557616 11.812832 -185.813444
9.478301 11.882775 -185.814810
9.398987 11.952718 -185.816176
9.257206 11.942156 -185.819965
9.177892 12.012099 -185.821331
9.036111 12.001538 -185.825120
8.706934 11.749462 -185.836179
8.627619 11.819405 -185.837545
8.548305 11.889348 -185.838911
8.468990 11.959291 -185.840277
8.389675 12.029235 -185.841643
8.310360 12.099178 -185.843009
8.168580 12.088616 -185.846798
8.089265 12.158559 -185.848164
7.947485 12.147998 -185.851953
7.805705 12.137436 -185.855742
7.726390 12.207379 -185.857108
7.584609 12.196817 -185.860897
7.442829 12.186256 -185.864686
7.301049 12.175694 -185.868476
7.096803 12.084628 -185.874688
6.955023 12.074066 -185.878477
6.813242 12.063505 -185.882266
6.733927 12.133448 -185.883632
6.654613 12.203391 -185.884998
6.512832 12.192829 -185.888787
6.246121 12.021258 -185.897423
6.166806 12.091201 -185.898789
6.025026 12.080640 -185.902578
5.945711 12.150583 -185.903944
5.866396 12.220526 -185.905310
5.724616 12.209964 -185.909099
5.645301 12.279907 -185.910465
5.503521 12.269346 -185.914254
5.299275 12.178279 -185.920466
5.157495 12.167718 -185.924256
5.078180 12.237661 -185.925622
4.873934 12.146595 -185.931834
4.607222 11.975023 -185.940469
4.465442 11.964462 -185.944258
4.386127 12.034405 -185.945624
4.244347 12.023843 -185.949413
4.040101 11.932777 -185.955626
3.773390 11.761206 -185.964261
12.888333 10.915754 -185.717417
12.798518 11.037621 -185.716360
12.694858 11.058536 -185.717726
12.591197 11.079451 -185.719092
12.487537 11.100366 -185.720458
12.383877 11.121281 -185.721824
12.280217 11.142197 -185.723190
12.176557 11.163112 -185.724556
12.059052 11.083075 -185.728346
11.955392 11.103990 -185.729712
11.851732 11.124905 -185.731078
11.775760 11.347724 -185.727597
11.685945 11.469591 -185.726540
11.582284 11.490506 -185.727906
11.492469 11.612373 -185.726849
11.388808 11.633288 -185.728215
11.285148 11.654204 -185.729581
11.181488 11.675119 -185.730947
11.077828 11.696034 -185.732313
10.974168 11.716949 -185.733679
10.870508 11.737864 -185.735045
10.766847 11.758779 -185.736411
10.649343 11.678742 -185.740200
10.545683 11.699658 -185.741566
10.442023 11.720573 -185.742932
10.338362 11.741488 -185.744298
10.248547 11.863355 -185.743241
10.144887 11.884270 -185.744607
10.041226 11.905185 -185.745973
9.937566 11.926100 -185.747339
9.820062 11.846063 -185.751129
9.716402 11.866979 -185.752495
9.612741 11.887894 -185.753861
9.522926 12.009761 -185.752803
9.419265 12.030676 -185.754169
9.329450 12.152543 -185.753112
9.225789 12.173458 -185.754478
9.122129 12.194373 -185.755844
9.032313 12.316240 -185.754787
8.928653 12.337155 -185.756153
8.824993 12.358071 -185.757519
8.721333 12.378986 -185.758885
8.617673 12.399901 -185.760251
8.486324 12.218912 -185.766464
8.354975 12.037923 -185.772676
8.251315 12.058839 -185.774042
8.161499 12.180706 -185.772985
8.099372 12.504476 -185.767081
7.995712 12.525392 -185.768447
7.892052 12.546307 -185.769813
7.788391 12.567222 -185.771179
7.684731 12.588137 -185.772545
7.581071 12.609052 -185.773911
7.477411 12.629967 -185.775278
7.373751 12.650882 -185.776644
7.270091 12.671797 -185.778010
7.166431 12.692713 -185.779376
7.062770 12.713628 -185.780742
6.959110 12.734543 -185.782108
6.855450 12.755458 -185.783474
6.737946 12.675421 -185.787263
6.620441 12.595384 -185.791052
6.516781 12.616300 -185.792418
6.399276 12.536263 -185.796207
6.295616 12.557178 -185.797573
6.191956 12.578093 -185.798939
6.088296 12.599008 -185.800305
5.984636 12.619923 -185.801671
5.880976 12.640838 -185.803037
5.777315 12.661754 -185.804403
5.659811 12.581717 -185.808192
5.556151 12.602632 -185.809558
5.438646 12.522595 -185.813347
5.334986 12.543510 -185.814713
5.217482 12.463474 -185.818503
5.113822 12.484389 -185.819869
5.010161 12.505304 -185.821235
4.906501 12.526219 -185.822601
4.802841 12.547134 -185.823967
4.713025 12.669001 -185.822910
4.609365 12.689916 -185.824276
4.491861 12.609879 -185.828065
4.388200 12.630795 -185.829431
4.270696 12.550758 -185.833220
4.153191 12.470721 -185.837009
4.035687 12.390684 -185.840798
3.932027 12.411599 -185.842164
3.814522 12.331563 -185.845953
3.697018 12.251526 -185.849742
3.593358 12.272441 -185.851108
3.489698 12.293356 -185.852474
3.372193 12.213319 -185.856264
3.268533 12.234234 -185.857630
3.164873 12.255150 -185.858996
3.047368 12.175113 -185.862785
2.929864 12.095076 -185.866574
2.826204 12.115991 -185.867940
2.722543 12.136906 -185.869306
2.605039 12.056869 -185.873095
2.501379 12.077785 -185.874461
2.397719 12.098700 -185.875827
2.280214 12.018663 -185.879616
2.148865 11.837674 -185.885829
2.031361 11.757637 -185.889618
1.927701 11.778553 -185.890984
1.810196 11.698516 -185.894773
1.692692 11.618479 -185.898562
1.575187 11.538442 -185.902351
1.443838 11.357454 -185.908563
1.326334 11.277417 -185.912353
1.222674 11.298332 -185.913719
1.105169 11.218295 -185.917508
1.001509 11.239210 -185.918874
0.842472 10.856318 -185.929932
0.724967 10.776281 -185.933721
0.621307 10.797196 -185.935087
0.503803 10.717159 -185.938876
0.386298 10.637123 -185.942666
0.268794 10.557086 -185.946455
0.165133 10.578001 -185.947821
0.047629 10.497964 -185.951610
-0.069876 10.417927 -185.955399
-0.228913 10.035035 -185.966458
-0.387951 9.652142 -185.977516
-0.505455 9.572105 -185.981305
-0.622960 9.492069 -185.985094
-0.740464 9.412032 -185.988884
-0.871813 9.231043 -185.995096
8.561429 12.245078 -185.805220
8.422712 12.305710 -185.804162
8.322483 12.271993 -185.805528
8.183766 12.332625 -185.804471
8.083536 12.298908 -185.805837
7.944820 12.359540 -185.804780
7.806104 12.420172 -185.803723
7.667387 12.480804 -185.802666
7.567157 12.447087 -185.804032
7.428441 12.507719 -185.802975
7.328211 12.474002 -185.804341
7.189495 12.534635 -185.803284
7.050779 12.595267 -185.802227
6.912062 12.655899 -185.801170
6.811832 12.622182 -185.802536
6.673116 12.682814 -185.801479
6.572886 12.649097 -185.802845
6.472656 12.615380 -185.804211
6.372426 12.581663 -185.805577
6.233710 12.642295 -185.804519
6.133480 12.608578 -185.805886
5.994764 12.669210 -185.804828
5.894534 12.635493 -185.806194
5.755818 12.696125 -185.805137
5.655588 12.662408 -185.806503
5.555358 12.628691 -185.807869
5.455128 12.594974 -185.809235
5.354898 12.561257 -185.810601
5.254668 12.527540 -185.811967
5.115952 12.588172 -185.810910
4.977235 12.648804 -185.809853
4.877006 12.615087 -185.811219
4.776776 12.581370 -185.812585
4.676546 12.547653 -185.813951
4.537829 12.608286 -185.812894
4.437599 12.574569 -185.814260
4.298883 12.635201 -185.813203
4.121680 12.790182 -185.809723
4.021451 12.756465 -185.811089
3.921221 12.722748 -185.812455
3.820991 12.689031 -185.813821
3.720761 12.655314 -185.815187
3.659017 12.527248 -185.818976
3.597274 12.399182 -185.822765
3.535530 12.271116 -185.826554
3.435300 12.237399 -185.827920
3.335070 12.203682 -185.829286
3.196354 12.264314 -185.828229
3.057638 12.324946 -185.827172
2.957408 12.291229 -185.828538
2.857178 12.257512 -185.829904
2.756948 12.223795 -185.831270
2.656718 12.190078 -185.832636
2.556488 12.156361 -185.834002
2.456258 12.122644 -185.835368
2.356028 12.088927 -185.836734
2.255798 12.055210 -185.838100
2.155568 12.021493 -185.839466
2.055338 11.987776 -185.840832
1.955109 11.954059 -185.842198
1.893365 11.825993 -185.845987
1.793135 11.792276 -185.847353
1.731392 11.664210 -185.851143
1.631162 11.630493 -185.852509
1.530932 11.596776 -185.853875
1.430702 11.563059 -185.855241
1.330472 11.529342 -185.856607
1.230242 11.495625 -185.857973
1.130012 11.461908 -185.859339
1.029782 11.428191 -185.860705
0.929552 11.394474 -185.862071
0.829322 11.360757 -185.863437
0.767579 11.232690 -185.867226
0.667349 11.198973 -185.868592
0.567119 11.165256 -185.869958
0.466889 11.131539 -185.871324
0.366659 11.097822 -185.872690
0.266429 11.064105 -185.874056
0.166199 11.030388 -185.875422
0.104456 10.902322 -185.879211
0.004226 10.868605 -185.880577
-0.057518 10.740539 -185.884366
-0.157748 10.706822 -185.885732
-0.257978 10.673105 -185.887098
-0.396694 10.733737 -185.886041
-0.496924 10.700020 -185.887407
-0.558667 10.571954 -185.891196
-0.658897 10.538237 -185.892562
-0.720641 10.410171 -185.896351
-0.782385 10.282105 -185.900141
-0.844128 10.154039 -185.903930
-0.905872 10.025973 -185.907719
-0.967615 9.897907 -185.911508
-1.029359 9.769841 -185.915297
-1.091102 9.641774 -185.919086
-1.191332 9.608057 -185.920452
-1.291562 9.574340 -185.921818
-1.391792 9.540623 -185.923184
-1.453536 9.412557 -185.926973
-1.515279 9.284491 -185.930763
-1.577023 9.156425 -185.934552
-1.638766 9.028359 -185.938341
-1.738996 8.994642 -185.939707
-1.800740 8.866576 -185.943496
-1.900970 8.832859 -185.944862
-1.962713 8.704793 -185.948651
-2.062943 8.671076 -185.950017
-2.124687 8.543010 -185.953806
-2.224917 8.509293 -185.955172
-2.286660 8.381227 -185.958962
-2.386890 8.347510 -185.960328
-2.487120 8.313793 -185.961694
-2.548863 8.185726 -185.965483
-2.610607 8.057660 -185.969272
-2.710837 8.023943 -185.970638
-2.772580 7.895877 -185.974427
-2.834324 7.767811 -185.978216
-2.896068 7.639745 -185.982005
-2.957811 7.511679 -185.985794
-3.019555 7.383613 -185.989584
-3.119785 7.349896 -185.990950
-3.220015 7.316179 -185.992316
-3.320244 7.282462 -185.993682
-3.420474 7.248745 -185.995048
-3.520704 7.215028 -185.996414
-3.620934 7.181311 -185.997780
-3.682678 7.053245 -186.001569
-3.782908 7.019528 -186.002935
-3.844651 6.891462 -186.006724
-3.944881 6.857745 -186.008090
-4.006625 6.729678 -186.011879
-4.106855 6.695961 -186.013245
-4.168598 6.567895 -186.017034
-4.230342 6.439829 -186.020823
-4.330572 6.406112 -186.022189
-4.392315 6.278046 -186.025979
-4.492545 6.244329 -186.027345
3.535450 13.278002 -185.869278
3.385002 13.261152 -185.868221
3.315059 13.181838 -185.869587
3.164611 13.164989 -185.868530
3.094668 13.085674 -185.869896
3.024725 13.006359 -185.871262
2.954781 12.927045 -185.872628
2.884838 12.847730 -185.873994
2.814895 12.768415 -185.875360
2.664447 12.751566 -185.874303
2.594504 12.672251 -185.875669
2.444056 12.655402 -185.874612
2.293608 12.638553 -185.873554
2.223665 12.559238 -185.874920
2.073217 12.542389 -185.873863
1.922770 12.525540 -185.872806
1.772322 12.508691 -185.871749
1.621874 12.491842 -185.870692
1.551931 12.412527 -185.872058
1.481988 12.333212 -185.873424
1.412044 12.253898 -185.874790
1.342101 12.174583 -185.876156
1.272158 12.095268 -185.877522
1.202215 12.015954 -185.878888
1.051767 11.999105 -185.877831
0.981824 11.919790 -185.879197
0.911881 11.840475 -185.880563
0.841938 11.761160 -185.881929
0.691490 11.744311 -185.880872
0.621547 11.664997 -185.882238
0.551604 11.585682 -185.883604
0.481660 11.506367 -185.884970
0.331213 11.489518 -185.883913
0.180765 11.472669 -185.882856
0.110822 11.393354 -185.884222
0.040878 11.314040 -185.885588
-0.029065 11.234725 -185.886954
-0.099008 11.155410 -185.888320
-0.168951 11.076096 -185.889686
-0.238894 10.996781 -185.891052
-0.308837 10.917466 -185.892418
-0.378781 10.838151 -185.893784
-0.770742 11.008699 -185.885457
-0.840686 10.929384 -185.886823
-0.910629 10.850070 -185.888189
-0.980572 10.770755 -185.889555
-1.050515 10.691440 -185.890922
-1.120458 10.612126 -185.892288
-1.190401 10.532811 -185.893654
-1.260345 10.453496 -185.895020
-1.330288 10.374181 -185.896386
-1.400231 10.294867 -185.897752
-1.470174 10.215552 -185.899118
-1.540117 10.136237 -185.900484
-1.610060 10.056923 -185.901850
-1.680004 9.977608 -185.903216
-1.749947 9.898293 -185.904582
-1.819890 9.818979 -185.905948
-1.889833 9.739664 -185.907314
-1.959776 9.660349 -185.908680
-2.029719 9.581035 -185.910046
-2.099662 9.501720 -185.911412
-2.089101 9.359940 -185.915201
-2.159044 9.280625 -185.916567
-2.228987 9.201310 -185.917933
-2.298930 9.121996 -185.919299
-2.368874 9.042681 -185.920665
-2.438817 8.963366 -185.922031
-2.508760 8.884052 -185.923397
-2.578703 8.804737 -185.924763
-2.648646 8.725422 -185.926129
-2.718589 8.646108 -185.927495
-2.788532 8.566793 -185.928861
-2.858476 8.487478 -185.930227
-2.928419 8.408163 -185.931593
-2.998362 8.328849 -185.932959
-3.068305 8.249534 -185.934325
-3.218753 8.232685 -185.933268
-3.288696 8.153370 -185.934634
-3.358639 8.074056 -185.936000
-3.428582 7.994741 -185.937366
-3.498526 7.915426 -185.938732
-3.568469 7.836112 -185.940098
-3.638412 7.756797 -185.941464
-3.708355 7.677482 -185.942830
-3.778298 7.598167 -185.944196
-3.848241 7.518853 -185.945562
-3.918185 7.439538 -185.946928
-3.988128 7.360223 -185.948294
-4.058071 7.280909 -185.949660
-4.208519 7.264060 -185.948603
-4.519976 7.372142 -185.942700
-4.670424 7.355292 -185.941643
-4.740367 7.275978 -185.943009
-4.890815 7.259129 -185.941952
-4.960758 7.179814 -185.943318
-5.030701 7.100499 -185.944684
-5.100644 7.021184 -185.946050
-5.170587 6.941870 -185.947416
-5.160026 6.800090 -185.951205
-5.229969 6.720775 -185.952571
-5.219407 6.578995 -185.956360
-5.208846 6.437214 -185.960149
-5.278789 6.357900 -185.961515
-5.348732 6.278585 -185.962881
-5.338171 6.136805 -185.966670
-5.408114 6.057490 -185.968036
-5.478057 5.978175 -185.969402
-5.548000 5.898861 -185.970768
-5.617943 5.819546 -185.972134
-5.687887 5.740231 -185.973500
-5.757830 5.660917 -185.974866
-5.827773 5.581602 -185.976232
-5.897716 5.502287 -185.977598
-5.967659 5.422973 -185.978964
-5.957098 5.281192 -185.982753
-5.946536 5.139412 -185.986543
-6.016479 5.060098 -185.987909
-6.005918 4.918317 -185.991698
-6.075861 4.839003 -185.993064
-6.145804 4.759688 -185.994430
-6.215747 4.680373 -185.995796
-6.285690 4.601059 -185.997162
-6.355634 4.521744 -185.998528
-6.425577 4.442429 -185.999894
-6.495520 4.363114 -186.001260
-6.484958 4.221334 -186.005049
-6.554901 4.142020 -186.006415
-6.624845 4.062705 -186.007781
-6.694788 3.983390 -186.009147
-6.684226 3.841610 -186.012936
-6.754169 3.762295 -186.014302
-6.743608 3.620515 -186.018091
-6.491532 3.291338 -186.029150
-6.480971 3.149558 -186.032939
-6.550914 3.070243 -186.034305
-6.620857 2.990929 -186.035671
-6.690800 2.911614 -186.037037
-6.760743 2.832299 -186.038403
-6.830687 2.752985 -186.039769
-6.900630 2.673670 -186.041135
-6.890068 2.531890 -186.044924
-6.879507 2.390109 -186.048713
-6.868945 2.248329 -186.052503
-6.858384 2.106549 -186.056292
-5.911643 5.810376 -185.949612
-6.033510 5.720560 -185.948555
-6.054425 5.616900 -185.949921
-6.075340 5.513240 -185.951287
-6.197207 5.423424 -185.950230
-6.218123 5.319764 -185.951596
-6.339990 5.229948 -185.950539
-6.461857 5.140132 -185.949482
-6.482772 5.036472 -185.950848
-6.604639 4.946656 -185.949791
-6.625554 4.842996 -185.951157
-6.646469 4.739336 -185.952523
-6.768336 4.649520 -185.951466
-6.789251 4.545860 -185.952832
-6.911118 4.456044 -185.951774
-6.932033 4.352384 -185.953140
-7.053900 4.262568 -185.952083
-7.074816 4.158908 -185.953449
-7.095731 4.055247 -185.954815
-7.217598 3.965432 -185.953758
-7.238513 3.861771 -185.955124
-7.259428 3.758111 -185.956490
-7.280343 3.654451 -185.957856
-7.301258 3.550791 -185.959222
-7.322173 3.447131 -185.960588
-7.343089 3.343471 -185.961954
-7.364004 3.239810 -185.963320
-7.384919 3.136150 -185.964686
-7.304882 3.018646 -185.968476
-7.325797 2.914986 -185.969842
-7.346712 2.811325 -185.971208
-7.266676 2.693821 -185.974997
-7.287591 2.590161 -185.976363
-7.409458 2.500345 -185.975306
-7.531325 2.410529 -185.974248
-7.552240 2.306869 -185.975615
-7.573155 2.203209 -185.976981
-7.493118 2.085704 -185.980770
-7.514033 1.982044 -185.982136
-7.534948 1.878384 -185.983502
-7.454912 1.760880 -185.987291
-7.475827 1.657219 -185.988657
-7.395790 1.539715 -185.992446
-7.416705 1.436055 -185.993812
-7.336668 1.318550 -185.997601
-7.357584 1.214890 -185.998967
-7.277547 1.097386 -186.002756
-7.298462 0.993725 -186.004122
-7.319377 0.890065 -186.005488
-7.239340 0.772561 -186.009277
-7.260255 0.668901 -186.010643
-7.281170 0.565241 -186.012010
-7.302086 0.461580 -186.013376
-7.222049 0.344076 -186.017165
-7.242964 0.240416 -186.018531
-7.162927 0.122911 -186.022320
-7.802698 3.648509 -185.948816
-7.957679 3.471306 -185.945335
-7.923962 3.371076 -185.946702
-7.890245 3.270847 -185.948068
-7.856528 3.170617 -185.949434
-7.822811 3.070387 -185.950800
-7.883443 2.931670 -185.949742
-7.849726 2.831440 -185.951108
-7.910358 2.692724 -185.950051
-7.876641 2.592494 -185.951417
-7.842924 2.492264 -185.952783
-7.809207 2.392034 -185.954149
-7.775490 2.291805 -185.955515
-7.741773 2.191575 -185.956881
-7.802405 2.052858 -185.955824
-7.957387 1.875656 -185.952344
-8.018019 1.736939 -185.951287
-7.984302 1.636709 -185.952653
-8.044934 1.497993 -185.951596
-8.011217 1.397763 -185.952962
-8.071849 1.259047 -185.951905
-8.038132 1.158817 -185.953271
-8.098764 1.020101 -185.952214
-8.065047 0.919871 -185.953580
-8.031330 0.819641 -185.954946
-7.997613 0.719411 -185.956312
-7.963896 0.619181 -185.957678
-7.930179 0.518951 -185.959044
-7.896462 0.418721 -185.960410
-7.862745 0.318491 -185.961776
-7.829028 0.218261 -185.963142
-7.795311 0.118031 -185.964508
-7.667245 0.056288 -185.968297
-7.633528 -0.043942 -185.969663
-7.599811 -0.144172 -185.971029
-7.566094 -0.244402 -185.972395
-7.532377 -0.344632 -185.973761
-7.498660 -0.444862 -185.975127
-7.464943 -0.545092 -185.976493
-7.336877 -0.606835 -185.980282
-7.303160 -0.707065 -185.981648
-7.269443 -0.807295 -185.983014
-7.235726 -0.907525 -185.984380
-7.202009 -1.007755 -185.985746
-7.073943 -1.069499 -185.989535
-7.040226 -1.169728 -185.990901
-7.006509 -1.269958 -185.992267
-6.972792 -1.370188 -185.993633
-6.844726 -1.431932 -185.997423
-6.811009 -1.532162 -185.998789
-6.777292 -1.632392 -186.000155
-6.649226 -1.694135 -186.003944
-6.521159 -1.755879 -186.007733
-6.487442 -1.856109 -186.009099
-6.359376 -1.917852 -186.012888
-6.325659 -2.018082 -186.014254
-6.291942 -2.118312 -186.015620
-6.258225 -2.218542 -186.016986
-6.130159 -2.280286 -186.020775
-6.096442 -2.380515 -186.022141
-5.968376 -2.442259 -186.025930
-5.934659 -2.542489 -186.027296
-5.900942 -2.642719 -186.028662
-5.867225 -2.742949 -186.030028
-5.833508 -2.843179 -186.031394
-5.705442 -2.904922 -186.035184
-5.671725 -3.005152 -186.036550
-5.638008 -3.105382 -186.037916
-5.509942 -3.167126 -186.041705
-5.476225 -3.267356 -186.043071
-5.442508 -3.367586 -186.044437
-5.408791 -3.467815 -186.045803
-5.375074 -3.568045 -186.047169
-5.341357 -3.668275 -186.048535
-5.213291 -3.730019 -186.052324
-5.179574 -3.830249 -186.053690
-5.145857 -3.930479 -186.055056
-5.112140 -4.030709 -186.056422
-5.078423 -4.130939 -186.057788
-5.044706 -4.231168 -186.059154
-5.010989 -4.331398 -186.060520
-4.977272 -4.431628 -186.061886
-4.943555 -4.531858 -186.063252
-4.909838 -4.632088 -186.064618
-4.876121 -4.732318 -186.065984
-4.842404 -4.832548 -186.067350
-4.714338 -4.894292 -186.071139
-4.680621 -4.994521 -186.072505
-4.646904 -5.094751 -186.073871
-4.613187 -5.194981 -186.075237
-4.579470 -5.295211 -186.076603
-4.545753 -5.395441 -186.077969
-4.512036 -5.495671 -186.079335
-4.478319 -5.595901 -186.080701
-4.444602 -5.696131 -186.082067
-4.316536 -5.757874 -186.085857
-4.282819 -5.858104 -186.087223
-4.249102 -5.958334 -186.088589
-4.215385 -6.058564 -186.089955
-4.181668 -6.158794 -186.091321
-4.147951 -6.259024 -186.092687
-4.114234 -6.359254 -186.094053
-4.080517 -6.459484 -186.095419
-4.046800 -6.559714 -186.096785
-4.013083 -6.659944 -186.098151
-3.885016 -6.721687 -186.101940
-3.851299 -6.821917 -186.103306
-3.911932 -6.960634 -186.102249
-3.878215 -7.060863 -186.103615
-3.844498 -7.161093 -186.104981
-3.716431 -7.222837 -186.108770
-3.682714 -7.323067 -186.110136
-3.648997 -7.423297 -186.111502
-3.615280 -7.523527 -186.112868
-3.581563 -7.623757 -186.114234
-3.547846 -7.723987 -186.115600
-3.514129 -7.824216 -186.116966
-3.480412 -7.924446 -186.118332
-3.446695 -8.024676 -186.119698
-3.412978 -8.124906 -186.121064
-3.379261 -8.225136 -186.122430
-3.345544 -8.325366 -186.123796
-3.311827 -8.425596 -186.125162
-3.278110 -8.525826 -186.126528
-3.244393 -8.626056 -186.127894
-3.116327 -8.687799 -186.131683
-3.082610 -8.788029 -186.133049
-3.048893 -8.888259 -186.134415
-3.015176 -8.988489 -186.135781
-2.981459 -9.088719 -186.137147
-2.947742 -9.188949 -186.138513
-2.914025 -9.289179 -186.139879
-2.880308 -9.389409 -186.141245
-2.846591 -9.489639 -186.142611
-2.812874 -9.589869 -186.143977
-2.779157 -9.690099 -186.145343
-2.745440 -9.790329 -186.146710
-2.711723 -9.890558 -186.148076
-2.583657 -9.952302 -186.151865
-2.549940 -10.052532 -186.153231
-2.516223 -10.152762 -186.154597
-2.388157 -10.214505 -186.158386
-2.354440 -10.314735 -186.159752
-2.320723 -10.414965 -186.161118
-2.192657 -10.476709 -186.164907
-2.158940 -10.576939 -186.166273
-2.030874 -10.638682 -186.170062
-1.997157 -10.738912 -186.171428
-1.869091 -10.800656 -186.175217
-1.835374 -10.900886 -186.176583
-1.801657 -11.001116 -186.177949
-1.767940 -11.101345 -186.179315
-1.734223 -11.201575 -186.180681
-1.700506 -11.301805 -186.182047
-1.666789 -11.402035 -186.183413
-1.633072 -11.502265 -186.184779
-1.505006 -11.564009 -186.188569
-1.376940 -11.625752 -186.192358
-1.343223 -11.725982 -186.193724
-1.309506 -11.826212 -186.195090
-1.181439 -11.887956 -186.198879
-1.147722 -11.988186 -186.200245
-1.114005 -12.088416 -186.201611
-1.080288 -12.188645 -186.202977
-1.046571 -12.288875 -186.204343
-0.918505 -12.350619 -186.208132
-0.884788 -12.450849 -186.209498
-0.851071 -12.551079 -186.210864
-0.723005 -12.612822 -186.214653
-0.689288 -12.713052 -186.216019
-0.561222 -12.774796 -186.219808
-0.150109 -12.721080 -186.230867
-0.022043 -12.782824 -186.234656
0.011674 -12.883054 -186.236022
0.139741 -12.944797 -186.239811
0.267807 -13.006541 -186.243600
0.395873 -13.068284 -186.247390
0.523939 -13.130028 -186.251179
0.652005 -13.191771 -186.254968
0.780071 -13.253515 -186.258757
-7.973780 0.213850 -185.974104
-7.956931 0.063402 -185.973047
-7.940081 -0.087045 -185.971990
-7.923232 -0.237493 -185.970933
-7.906383 -0.387941 -185.969876
-7.889534 -0.538389 -185.968819
-7.810219 -0.608332 -185.970185
-7.793370 -0.758780 -185.969127
-7.714055 -0.828723 -185.970493
-7.697206 -0.979171 -185.969436
-7.617892 -1.049114 -185.970802
-7.538577 -1.119057 -185.972168
-7.521728 -1.269505 -185.971111
-7.442413 -1.339448 -185.972477
-7.363098 -1.409391 -185.973843
-7.346249 -1.559839 -185.972786
-7.266935 -1.629782 -185.974152
-7.187620 -1.699726 -185.975518
-7.108305 -1.769669 -185.976884
-7.028991 -1.839612 -185.978250
-6.949676 -1.909555 -185.979616
-6.932827 -2.060003 -185.978559
-6.853512 -2.129946 -185.979925
-6.774197 -2.199889 -185.981291
-6.694883 -2.269832 -185.982657
-6.615568 -2.339775 -185.984023
-6.598719 -2.490223 -185.982966
-6.519404 -2.560166 -185.984332
-6.440089 -2.630110 -185.985698
-6.360775 -2.700053 -185.987064
-6.281460 -2.769996 -185.988430
-6.202145 -2.839939 -185.989796
-6.122831 -2.909882 -185.991162
-6.043516 -2.979825 -185.992528
-6.026667 -3.130273 -185.991471
-5.947352 -3.200216 -185.992837
-5.868037 -3.270160 -185.994203
-5.788723 -3.340103 -185.995569
-5.709408 -3.410046 -185.996935
-5.692559 -3.560494 -185.995878
-5.613244 -3.630437 -185.997244
-5.533930 -3.700380 -185.998610
-5.454615 -3.770323 -185.999976
-5.437766 -3.920771 -185.998919
-5.358451 -3.990714 -186.000285
-5.279136 -4.060657 -186.001651
-5.199822 -4.130600 -186.003017
-5.120507 -4.200544 -186.004383
-5.103658 -4.350991 -186.003326
-5.024343 -4.420935 -186.004692
-5.007494 -4.571382 -186.003635
-4.928179 -4.641326 -186.005001
-4.911330 -4.791773 -186.003944
-4.832016 -4.861717 -186.005310
-4.752701 -4.931660 -186.006676
-4.673386 -5.001603 -186.008042
-4.560373 -5.372442 -186.007294
-4.543524 -5.522890 -186.006237
-4.651606 -5.834347 -186.000333
-4.572291 -5.904290 -186.001699
-4.555442 -6.054738 -186.000642
-4.476127 -6.124681 -186.002008
-4.459278 -6.275129 -186.000951
-4.379964 -6.345072 -186.002317
-4.363114 -6.495520 -186.001260
-4.283800 -6.565463 -186.002626
-4.204485 -6.635406 -186.003992
-4.187636 -6.785854 -186.002935
-4.170787 -6.936302 -186.001878
-4.091472 -7.006245 -186.003244
-4.074623 -7.156693 -186.002187
-3.995308 -7.226636 -186.003553
-3.915994 -7.296579 -186.004919
-3.836679 -7.366522 -186.006285
-3.819830 -7.516970 -186.005228
-3.740515 -7.586913 -186.006594
-3.723666 -7.737361 -186.005536
-3.644351 -7.807304 -186.006902
-3.627502 -7.957752 -186.005845
-3.548187 -8.027695 -186.007211
-3.468873 -8.097638 -186.008577
-3.452024 -8.248086 -186.007520
-3.435174 -8.398534 -186.006463
-3.355860 -8.468477 -186.007829
-3.339011 -8.618925 -186.006772
-3.259696 -8.688868 -186.008138
-3.180381 -8.758811 -186.009504
-3.163532 -8.909259 -186.008447
-3.146683 -9.059707 -186.007390
-3.067368 -9.129650 -186.008756
-3.050519 -9.280098 -186.007699
-2.971204 -9.350041 -186.009065
-2.891890 -9.419984 -186.010431
-2.875041 -9.570432 -186.009374
-2.795726 -9.640375 -186.010740
-2.716411 -9.710319 -186.012106
-2.699562 -9.860766 -186.011049
-2.620247 -9.930710 -186.012415
-2.540933 -10.000653 -186.013781
-2.461618 -10.070596 -186.015147
-2.382303 -10.140539 -186.016513
-2.302989 -10.210482 -186.017879
-2.286140 -10.360930 -186.016822
-2.206825 -10.430873 -186.018188
-2.127510 -10.500816 -186.019554
-2.048195 -10.570760 -186.020920
-2.031346 -10.721207 -186.019863
-2.014497 -10.871655 -186.018805
-1.935183 -10.941598 -186.020171
-1.918333 -11.092046 -186.019114
-1.839019 -11.161989 -186.020480
-1.759704 -11.231933 -186.021846
-1.742855 -11.382380 -186.020789
-1.663540 -11.452323 -186.022155
-1.646691 -11.602771 -186.021098
-1.567376 -11.672714 -186.022464
-1.488062 -11.742658 -186.023830
-1.408747 -11.812601 -186.025196
-1.329432 -11.882544 -186.026562
-1.250118 -11.952487 -186.027928
-1.233268 -12.102935 -186.026871
-1.153954 -12.172878 -186.028237
-1.074639 -12.242821 -186.029603
-0.995324 -12.312764 -186.030969
-0.916010 -12.382708 -186.032335
-0.899161 -12.533155 -186.031278
-0.819846 -12.603099 -186.032644
-0.740531 -12.673042 -186.034010
-0.661217 -12.742985 -186.035376
-0.581902 -12.812928 -186.036742
-0.502587 -12.882871 -186.038108
-0.423272 -12.952814 -186.039474
-0.343958 -13.022758 -186.040840
-0.264643 -13.092701 -186.042206
-0.185328 -13.162644 -186.043572
-0.106014 -13.232587 -186.044938
-0.026699 -13.302530 -186.046304
0.052616 -13.372473 -186.047670
0.131930 -13.442416 -186.049036
0.211245 -13.512360 -186.050402
0.290560 -13.582303 -186.051768
0.369874 -13.652246 -186.053134
0.449189 -13.722189 -186.054500
0.528504 -13.792132 -186.055866
0.607818 -13.862075 -186.057232
0.687133 -13.932019 -186.058598
0.766448 -14.001962 -186.059964
0.845763 -14.071905 -186.061330
0.925077 -14.141848 -186.062697
1.004392 -14.211791 -186.064063
1.083707 -14.281734 -186.065429
1.100556 -14.432182 -186.064371
1.179870 -14.502125 -186.065737
1.259185 -14.572069 -186.067103
1.338500 -14.642012 -186.068469
1.417814 -14.711955 -186.069836
1.497129 -14.781898 -186.071202
1.576444 -14.851841 -186.072568
1.655759 -14.921784 -186.073934
1.735073 -14.991727 -186.075300
1.814388 -15.061671 -186.076666
2.018634 -14.970604 -186.082878
2.160414 -14.960043 -186.086667
2.239729 -15.029986 -186.088033
2.319043 -15.099929 -186.089399
2.398358 -15.169872 -186.090765
2.477673 -15.239816 -186.092131
2.681918 -15.148749 -186.098343
2.886164 -15.057683 -186.104556
3.027944 -15.047122 -186.108345
3.107259 -15.117065 -186.109711
3.186574 -15.187008 -186.111077
3.328354 -15.176446 -186.114866
3.470134 -15.165885 -186.118655
3.736846 -14.994314 -186.127290
3.878626 -14.983752 -186.131080
4.020406 -14.973191 -186.134869
4.099721 -15.043134 -186.136235
4.241501 -15.032573 -186.140024
4.320816 -15.102516 -186.141390
4.462596 -15.091954 -186.145179
4.541911 -15.161897 -186.146545
4.683691 -15.151336 -186.150334
5.075333 -14.818756 -186.163816
-4.089686 -6.570056 -185.965565
-3.999870 -6.691923 -185.964508
-3.910054 -6.813790 -185.963451
-3.875616 -7.339465 -185.952701
-3.785800 -7.461332 -185.951644
-3.682140 -7.482247 -185.953010
-3.578480 -7.503162 -185.954376
-3.488664 -7.625029 -185.953319
-3.385004 -7.645944 -185.954685
-3.295188 -7.767811 -185.953628
-3.205372 -7.889678 -185.952571
-3.115556 -8.011545 -185.951514
-3.025740 -8.133412 -185.950457
-2.991302 -8.659087 -185.939707
-2.901486 -8.780954 -185.938650
-2.839359 -9.104725 -185.932746
-2.763387 -9.327544 -185.929266
-2.659727 -9.348459 -185.930632
-2.569911 -9.470326 -185.929575
-2.493940 -9.693145 -185.926095
-2.404124 -9.815012 -185.925038
-2.328152 -10.037831 -185.921558
-2.238337 -10.159698 -185.920500
-2.134676 -10.180613 -185.921866
-2.044861 -10.302480 -185.920809
-1.955045 -10.424347 -185.919752
-1.865229 -10.546214 -185.918695
-1.789257 -10.769033 -185.915215
-1.699442 -10.890900 -185.914158
-1.609626 -11.012768 -185.913101
-1.519810 -11.134635 -185.912044
-1.429994 -11.256502 -185.910986
-1.326334 -11.277417 -185.912353
-1.236518 -11.399284 -185.911295
-1.146702 -11.521151 -185.910238
-1.056886 -11.643018 -185.909181
-0.967071 -11.764885 -185.908124
-0.877255 -11.886752 -185.907067
-0.773595 -11.907667 -185.908433
-0.697623 -12.130486 -185.904953
-0.607807 -12.252353 -185.903896
-0.517991 -12.374220 -185.902839
-0.442020 -12.597039 -185.899358
-0.352204 -12.718906 -185.898301
-0.248544 -12.739821 -185.899667
-0.158728 -12.861688 -185.898610
-0.068912 -12.983555 -185.897553
0.034748 -13.004471 -185.898919
0.110719 -13.227289 -185.895439
0.186691 -13.450108 -185.891959
0.290351 -13.471024 -185.893325
0.394011 -13.491939 -185.894691
0.483827 -13.613806 -185.893633
0.587487 -13.634721 -185.894999
0.691147 -13.655636 -185.896366
0.780963 -13.777503 -185.895308
0.884623 -13.798418 -185.896674
0.974439 -13.920285 -185.895617
1.064255 -14.042152 -185.894560
1.154071 -14.164019 -185.893503
1.257731 -14.184934 -185.894869
1.347547 -14.306801 -185.893812
1.451207 -14.327717 -185.895178
1.554867 -14.348632 -185.896544
1.658527 -14.369547 -185.897910
1.748343 -14.491414 -185.896853
1.838159 -14.613281 -185.895796
1.941819 -14.634196 -185.897162
2.031635 -14.756063 -185.896105
2.135295 -14.776978 -185.897471
2.225111 -14.898845 -185.896414
2.314927 -15.020712 -185.895357
2.418587 -15.041627 -185.896723
2.522247 -15.062543 -185.898089
2.625907 -15.083458 -185.899455
2.729567 -15.104373 -185.900821
2.833228 -15.125288 -185.902187
2.950732 -15.045251 -185.905976
3.054392 -15.066166 -185.907342
3.158052 -15.087081 -185.908708
3.261713 -15.107997 -185.910074
3.365373 -15.128912 -185.911440
3.469033 -15.149827 -185.912806
3.572693 -15.170742 -185.914172
3.662509 -15.292609 -185.913115
3.766169 -15.313524 -185.914481
3.869829 -15.334439 -185.915847
3.959645 -15.456306 -185.914790
4.063305 -15.477221 -185.916156
4.166965 -15.498137 -185.917522
4.270626 -15.519052 -185.918888
4.374286 -15.539967 -185.920254
4.491790 -15.459930 -185.924043
4.595450 -15.480845 -185.925409
4.699110 -15.501760 -185.926775
4.816615 -15.421724 -185.930564
4.920275 -15.442639 -185.931930
5.010091 -15.564506 -185.930873
5.113751 -15.585421 -185.932239
5.217411 -15.606336 -185.933605
5.321071 -15.627251 -185.934971
5.424732 -15.648166 -185.936337
5.542236 -15.568129 -185.940126
5.645896 -15.589045 -185.941492
5.749556 -15.609960 -185.942858
5.853217 -15.630875 -185.944224
5.956877 -15.651790 -185.945590
6.060537 -15.672705 -185.946956
