ply
format ascii 1.0
element vertex 1513
property float x
property float y
property float z
element face 0
property list uchar uint vertex_indices
end_header
10.546529 -13.689926 -184.711336
10.567444 -13.586266 -184.712702
10.689311 -13.496450 -184.711644
10.811178 -13.406634 -184.710587
11.235901 -13.358351 -184.702261
11.357768 -13.268536 -184.701204
11.479635 -13.178720 -184.700147
11.500550 -13.075060 -184.701513
11.521465 -12.971399 -184.702879
11.643332 -12.881584 -184.701822
11.664247 -12.777923 -184.703188
11.786115 -12.688108 -184.702130
11.807030 -12.584447 -184.703496
11.928897 -12.494632 -184.702439
11.949812 -12.390971 -184.703805
11.970727 -12.287311 -184.705171
12.092594 -12.197495 -184.704114
12.113509 -12.093835 -184.705480
12.134424 -11.990175 -184.706846
12.458195 -11.928048 -184.700943
12.681014 -11.852076 -184.697463
12.701929 -11.748416 -184.698829
12.823796 -11.658601 -184.697772
13.349471 -11.624162 -184.687022
13.572290 -11.548190 -184.683542
13.694157 -11.458375 -184.682485
13.816024 -11.368559 -184.681428
13.937891 -11.278743 -184.680370
14.463566 -11.244304 -184.669621
14.585433 -11.154489 -184.668564
14.606348 -11.050828 -184.669930
14.728215 -10.961013 -184.668873
14.850082 -10.871197 -184.667816
14.971949 -10.781381 -184.666758
14.992864 -10.677721 -184.668124
15.114731 -10.587905 -184.667067
15.236598 -10.498089 -184.666010
15.257513 -10.394429 -184.667376
15.379380 -10.304613 -184.666319
15.400296 -10.200953 -184.667685
15.421211 -10.097293 -184.669051
15.442126 -9.993633 -184.670417
15.563993 -9.903817 -184.669360
15.584908 -9.800157 -184.670726
15.605823 -9.696497 -184.672092
15.626738 -9.592836 -184.673458
15.748605 -9.503021 -184.672401
15.769520 -9.399360 -184.673767
15.790436 -9.295700 -184.675133
15.912303 -9.205884 -184.674076
15.933218 -9.102224 -184.675442
15.954133 -8.998564 -184.676808
15.975048 -8.894904 -184.678174
15.995963 -8.791244 -184.679540
16.117830 -8.701428 -184.678483
16.340649 -8.625456 -184.675003
16.361564 -8.521796 -184.676369
16.483431 -8.431980 -184.675312
16.504346 -8.328320 -184.676678
16.626213 -8.238504 -184.675621
16.647129 -8.134844 -184.676987
16.768996 -8.045028 -184.675929
16.789911 -7.941368 -184.677295
16.911778 -7.851552 -184.676238
16.932693 -7.747892 -184.677604
16.953608 -7.644232 -184.678970
16.873571 -7.526728 -184.682760
16.894486 -7.423067 -184.684126
16.915402 -7.319407 -184.685492
16.936317 -7.215747 -184.686858
16.957232 -7.112087 -184.688224
16.978147 -7.008427 -184.689590
16.999062 -6.904767 -184.690956
17.019977 -6.801107 -184.692322
17.040892 -6.697446 -184.693688
17.061808 -6.593786 -184.695054
16.981771 -6.476282 -184.698843
17.002686 -6.372622 -184.700209
17.023601 -6.268961 -184.701575
17.044516 -6.165301 -184.702941
17.065431 -6.061641 -184.704307
17.086346 -5.957981 -184.705673
17.107262 -5.854321 -184.707039
17.027225 -5.736816 -184.710828
17.048140 -5.633156 -184.712194
17.069055 -5.529496 -184.713560
16.989018 -5.411991 -184.717349
17.009933 -5.308331 -184.718715
17.030848 -5.204671 -184.720081
16.950812 -5.087167 -184.723870
16.870775 -4.969662 -184.727660
16.689786 -4.838313 -184.733872
16.609749 -4.720809 -184.737661
16.529713 -4.603304 -184.741450
16.449676 -4.485800 -184.745239
16.470591 -4.382140 -184.746605
16.491506 -4.278480 -184.747971
16.411469 -4.160975 -184.751760
16.331433 -4.043471 -184.755550
15.948540 -3.884433 -184.766608
15.868503 -3.766929 -184.770397
15.889418 -3.663268 -184.771763
15.809382 -3.545764 -184.775552
15.830297 -3.442104 -184.776918
15.750260 -3.324599 -184.780707
15.771175 -3.220939 -184.782073
15.691138 -3.103435 -184.785863
15.712053 -2.999775 -184.787229
15.632017 -2.882270 -184.791018
15.551980 -2.764766 -184.794807
15.471943 -2.647261 -184.798596
15.391906 -2.529757 -184.802385
15.311870 -2.412252 -184.806174
15.231833 -2.294748 -184.809963
15.151796 -2.177243 -184.813753
15.071759 -2.059739 -184.817542
14.890770 -1.928390 -184.823754
14.810734 -1.810885 -184.827543
14.831649 -1.707225 -184.828909
14.751612 -1.589721 -184.832698
14.772527 -1.486061 -184.834064
14.793442 -1.382400 -184.835430
14.713406 -1.264896 -184.839219
14.734321 -1.161236 -184.840586
14.755236 -1.057576 -184.841952
14.675199 -0.940071 -184.845741
14.696114 -0.836411 -184.847107
14.616077 -0.718906 -184.850896
14.536041 -0.601402 -184.854685
14.556956 -0.497742 -184.856051
14.476919 -0.380237 -184.859840
14.194978 -0.235044 -184.868476
14.114942 -0.117540 -184.872265
14.135857 -0.013880 -184.873631
14.055820 0.103625 -184.877420
14.076735 0.207285 -184.878786
14.097650 0.310945 -184.880152
14.017613 0.428450 -184.883941
14.038529 0.532110 -184.885307
13.958492 0.649614 -184.889096
13.979407 0.753275 -184.890462
14.000322 0.856935 -184.891828
13.920285 0.974439 -184.895617
13.941200 1.078099 -184.896983
13.962115 1.181760 -184.898349
13.882079 1.299264 -184.902138
13.902994 1.402924 -184.903504
13.822957 1.520429 -184.907294
13.742920 1.637933 -184.911083
13.662883 1.755438 -184.914872
13.683799 1.859098 -184.916238
13.704714 1.962758 -184.917604
13.725629 2.066418 -184.918970
13.746544 2.170078 -184.920336
13.767459 2.273738 -184.921702
13.788374 2.377399 -184.923068
13.708337 2.494903 -184.926857
13.729253 2.598563 -184.928223
13.649216 2.716068 -184.932012
13.569179 2.833572 -184.935801
13.590094 2.937232 -184.937167
13.611009 3.040893 -184.938533
13.530973 3.158397 -184.942323
13.551888 3.262057 -184.943689
13.572803 3.365717 -184.945055
13.593718 3.469377 -184.946421
13.614633 3.573038 -184.947787
13.534596 3.690542 -184.951576
13.555511 3.794202 -184.952942
13.576427 3.897862 -184.954308
13.496390 4.015367 -184.958097
13.517305 4.119027 -184.959463
13.538220 4.222687 -184.960829
13.559135 4.326347 -184.962195
13.580050 4.430008 -184.963561
13.600965 4.533668 -184.964927
13.520929 4.651172 -184.968716
13.541844 4.754832 -184.970082
13.562759 4.858493 -184.971448
13.583674 4.962153 -184.972814
13.604589 5.065813 -184.974180
13.625504 5.169473 -184.975546
13.545467 5.286978 -184.979335
13.566383 5.390638 -184.980701
13.486346 5.508142 -184.984491
13.507261 5.611802 -184.985857
13.528176 5.715462 -184.987223
13.549091 5.819123 -184.988589
13.570006 5.922783 -184.989955
13.590922 6.026443 -184.991321
13.611837 6.130103 -184.992687
13.632752 6.233763 -184.994053
13.653667 6.337423 -184.995419
13.674582 6.441084 -184.996785
13.695497 6.544744 -184.998151
13.716412 6.648404 -184.999517
13.737327 6.752064 -185.000883
13.758243 6.855724 -185.002249
13.678206 6.973229 -185.006038
13.699121 7.076889 -185.007404
13.619084 7.194393 -185.011193
13.639999 7.298054 -185.012559
13.660914 7.401714 -185.013925
13.681830 7.505374 -185.015291
13.702745 7.609034 -185.016657
13.723660 7.712694 -185.018023
13.744575 7.816354 -185.019389
13.765490 7.920014 -185.020755
13.887357 8.009830 -185.019698
13.908272 8.113490 -185.021064
13.929187 8.217151 -185.022430
13.950102 8.320811 -185.023796
13.870066 8.438315 -185.027585
13.890981 8.541975 -185.028951
13.810944 8.659480 -185.032740
12.923292 8.887739 -185.055915
12.843255 9.005243 -185.059704
12.864170 9.108904 -185.061070
15.628627 -9.688869 -184.707320
16.066655 -9.396207 -184.696570
16.127288 -9.257490 -184.695513
16.187920 -9.118774 -184.694456
16.248552 -8.980058 -184.693399
16.309184 -8.841342 -184.692342
16.275467 -8.741112 -184.693708
17.185241 -8.256018 -184.670842
17.340222 -8.078815 -184.667362
17.400854 -7.940099 -184.666305
17.367137 -7.839869 -184.667671
17.427769 -7.701153 -184.666614
17.394052 -7.600923 -184.667980
17.360335 -7.500693 -184.669346
17.326619 -7.400463 -184.670712
17.387251 -7.261747 -184.669655
17.353534 -7.161517 -184.671021
17.414166 -7.022800 -184.669964
17.380449 -6.922571 -184.671330
17.441081 -6.783854 -184.670273
17.501713 -6.645138 -184.669216
17.562345 -6.506422 -184.668159
17.528628 -6.406192 -184.669525
17.589260 -6.267475 -184.668467
17.555543 -6.167245 -184.669834
17.521826 -6.067016 -184.671200
17.488109 -5.966786 -184.672566
17.454392 -5.866556 -184.673932
17.515024 -5.727839 -184.672874
17.481307 -5.627610 -184.674240
17.447590 -5.527380 -184.675606
17.413873 -5.427150 -184.676973
17.380156 -5.326920 -184.678339
17.346439 -5.226690 -184.679705
17.312722 -5.126460 -184.681071
17.279005 -5.026230 -184.682437
17.245288 -4.926000 -184.683803
17.211571 -4.825770 -184.685169
17.177854 -4.725540 -184.686535
17.144137 -4.625310 -184.687901
17.016071 -4.563567 -184.691690
16.982354 -4.463337 -184.693056
16.948637 -4.363107 -184.694422
16.914920 -4.262877 -184.695788
16.881203 -4.162647 -184.697154
16.847486 -4.062417 -184.698520
16.719420 -4.000674 -184.702309
16.685703 -3.900444 -184.703675
16.651986 -3.800214 -184.705041
16.618269 -3.699984 -184.706407
16.584552 -3.599754 -184.707773
16.550835 -3.499524 -184.709139
16.422769 -3.437780 -184.712928
16.389052 -3.337550 -184.714294
16.260986 -3.275807 -184.718083
16.227269 -3.175577 -184.719449
16.193552 -3.075347 -184.720815
16.159835 -2.975117 -184.722181
16.126118 -2.874887 -184.723547
15.998052 -2.813144 -184.727337
15.869986 -2.751400 -184.731126
15.836269 -2.651170 -184.732492
15.802552 -2.550940 -184.733858
15.674486 -2.489197 -184.737647
15.640769 -2.388967 -184.739013
15.607052 -2.288737 -184.740379
15.573335 -2.188507 -184.741745
15.539618 -2.088277 -184.743111
15.411551 -2.026534 -184.746900
15.283485 -1.964790 -184.750689
15.249768 -1.864560 -184.752055
15.216051 -1.764330 -184.753421
15.182334 -1.664100 -184.754787
15.148617 -1.563870 -184.756153
15.114900 -1.463640 -184.757519
15.081183 -1.363410 -184.758885
15.047466 -1.263181 -184.760251
15.013749 -1.162951 -184.761617
15.074381 -1.024234 -184.760560
15.040664 -0.924004 -184.761926
15.006947 -0.823774 -184.763292
14.973230 -0.723545 -184.764658
14.939513 -0.623315 -184.766024
14.905796 -0.523085 -184.767390
14.777730 -0.461341 -184.771179
14.744013 -0.361111 -184.772545
14.615947 -0.299368 -184.776335
14.582230 -0.199138 -184.777701
14.642862 -0.060421 -184.776644
14.609145 0.039808 -184.778010
14.575428 0.140038 -184.779376
14.541711 0.240268 -184.780742
14.507994 0.340498 -184.782108
14.474277 0.440728 -184.783474
14.440560 0.540958 -184.784840
14.312494 0.602702 -184.788629
14.278777 0.702932 -184.789995
14.245060 0.803161 -184.791361
14.211343 0.903391 -184.792727
14.177626 1.003621 -184.794093
14.143909 1.103851 -184.795459
14.204541 1.242568 -184.794402
14.170824 1.342797 -184.795768
14.137107 1.443027 -184.797134
14.103390 1.543257 -184.798500
14.069673 1.643487 -184.799866
14.035956 1.743717 -184.801232
14.096588 1.882433 -184.800175
14.062871 1.982663 -184.801541
14.029154 2.082893 -184.802907
13.995437 2.183123 -184.804273
14.056070 2.321840 -184.803216
14.022353 2.422069 -184.804582
13.988636 2.522299 -184.805948
13.954919 2.622529 -184.807314
13.921202 2.722759 -184.808680
13.887485 2.822989 -184.810046
13.853768 2.923219 -184.811412
13.820051 3.023449 -184.812778
13.880683 3.162165 -184.811721
13.846966 3.262395 -184.813087
13.813249 3.362625 -184.814453
13.873881 3.501341 -184.813396
13.840164 3.601571 -184.814762
13.806447 3.701801 -184.816128
13.772730 3.802031 -184.817494
13.833362 3.940747 -184.816437
13.799645 4.040977 -184.817803
13.765928 4.141207 -184.819169
13.732211 4.241437 -184.820535
13.698494 4.341667 -184.821901
13.664777 4.441897 -184.823267
13.631060 4.542127 -184.824633
13.597343 4.642357 -184.825999
13.563626 4.742587 -184.827365
13.529909 4.842817 -184.828731
13.496192 4.943047 -184.830097
13.556824 5.081763 -184.829040
13.523107 5.181993 -184.830406
13.489390 5.282223 -184.831772
13.550022 5.420939 -184.830714
13.516305 5.521169 -184.832081
13.482588 5.621399 -184.833447
13.448871 5.721629 -184.834813
13.415154 5.821859 -184.836179
13.475786 5.960575 -184.835121
13.442069 6.060805 -184.836487
13.502701 6.199521 -184.835430
13.468984 6.299751 -184.836796
13.435267 6.399981 -184.838162
13.495899 6.538698 -184.837105
13.462182 6.638927 -184.838471
13.428465 6.739157 -184.839837
13.489098 6.877874 -184.838780
13.455381 6.978104 -184.840146
13.516013 7.116820 -184.839089
13.482296 7.217050 -184.840455
13.542928 7.355766 -184.839398
13.509211 7.455996 -184.840764
13.569843 7.594712 -184.839707
13.630475 7.733429 -184.838650
13.691107 7.872145 -184.837593
13.751739 8.010861 -184.836536
13.718022 8.111091 -184.837902
13.684305 8.211321 -184.839268
13.650588 8.311551 -184.840634
13.616871 8.411781 -184.842000
13.583154 8.512011 -184.843366
13.549437 8.612241 -184.844732
13.515720 8.712471 -184.846098
13.482003 8.812701 -184.847464
13.448286 8.912931 -184.848830
13.414569 9.013160 -184.850196
13.286503 9.074904 -184.853985
13.252786 9.175134 -184.855351
13.219069 9.275364 -184.856717
13.185352 9.375594 -184.858083
13.151635 9.475824 -184.859449
13.117918 9.576054 -184.860815
13.084201 9.676284 -184.862181
12.956135 9.738027 -184.865970
12.828069 9.799771 -184.869759
12.794352 9.900001 -184.871125
12.666286 9.961744 -184.874914
12.632569 10.061974 -184.876280
12.598852 10.162204 -184.877646
12.470786 10.223947 -184.881436
12.059672 10.170232 -184.892494
11.931606 10.231975 -184.896283
11.897889 10.332205 -184.897649
11.769823 10.393949 -184.901438
11.641757 10.455692 -184.905228
11.513691 10.517436 -184.909017
11.385625 10.579180 -184.912806
11.257559 10.640923 -184.916595
11.035143 10.664180 -184.922807
10.907077 10.725924 -184.926596
10.590313 10.710695 -184.935232
10.462247 10.772438 -184.939021
10.334181 10.834182 -184.942810
10.206115 10.895925 -184.946599
9.983699 10.919182 -184.952811
9.666935 10.903953 -184.961447
9.538869 10.965697 -184.965236
9.410803 11.027440 -184.969025
9.377086 11.127670 -184.970391
9.249020 11.189414 -184.974180
9.120954 11.251157 -184.977969
8.992887 11.312901 -184.981759
8.959170 11.413131 -184.983125
8.170661 11.205470 -185.003876
8.042594 11.267213 -185.007665
8.008877 11.367443 -185.009031
7.880811 11.429187 -185.012820
7.752745 11.490930 -185.016609
17.303342 -4.373359 -184.773005
17.286493 -4.222911 -184.771948
17.269644 -4.072463 -184.770891
17.190329 -4.002520 -184.772257
17.173480 -3.852072 -184.771200
17.094165 -3.782129 -184.772566
17.014850 -3.712185 -184.773932
16.935536 -3.642242 -184.775298
16.918686 -3.491794 -184.774240
16.839371 -3.421851 -184.775606
16.822522 -3.271403 -184.774549
16.743207 -3.201460 -184.775915
16.663893 -3.131517 -184.777281
16.584578 -3.061574 -184.778647
16.567729 -2.911126 -184.777590
16.488414 -2.841183 -184.778956
16.409099 -2.771240 -184.780322
16.329784 -2.701296 -184.781688
16.312935 -2.550848 -184.780631
16.233620 -2.480905 -184.781997
16.216771 -2.330457 -184.780940
16.137456 -2.260514 -184.782306
16.120607 -2.110066 -184.781249
16.041292 -2.040123 -184.782615
15.961977 -1.970180 -184.783981
15.882663 -1.900237 -184.785347
15.740882 -1.910798 -184.789136
15.661567 -1.840855 -184.790502
15.582253 -1.770912 -184.791868
15.502938 -1.700969 -184.793234
15.486089 -1.550521 -184.792177
15.406774 -1.480578 -184.793543
15.389925 -1.330130 -184.792486
15.310610 -1.260187 -184.793852
15.293760 -1.109739 -184.792795
15.214446 -1.039796 -184.794161
15.135131 -0.969852 -184.795527
15.055816 -0.899909 -184.796893
14.976501 -0.829966 -184.798259
14.897187 -0.760023 -184.799625
14.880337 -0.609575 -184.798568
14.925954 -0.378622 -184.795088
14.909104 -0.228174 -184.794031
14.829789 -0.158231 -184.795397
14.750475 -0.088288 -184.796763
14.671160 -0.018345 -184.798129
14.591845 0.051598 -184.799495
14.512530 0.121541 -184.800861
14.433216 0.191485 -184.802227
14.416366 0.341933 -184.801170
14.399517 0.492381 -184.800113
14.445133 0.723333 -184.796632
14.428284 0.873781 -184.795575
14.411435 1.024229 -184.794518
14.394586 1.174677 -184.793461
14.377736 1.325125 -184.792404
14.298421 1.395068 -184.793770
14.219107 1.465011 -184.795136
14.202257 1.615459 -184.794079
14.122943 1.685402 -184.795445
14.106093 1.835850 -184.794388
14.026779 1.905794 -184.795754
14.009929 2.056242 -184.794697
13.930615 2.126185 -184.796063
13.913765 2.276633 -184.795006
13.896916 2.427081 -184.793948
13.817601 2.497024 -184.795314
13.863218 2.727976 -184.791834
13.908834 2.958929 -184.788354
13.891985 3.109377 -184.787297
13.875135 3.259825 -184.786240
13.858286 3.410273 -184.785183
13.778971 3.480216 -184.786549
13.762122 3.630664 -184.785492
13.682807 3.700607 -184.786858
13.728424 3.931560 -184.783377
13.711574 4.082008 -184.782320
13.694725 4.232456 -184.781263
13.677876 4.382904 -184.780206
13.598561 4.452847 -184.781572
13.581712 4.603295 -184.780515
13.502397 4.673238 -184.781881
13.485548 4.823686 -184.780824
13.468698 4.974134 -184.779767
13.451849 5.124582 -184.778710
13.435000 5.275030 -184.777652
13.480616 5.505983 -184.774172
13.526232 5.736935 -184.770692
13.571849 5.967888 -184.767212
13.554999 6.118336 -184.766155
13.538150 6.268784 -184.765098
13.521301 6.419232 -184.764040
13.441986 6.489175 -184.765406
13.425137 6.639623 -184.764349
13.408288 6.790071 -184.763292
13.328973 6.860014 -184.764658
13.312124 7.010462 -184.763601
13.295274 7.160910 -184.762544
13.278425 7.311358 -184.761487
13.324041 7.542311 -184.758007
13.369658 7.773263 -184.754527
13.352808 7.923711 -184.753469
13.398425 8.154664 -184.749989
13.381575 8.305112 -184.748932
13.427192 8.536065 -184.745452
13.410342 8.686513 -184.744395
13.393493 8.836961 -184.743338
13.314178 8.906904 -184.744704
13.297329 9.057352 -184.743647
13.218014 9.127295 -184.745013
13.138700 9.197238 -184.746379
13.121850 9.347686 -184.745321
13.042536 9.417629 -184.746687
12.963221 9.487572 -184.748053
12.883906 9.557515 -184.749419
12.804591 9.627459 -184.750786
12.725276 9.697402 -184.752152
12.645962 9.767345 -184.753518
12.629112 9.917793 -184.752460
12.612263 10.068241 -184.751403
12.595414 10.218689 -184.750346
12.578565 10.369137 -184.749289
12.436784 10.358575 -184.753078
12.357469 10.428518 -184.754444
12.215689 10.417957 -184.758233
12.136374 10.487900 -184.759599
12.057060 10.557843 -184.760965
11.977745 10.627786 -184.762331
11.898430 10.697729 -184.763697
11.819115 10.767672 -184.765063
11.739800 10.837616 -184.766429
11.598020 10.827054 -184.770219
11.518705 10.896997 -184.771585
11.376925 10.886436 -184.775374
11.172679 10.795369 -184.781586
11.093364 10.865312 -184.782952
11.014049 10.935255 -184.784318
10.872269 10.924694 -184.788107
10.792954 10.994637 -184.789473
10.713640 11.064580 -184.790839
10.634325 11.134523 -184.792205
10.555010 11.204466 -184.793571
10.413230 11.193905 -184.797360
10.333915 11.263848 -184.798726
10.192135 11.253286 -184.802516
10.112820 11.323230 -184.803882
10.033505 11.393173 -184.805248
9.891725 11.382611 -184.809037
9.812410 11.452554 -184.810403
9.733095 11.522497 -184.811769
9.591315 11.511936 -184.815558
9.449534 11.501374 -184.819347
9.307754 11.490812 -184.823136
9.165974 11.480251 -184.826925
9.024193 11.469689 -184.830714
8.944879 11.539632 -184.832081
8.803098 11.529071 -184.835870
8.661318 11.518509 -184.839659
8.582003 11.588452 -184.841025
8.440223 11.577891 -184.844814
12.625636 10.553776 -184.729842
12.549664 10.776595 -184.726362
12.446004 10.797511 -184.727728
12.342344 10.818426 -184.729094
12.238684 10.839341 -184.730460
12.135024 10.860256 -184.731826
12.031364 10.881171 -184.733192
11.927703 10.902086 -184.734558
11.824043 10.923001 -184.735924
11.734227 11.044868 -184.734867
11.630567 11.065783 -184.736233
11.526907 11.086699 -184.737599
11.423247 11.107614 -184.738965
11.319587 11.128529 -184.740331
11.229771 11.250396 -184.739274
11.126111 11.271311 -184.740640
11.022451 11.292226 -184.742006
10.918790 11.313141 -184.743372
10.815130 11.334056 -184.744738
10.711470 11.354972 -184.746104
10.607810 11.375887 -184.747470
10.504150 11.396802 -184.748836
10.400490 11.417717 -184.750202
10.310674 11.539584 -184.749145
10.207014 11.560499 -184.750511
10.103354 11.581414 -184.751877
9.999693 11.602329 -184.753243
9.896033 11.623245 -184.754609
9.792373 11.644160 -184.755975
9.688713 11.665075 -184.757341
9.585053 11.685990 -184.758707
9.481393 11.706905 -184.760073
9.391577 11.828772 -184.759016
9.287917 11.849687 -184.760382
9.184256 11.870602 -184.761748
9.080596 11.891517 -184.763114
8.963092 11.811481 -184.766903
8.859432 11.832396 -184.768269
8.741927 11.752359 -184.772058
8.638267 11.773274 -184.773424
8.520762 11.693237 -184.777213
8.417102 11.714153 -184.778579
8.327286 11.836020 -184.777522
8.223626 11.856935 -184.778888
8.119966 11.877850 -184.780254
8.016306 11.898765 -184.781620
7.912646 11.919680 -184.782986
7.822830 12.041547 -184.781929
7.719170 12.062462 -184.783295
7.615510 12.083377 -184.784661
7.525694 12.205244 -184.783604
7.422034 12.226160 -184.784970
7.332218 12.348027 -184.783913
7.228558 12.368942 -184.785279
7.124898 12.389857 -184.786645
7.021237 12.410772 -184.788011
6.917577 12.431687 -184.789377
6.813917 12.452602 -184.790743
6.710257 12.473517 -184.792109
6.592752 12.393481 -184.795898
6.489092 12.414396 -184.797264
6.385432 12.435311 -184.798630
6.267928 12.355274 -184.802419
6.164267 12.376189 -184.803785
6.060607 12.397104 -184.805151
5.943103 12.317068 -184.808940
5.839443 12.337983 -184.810306
5.735783 12.358898 -184.811673
5.632122 12.379813 -184.813039
5.528462 12.400728 -184.814405
5.424802 12.421643 -184.815771
5.307298 12.341606 -184.819560
5.203637 12.362522 -184.820926
5.099977 12.383437 -184.822292
4.982473 12.303400 -184.826081
4.878813 12.324315 -184.827447
4.775152 12.345230 -184.828813
4.671492 12.366145 -184.830179
4.567832 12.387060 -184.831545
4.464172 12.407976 -184.832911
4.346667 12.327939 -184.836700
4.173786 11.844094 -184.850182
4.083970 11.965961 -184.849125
3.980310 11.986877 -184.850491
3.862805 11.906840 -184.854280
3.745301 11.826803 -184.858069
3.627796 11.746766 -184.861858
3.510292 11.666729 -184.865647
3.406632 11.687645 -184.867013
3.302971 11.708560 -184.868379
3.199311 11.729475 -184.869745
3.095651 11.750390 -184.871111
2.991991 11.771305 -184.872477
2.874486 11.691268 -184.876266
2.770826 11.712183 -184.877632
2.667166 11.733099 -184.878998
2.549662 11.653062 -184.882788
2.446001 11.673977 -184.884154
2.328497 11.593940 -184.887943
2.197148 11.412951 -184.894155
2.079644 11.332915 -184.897944
1.975984 11.353830 -184.899310
1.858479 11.273793 -184.903099
1.754819 11.294708 -184.904465
1.609626 11.012768 -184.913101
1.505966 11.033683 -184.914467
1.402305 11.054598 -184.915833
1.284801 10.974561 -184.919622
1.181141 10.995476 -184.920988
1.063636 10.915439 -184.924777
0.946132 10.835403 -184.928566
0.828627 10.755366 -184.932355
0.711123 10.675329 -184.936144
0.593618 10.595292 -184.939934
0.462270 10.414304 -184.946146
0.330921 10.233315 -184.952358
0.227261 10.254230 -184.953724
0.109756 10.174193 -184.957513
-0.007748 10.094156 -184.961302
-0.139097 9.913168 -184.967515
-0.284290 9.631227 -184.976150
-0.401795 9.551190 -184.979939
-0.519299 9.471154 -184.983728
-0.636804 9.391117 -184.987517
-0.754308 9.311080 -184.991307
-0.927190 8.827236 -185.004788
6.387656 12.264899 -184.814212
6.248939 12.325531 -184.813155
6.148709 12.291814 -184.814521
6.048479 12.258097 -184.815887
5.948250 12.224380 -184.817253
5.848020 12.190663 -184.818619
5.709303 12.251295 -184.817562
5.609073 12.217578 -184.818928
5.508843 12.183861 -184.820294
5.370127 12.244493 -184.819237
5.269897 12.210776 -184.820603
5.169667 12.177059 -184.821969
5.030951 12.237691 -184.820912
4.892235 12.298323 -184.819855
4.792005 12.264606 -184.821221
4.691775 12.230889 -184.822587
4.591545 12.197172 -184.823953
4.491315 12.163455 -184.825319
4.352599 12.224087 -184.824262
4.252369 12.190370 -184.825628
4.190625 12.062304 -184.829417
4.090395 12.028587 -184.830783
3.990165 11.994870 -184.832149
3.889935 11.961153 -184.833515
3.789706 11.927436 -184.834881
3.689476 11.893719 -184.836247
3.589246 11.860002 -184.837613
3.489016 11.826285 -184.838979
3.350299 11.886917 -184.837922
3.250070 11.853200 -184.839288
3.188326 11.725134 -184.843077
3.088096 11.691417 -184.844443
2.987866 11.657700 -184.845809
2.887636 11.623983 -184.847175
2.787406 11.590266 -184.848541
2.571717 11.839596 -184.842638
2.471487 11.805879 -184.844004
2.371257 11.772162 -184.845370
2.271028 11.738445 -184.846736
2.170798 11.704728 -184.848102
2.070568 11.671011 -184.849468
2.008824 11.542945 -184.853257
1.908594 11.509228 -184.854623
1.808364 11.475511 -184.855989
1.708134 11.441794 -184.857355
1.569418 11.502426 -184.856298
1.507675 11.374360 -184.860087
1.407445 11.340643 -184.861453
1.307215 11.306926 -184.862819
1.283957 11.084511 -184.869031
1.222214 10.956445 -184.872820
1.121984 10.922728 -184.874186
1.021754 10.889011 -184.875552
0.921524 10.855294 -184.876918
0.821294 10.821577 -184.878284
0.682578 10.882209 -184.877227
0.582348 10.848492 -184.878593
0.520604 10.720426 -184.882382
0.420375 10.686709 -184.883748
0.320145 10.652992 -184.885114
0.219915 10.619275 -184.886480
0.119685 10.585558 -184.887846
0.019455 10.551841 -184.889212
-0.080775 10.518124 -184.890578
-0.142519 10.390058 -184.894368
-0.242749 10.356341 -184.895734
-0.304492 10.228275 -184.899523
-0.366236 10.100209 -184.903312
-0.466466 10.066492 -184.904678
-0.566695 10.032775 -184.906044
-0.628439 9.904709 -184.909833
-0.651696 9.682293 -184.916045
-0.713440 9.554227 -184.919835
-0.813670 9.520510 -184.921201
-0.913900 9.486793 -184.922567
-1.014129 9.453076 -184.923933
-1.075873 9.325010 -184.927722
-1.176103 9.291293 -184.929088
-1.237847 9.163227 -184.932877
-1.338076 9.129510 -184.934243
-1.438306 9.095793 -184.935609
-1.500050 8.967727 -184.939398
-1.600280 8.934010 -184.940764
-1.662023 8.805944 -184.944553
-1.762253 8.772227 -184.945919
-1.823997 8.644161 -184.949708
-1.924227 8.610444 -184.951074
-1.947484 8.388028 -184.957287
-1.970741 8.165613 -184.963499
-2.070971 8.131896 -184.964865
-2.132715 8.003830 -184.968654
-2.232944 7.970113 -184.970020
-2.333174 7.936396 -184.971386
-2.433404 7.902679 -184.972752
-2.495148 7.774613 -184.976541
-2.595378 7.740896 -184.977907
-2.695608 7.707179 -184.979273
-2.757351 7.579113 -184.983062
-2.857581 7.545396 -184.984428
-2.957811 7.511679 -184.985794
-3.019555 7.383613 -184.989584
-3.081298 7.255547 -184.993373
-3.181528 7.221830 -184.994739
-3.243272 7.093764 -184.998528
-3.343502 7.060047 -184.999894
-3.443732 7.026330 -185.001260
-3.543961 6.992613 -185.002626
-3.644191 6.958896 -185.003992
-3.705935 6.830829 -185.007781
-3.806165 6.797112 -185.009147
-3.906395 6.763395 -185.010513
-3.814193 6.257933 -185.023995
3.738705 12.585950 -184.889281
3.507753 12.631566 -184.885800
3.437810 12.552251 -184.887166
3.126352 12.660333 -184.881263
2.975904 12.643484 -184.880206
2.825457 12.626635 -184.879149
2.755513 12.547320 -184.880515
2.605066 12.530471 -184.879458
2.535123 12.451156 -184.880824
2.465179 12.371842 -184.882190
2.395236 12.292527 -184.883556
2.325293 12.213212 -184.884922
2.174845 12.196363 -184.883865
2.024397 12.179514 -184.882808
1.873950 12.162665 -184.881751
1.804006 12.083350 -184.883117
1.653559 12.066501 -184.882059
1.583615 11.987186 -184.883425
1.513672 11.907872 -184.884791
1.443729 11.828557 -184.886158
1.373786 11.749242 -184.887524
1.223338 11.732393 -184.886466
1.153395 11.653079 -184.887832
1.083452 11.573764 -184.889198
0.933004 11.556915 -184.888141
0.782556 11.540066 -184.887084
0.712613 11.460751 -184.888450
0.562165 11.443902 -184.887393
0.492222 11.364587 -184.888759
0.422279 11.285272 -184.890125
0.352336 11.205958 -184.891491
0.201888 11.189109 -184.890434
0.131945 11.109794 -184.891800
-0.018503 11.092945 -184.890743
-0.168951 11.076096 -184.889686
-0.238894 10.996781 -184.891052
-0.308837 10.917466 -184.892418
-0.459285 10.900617 -184.891361
-0.529228 10.821302 -184.892727
-0.518667 10.679522 -184.896516
-0.588610 10.600207 -184.897882
-0.658553 10.520893 -184.899248
-0.728496 10.441578 -184.900614
-0.798440 10.362263 -184.901980
-0.948887 10.345414 -184.900923
-1.018831 10.266100 -184.902289
-1.088774 10.186785 -184.903655
-1.158717 10.107470 -184.905021
-1.228660 10.028155 -184.906387
-1.298603 9.948841 -184.907753
-1.368546 9.869526 -184.909119
-1.438489 9.790211 -184.910485
-1.588937 9.773362 -184.909428
-1.658880 9.694048 -184.910794
-1.728824 9.614733 -184.912160
-1.798767 9.535418 -184.913526
-1.868710 9.456104 -184.914892
-1.938653 9.376789 -184.916258
-2.008596 9.297474 -184.917624
-2.078539 9.218159 -184.918990
-2.148483 9.138845 -184.920356
-2.218426 9.059530 -184.921722
-2.288369 8.980215 -184.923088
-2.358312 8.900901 -184.924454
-2.428255 8.821586 -184.925820
-2.498198 8.742271 -184.927186
-2.568141 8.662957 -184.928552
-2.638085 8.583642 -184.929918
-2.708028 8.504327 -184.931284
-2.777971 8.425013 -184.932650
-2.847914 8.345698 -184.934016
-2.917857 8.266383 -184.935382
-2.987800 8.187069 -184.936748
-3.057744 8.107754 -184.938114
-3.047182 7.965974 -184.941903
-3.117125 7.886659 -184.943269
-3.187068 7.807344 -184.944635
-3.257012 7.728030 -184.946001
-3.326955 7.648715 -184.947367
-3.477403 7.631866 -184.946310
-3.547346 7.552551 -184.947676
-3.617289 7.473236 -184.949042
-3.687232 7.393922 -184.950408
-3.757175 7.314607 -184.951774
-3.827118 7.235292 -184.953140
-3.897061 7.155978 -184.954506
-3.967005 7.076663 -184.955872
-4.036948 6.997348 -184.957238
-4.106891 6.918034 -184.958604
-4.176834 6.838719 -184.959971
-4.246777 6.759404 -184.961337
-4.316720 6.680090 -184.962703
-4.467168 6.663240 -184.961645
-4.537111 6.583926 -184.963011
-4.607055 6.504611 -184.964377
-4.676998 6.425296 -184.965743
-4.827446 6.408447 -184.964686
-4.897389 6.329132 -184.966052
-4.967332 6.249818 -184.967418
-5.037275 6.170503 -184.968784
-5.107218 6.091188 -184.970150
-5.096657 5.949408 -184.973940
-5.166600 5.870094 -184.975306
-5.236543 5.790779 -184.976672
-5.306486 5.711464 -184.978038
-5.295925 5.569684 -184.981827
-5.365868 5.490369 -184.983193
-5.435811 5.411055 -184.984559
-5.425249 5.269274 -184.988348
-5.575697 5.252425 -184.987291
-5.645640 5.173110 -184.988657
-5.796088 5.156261 -184.987600
-5.866031 5.076947 -184.988966
-5.855470 4.935166 -184.992755
-5.925413 4.855852 -184.994121
-5.914852 4.714072 -184.997910
-5.984795 4.634757 -184.999276
-5.974233 4.492977 -185.003065
-5.883167 4.288731 -185.009277
-5.953110 4.209416 -185.010643
-6.023053 4.130101 -185.012010
-6.092996 4.050787 -185.013376
-6.243444 4.033938 -185.012318
-6.313387 3.954623 -185.013684
-6.302826 3.812843 -185.017474
-6.372769 3.733528 -185.018840
-6.362208 3.591748 -185.022629
-6.351646 3.449968 -185.026418
-6.341084 3.308187 -185.030207
-6.411028 3.228873 -185.031573
-6.400466 3.087092 -185.035362
-6.470409 3.007778 -185.036728
-6.459848 2.865998 -185.040517
-6.449286 2.724217 -185.044306
-6.438725 2.582437 -185.048096
-6.508668 2.503122 -185.049462
-6.498106 2.361342 -185.053251
-6.568049 2.282027 -185.054617
-6.637993 2.202713 -185.055983
-6.627431 2.060933 -185.059772
-6.616870 1.919152 -185.063561
-3.899025 7.558409 -184.962428
-4.020892 7.468594 -184.961371
-4.142759 7.378778 -184.960314
-4.466530 7.316651 -184.954410
-4.588397 7.226835 -184.953353
-4.609312 7.123175 -184.954719
-4.731179 7.033359 -184.953662
-4.853046 6.943543 -184.952605
-4.974913 6.853727 -184.951548
-5.096780 6.763911 -184.950491
-5.117695 6.660251 -184.951857
-5.138611 6.556591 -184.953223
-5.159526 6.452931 -184.954589
-5.281393 6.363115 -184.953532
-5.302308 6.259455 -184.954898
-5.323223 6.155795 -184.956264
-5.344138 6.052134 -184.957630
-5.365053 5.948474 -184.958996
-5.486920 5.858659 -184.957939
-5.507835 5.754998 -184.959305
-5.528751 5.651338 -184.960671
-5.650618 5.561522 -184.959613
-5.671533 5.457862 -184.960979
-5.793400 5.368046 -184.959922
-5.814315 5.264386 -184.961288
-6.138086 5.202259 -184.955385
-6.259953 5.112443 -184.954328
-6.280868 5.008783 -184.955694
-6.402735 4.918967 -184.954637
-6.423650 4.815307 -184.956003
-6.444565 4.711647 -184.957369
-6.566432 4.621831 -184.956312
-6.587347 4.518171 -184.957678
-6.709214 4.428355 -184.956621
-6.730130 4.324695 -184.957987
-6.851997 4.234879 -184.956930
-6.872912 4.131219 -184.958296
-6.994779 4.041403 -184.957238
-7.015694 3.937743 -184.958604
-7.036609 3.834083 -184.959971
-7.057524 3.730423 -184.961337
-6.977487 3.612918 -184.965126
-6.998403 3.509258 -184.966492
-7.019318 3.405598 -184.967858
-7.040233 3.301938 -184.969224
-7.061148 3.198277 -184.970590
-6.981111 3.080773 -184.974379
-7.002026 2.977113 -184.975745
-6.921990 2.859608 -184.979534
-6.942905 2.755948 -184.980900
-6.963820 2.652288 -184.982266
-6.984735 2.548628 -184.983632
-7.005650 2.444968 -184.984998
-7.026565 2.341308 -184.986364
-7.047480 2.237647 -184.987730
-7.068395 2.133987 -184.989096
-7.190262 2.044171 -184.988039
-7.211178 1.940511 -184.989405
-7.232093 1.836851 -184.990771
-7.253008 1.733191 -184.992137
-7.273923 1.629531 -184.993503
-7.193886 1.512026 -184.997292
-7.214801 1.408366 -184.998658
-7.235716 1.304706 -185.000024
-7.155680 1.187201 -185.003813
-7.176595 1.083541 -185.005179
-7.096558 0.966037 -185.008969
-7.117473 0.862377 -185.010335
-7.037436 0.744872 -185.014124
-7.058352 0.641212 -185.015490
-7.079267 0.537552 -185.016856
-6.999230 0.420047 -185.020645
-7.020145 0.316387 -185.022011
-6.738204 0.171194 -185.030646
-6.658168 0.053690 -185.034435
-6.578131 -0.063815 -185.038225
-6.599046 -0.167475 -185.039591
-6.519009 -0.284980 -185.043380
-6.539924 -0.388640 -185.044746
-6.459888 -0.506144 -185.048535
-6.866009 4.372549 -184.971372
-6.926641 4.233833 -184.970315
-6.987273 4.095116 -184.969258
-7.142254 3.917914 -184.965778
-7.202886 3.779197 -184.964720
-7.263518 3.640481 -184.963663
-7.324150 3.501765 -184.962606
-7.384783 3.363049 -184.961549
-7.351066 3.262819 -184.962915
-7.411698 3.124102 -184.961858
-7.472330 2.985386 -184.960801
-7.438613 2.885156 -184.962167
-7.499245 2.746440 -184.961110
-7.748575 2.530751 -184.955207
-7.809207 2.392034 -184.954149
-7.869839 2.253318 -184.953092
-7.930472 2.114602 -184.952035
-7.896755 2.014372 -184.953401
-7.863038 1.914142 -184.954767
-7.923670 1.775426 -184.953710
-7.889953 1.675196 -184.955076
-7.856236 1.574966 -184.956442
-7.916868 1.436250 -184.955385
-7.883151 1.336020 -184.956751
-7.943783 1.197303 -184.955694
-7.910066 1.097073 -184.957060
-7.876349 0.996843 -184.958426
-7.842632 0.896614 -184.959792
-7.903264 0.757897 -184.958735
-7.869547 0.657667 -184.960101
-7.835830 0.557437 -184.961467
-7.802113 0.457207 -184.962833
-7.768396 0.356978 -184.964199
-7.734679 0.256748 -184.965565
-7.700962 0.156518 -184.966931
-7.572896 0.094774 -184.970720
-7.539179 -0.005456 -184.972086
-7.505462 -0.105686 -184.973452
-7.471745 -0.205916 -184.974818
-7.438028 -0.306146 -184.976184
-7.404311 -0.406375 -184.977550
-7.370594 -0.506605 -184.978916
-7.336877 -0.606835 -184.980282
-7.208811 -0.668579 -184.984071
-7.175094 -0.768809 -184.985437
-7.141377 -0.869039 -184.986803
-7.107660 -0.969269 -184.988169
-7.073943 -1.069499 -184.989535
-6.945877 -1.131242 -184.993325
-6.912160 -1.231472 -184.994691
-6.878443 -1.331702 -184.996057
-6.750377 -1.393445 -184.999846
-6.716660 -1.493675 -185.001212
-6.682943 -1.593905 -185.002578
-6.649226 -1.694135 -185.003944
-6.615509 -1.794365 -185.005310
-6.581792 -1.894595 -185.006676
-6.548075 -1.994825 -185.008042
-6.420008 -2.056569 -185.011831
-6.386291 -2.156798 -185.013197
-6.352574 -2.257028 -185.014563
-6.224508 -2.318772 -185.018352
-6.190791 -2.419002 -185.019718
-6.062725 -2.480745 -185.023507
-6.029008 -2.580975 -185.024873
-5.995291 -2.681205 -185.026239
-5.961574 -2.781435 -185.027605
-5.927857 -2.881665 -185.028971
-5.894140 -2.981895 -185.030337
-5.766074 -3.043639 -185.034127
-5.732357 -3.143868 -185.035493
-5.698640 -3.244098 -185.036859
-5.570574 -3.305842 -185.040648
-5.536857 -3.406072 -185.042014
-5.503140 -3.506302 -185.043380
-5.469423 -3.606532 -185.044746
-5.435706 -3.706762 -185.046112
-5.401989 -3.806992 -185.047478
-5.273923 -3.868735 -185.051267
-5.240206 -3.968965 -185.052633
-5.206489 -4.069195 -185.053999
-5.172772 -4.169425 -185.055365
-5.139055 -4.269655 -185.056731
-5.105338 -4.369885 -185.058097
-5.071621 -4.470115 -185.059463
-5.037904 -4.570345 -185.060829
-5.004187 -4.670575 -185.062195
-4.970470 -4.770804 -185.063561
-4.842404 -4.832548 -185.067350
-4.808687 -4.932778 -185.068716
-4.774970 -5.033008 -185.070082
-4.741253 -5.133238 -185.071448
-4.707536 -5.233468 -185.072814
-4.673819 -5.333698 -185.074180
-4.640102 -5.433928 -185.075546
-4.512036 -5.495671 -185.079335
-4.478319 -5.595901 -185.080701
-4.444602 -5.696131 -185.082067
-4.410885 -5.796361 -185.083433
-4.377168 -5.896591 -185.084800
-4.343451 -5.996821 -185.086166
-4.309734 -6.097051 -185.087532
-4.276017 -6.197281 -185.088898
-4.147951 -6.259024 -185.092687
-4.114234 -6.359254 -185.094053
-4.080517 -6.459484 -185.095419
-4.046800 -6.559714 -185.096785
-4.013083 -6.659944 -185.098151
-3.979366 -6.760174 -185.099517
-3.945649 -6.860404 -185.100883
-3.911932 -6.960634 -185.102249
-3.878215 -7.060863 -185.103615
-3.844498 -7.161093 -185.104981
-3.810781 -7.261323 -185.106347
-3.777064 -7.361553 -185.107713
-3.743347 -7.461783 -185.109079
-3.615280 -7.523527 -185.112868
-3.581563 -7.623757 -185.114234
-3.547846 -7.723987 -185.115600
-3.514129 -7.824216 -185.116966
-3.480412 -7.924446 -185.118332
-3.446695 -8.024676 -185.119698
-3.412978 -8.124906 -185.121064
-3.379261 -8.225136 -185.122430
-3.345544 -8.325366 -185.123796
-3.217478 -8.387110 -185.127585
-3.183761 -8.487340 -185.128951
-3.150044 -8.587569 -185.130317
-3.116327 -8.687799 -185.131683
-3.082610 -8.788029 -185.133049
-2.954544 -8.849773 -185.136838
-2.920827 -8.950003 -185.138205
-2.887110 -9.050233 -185.139571
-2.853393 -9.150463 -185.140937
-2.819676 -9.250693 -185.142303
-2.785959 -9.350922 -185.143669
-2.752242 -9.451152 -185.145035
-2.624176 -9.512896 -185.148824
-2.590459 -9.613126 -185.150190
-2.556742 -9.713356 -185.151556
-2.428676 -9.775099 -185.155345
-2.300610 -9.836843 -185.159134
-2.266893 -9.937073 -185.160500
-2.233176 -10.037303 -185.161866
-2.199459 -10.137533 -185.163232
-2.071393 -10.199276 -185.167021
-2.037676 -10.299506 -185.168387
-2.003959 -10.399736 -185.169753
-1.970242 -10.499966 -185.171119
-1.936525 -10.600196 -185.172485
-1.902808 -10.700426 -185.173851
-1.869091 -10.800656 -185.175217
-1.835374 -10.900886 -185.176583
-1.707308 -10.962629 -185.180372
-1.673591 -11.062859 -185.181738
-1.639874 -11.163089 -185.183105
-1.606157 -11.263319 -185.184471
-1.478091 -11.325063 -185.188260
-1.444374 -11.425292 -185.189626
-1.316307 -11.487036 -185.193415
-1.282590 -11.587266 -185.194781
-1.154524 -11.649009 -185.198570
-1.026458 -11.710753 -185.202359
-0.426647 -11.580065 -185.218264
-0.298580 -11.641808 -185.222053
-0.264863 -11.742038 -185.223419
-0.231146 -11.842268 -185.224785
-0.197429 -11.942498 -185.226151
-0.163712 -12.042728 -185.227517
-0.129995 -12.142958 -185.228883
-0.001929 -12.204701 -185.232672
0.031788 -12.304931 -185.234038
0.065505 -12.405161 -185.235404
0.193571 -12.466905 -185.239193
0.227288 -12.567135 -185.240559
0.355354 -12.628878 -185.244349
0.389071 -12.729108 -185.245715
0.517137 -12.790852 -185.249504
0.550854 -12.891082 -185.250870
0.678920 -12.952825 -185.254659
-7.831999 0.224412 -184.977893
-7.752685 0.154469 -184.979259
-7.735836 0.004021 -184.978202
-7.781452 -0.226932 -184.974722
-7.827068 -0.457884 -184.971242
-7.810219 -0.608332 -184.970185
-7.793370 -0.758780 -184.969127
-7.714055 -0.828723 -184.970493
-7.697206 -0.979171 -184.969436
-7.617892 -1.049114 -184.970802
-7.601042 -1.199562 -184.969745
-7.521728 -1.269505 -184.971111
-7.442413 -1.339448 -184.972477
-7.425564 -1.489896 -184.971420
-7.346249 -1.559839 -184.972786
-7.266935 -1.629782 -184.974152
-7.187620 -1.699726 -184.975518
-7.108305 -1.769669 -184.976884
-7.091456 -1.920117 -184.975827
-7.012141 -1.990060 -184.977193
-6.932827 -2.060003 -184.978559
-6.853512 -2.129946 -184.979925
-6.774197 -2.199889 -184.981291
-6.757348 -2.350337 -184.980234
-6.678033 -2.420280 -184.981600
-6.598719 -2.490223 -184.982966
-6.581870 -2.640671 -184.981909
-6.502555 -2.710614 -184.983275
-6.423240 -2.780557 -184.984641
-6.343926 -2.850501 -184.986007
-6.264611 -2.920444 -184.987373
-6.185296 -2.990387 -184.988739
-6.168447 -3.140835 -184.987682
-6.089132 -3.210778 -184.989048
-6.009818 -3.280721 -184.990414
-5.930503 -3.350664 -184.991780
-5.851188 -3.420607 -184.993146
-5.771874 -3.490551 -184.994512
-5.692559 -3.560494 -184.995878
-5.675710 -3.710942 -184.994821
-5.596395 -3.780885 -184.996187
-5.517080 -3.850828 -184.997553
-5.437766 -3.920771 -184.998919
-5.420917 -4.071219 -184.997862
-5.341602 -4.141162 -184.999228
-5.324753 -4.291610 -184.998171
-5.245438 -4.361553 -184.999537
-5.166123 -4.431496 -185.000903
-5.086809 -4.501439 -185.002269
-5.007494 -4.571382 -185.003635
-4.877632 -5.092669 -185.001830
-4.798317 -5.162612 -185.003196
-4.781468 -5.313060 -185.002138
-4.702153 -5.383003 -185.003504
-4.685304 -5.533451 -185.002447
-4.730921 -5.764404 -184.998967
-4.651606 -5.834347 -185.000333
-4.634757 -5.984795 -184.999276
-4.555442 -6.054738 -185.000642
-4.476127 -6.124681 -185.002008
-4.459278 -6.275129 -185.000951
-4.379964 -6.345072 -185.002317
-4.300649 -6.415015 -185.003683
-4.283800 -6.565463 -185.002626
-4.204485 -6.635406 -185.003992
-4.125170 -6.705349 -185.005358
-4.108321 -6.855797 -185.004301
-4.029007 -6.925740 -185.005667
-3.949692 -6.995683 -185.007033
-3.932843 -7.146131 -185.005976
-3.853528 -7.216074 -185.007342
-3.774213 -7.286018 -185.008708
-3.694899 -7.355961 -185.010074
-3.615584 -7.425904 -185.011440
-3.598735 -7.576352 -185.010383
-3.519420 -7.646295 -185.011749
-3.502571 -7.796743 -185.010692
-3.485722 -7.947191 -185.009635
-3.468873 -8.097638 -185.008577
-3.452024 -8.248086 -185.007520
-3.435174 -8.398534 -185.006463
-3.355860 -8.468477 -185.007829
-3.276545 -8.538420 -185.009195
-3.259696 -8.688868 -185.008138
-3.180381 -8.758811 -185.009504
-3.101067 -8.828755 -185.010870
-3.021752 -8.898698 -185.012236
-2.942437 -8.968641 -185.013602
-2.925588 -9.119089 -185.012545
-2.908739 -9.269537 -185.011488
-2.891890 -9.419984 -185.010431
-2.812575 -9.489928 -185.011797
-2.795726 -9.640375 -185.010740
-2.716411 -9.710319 -185.012106
-2.637097 -9.780262 -185.013472
-2.557782 -9.850205 -185.014838
-2.478467 -9.920148 -185.016204
-2.399153 -9.990091 -185.017570
-2.319838 -10.060034 -185.018936
-2.240523 -10.129978 -185.020302
-2.223674 -10.280425 -185.019245
-2.144359 -10.350369 -185.020611
-2.065045 -10.420312 -185.021977
-2.048195 -10.570760 -185.020920
-1.968881 -10.640703 -185.022286
-1.952032 -10.791151 -185.021229
-1.872717 -10.861094 -185.022595
-1.793402 -10.931037 -185.023961
-1.776553 -11.081485 -185.022904
-1.697238 -11.151428 -185.024270
-1.680389 -11.301876 -185.023212
-1.601075 -11.371819 -185.024578
-1.521760 -11.441762 -185.025944
-1.442445 -11.511705 -185.027310
-1.363131 -11.581648 -185.028676
-1.346281 -11.732096 -185.027619
-1.266967 -11.802039 -185.028985
-1.187652 -11.871982 -185.030351
-1.108337 -11.941926 -185.031717
-1.029023 -12.011869 -185.033083
-1.012174 -12.162317 -185.032026
-0.932859 -12.232260 -185.033392
-0.916010 -12.382708 -185.032335
-0.836695 -12.452651 -185.033701
-0.757380 -12.522594 -185.035067
-0.678066 -12.592537 -185.036433
-0.598751 -12.662480 -185.037799
-0.519436 -12.732423 -185.039165
-0.440122 -12.802367 -185.040531
-0.360807 -12.872310 -185.041897
-0.281492 -12.942253 -185.043263
-0.202178 -13.012196 -185.044629
-0.122863 -13.082139 -185.045995
-0.043548 -13.152082 -185.047361
0.098232 -13.141521 -185.051151
0.177547 -13.211464 -185.052517
0.256861 -13.281407 -185.053883
0.273711 -13.431855 -185.052825
0.353025 -13.501798 -185.054192
0.432340 -13.571741 -185.055558
0.511655 -13.641684 -185.056924
0.590969 -13.711628 -185.058290
0.670284 -13.781571 -185.059656
0.749599 -13.851514 -185.061022
0.828913 -13.921457 -185.062388
0.970694 -13.910896 -185.066177
1.050008 -13.980839 -185.067543
1.129323 -14.050782 -185.068909
1.208638 -14.120725 -185.070275
1.287952 -14.190668 -185.071641
1.367267 -14.260611 -185.073007
1.384116 -14.411059 -185.071950
1.463431 -14.481002 -185.073316
1.542746 -14.550945 -185.074682
1.809457 -14.379375 -185.083317
1.888772 -14.449318 -185.084683
1.968086 -14.519261 -185.086049
2.109866 -14.508699 -185.089838
2.189181 -14.578643 -185.091204
2.330961 -14.568081 -185.094993
2.472742 -14.557519 -185.098783
2.552056 -14.627463 -185.100149
2.693837 -14.616901 -185.103938
2.835617 -14.606340 -185.107727
3.039863 -14.515273 -185.113939
3.181643 -14.504712 -185.117728
3.260957 -14.574655 -185.119094
3.340272 -14.644598 -185.120460
3.419587 -14.714541 -185.121826
3.561367 -14.703980 -185.125615
3.640682 -14.773923 -185.126982
3.719996 -14.843866 -185.128348
3.861777 -14.833305 -185.132137
3.941091 -14.903248 -185.133503
4.082872 -14.892686 -185.137292
4.162186 -14.962629 -185.138658
4.303966 -14.952068 -185.142447
4.445747 -14.941506 -185.146236
4.525061 -15.011449 -185.147602
4.666842 -15.000888 -185.151391
-1.581937 -10.810864 -184.917947
-1.519810 -11.134635 -184.912044
-1.429994 -11.256502 -184.910986
-1.340178 -11.378369 -184.909929
-1.250362 -11.500236 -184.908872
-1.160547 -11.622103 -184.907815
-1.070731 -11.743970 -184.906758
-0.967071 -11.764885 -184.908124
-0.877255 -11.886752 -184.907067
-0.787439 -12.008619 -184.906010
-0.697623 -12.130486 -184.904953
-0.607807 -12.252353 -184.903896
-0.517991 -12.374220 -184.902839
-0.428176 -12.496087 -184.901781
-0.324515 -12.517002 -184.903147
-0.234700 -12.638869 -184.902090
-0.144884 -12.760736 -184.901033
-0.055068 -12.882603 -184.899976
0.034748 -13.004471 -184.898919
0.138408 -13.025386 -184.900285
0.242068 -13.046301 -184.901651
0.345728 -13.067216 -184.903017
0.435544 -13.189083 -184.901960
0.539204 -13.209998 -184.903326
0.629020 -13.331865 -184.902269
0.732680 -13.352780 -184.903635
0.822496 -13.474647 -184.902578
0.926156 -13.495562 -184.903944
1.015972 -13.617429 -184.902887
1.119632 -13.638345 -184.904253
1.223293 -13.659260 -184.905619
1.326953 -13.680175 -184.906985
1.416768 -13.802042 -184.905928
1.506584 -13.923909 -184.904871
1.596400 -14.045776 -184.903813
1.686216 -14.167643 -184.902756
1.789876 -14.188558 -184.904122
1.893536 -14.209473 -184.905488
1.983352 -14.331340 -184.904431
2.087012 -14.352255 -184.905797
2.176828 -14.474123 -184.904740
2.280488 -14.495038 -184.906106
2.384148 -14.515953 -184.907472
2.487809 -14.536868 -184.908838
2.591469 -14.557783 -184.910204
2.695129 -14.578698 -184.911570
2.798789 -14.599613 -184.912936
2.902449 -14.620528 -184.914302
3.006109 -14.641444 -184.915668
3.109770 -14.662359 -184.917034
3.199585 -14.784226 -184.915977
3.303246 -14.805141 -184.917343
3.406906 -14.826056 -184.918709
3.496722 -14.947923 -184.917652
3.600382 -14.968838 -184.919018
3.690198 -15.090705 -184.917961
3.793858 -15.111620 -184.919327
3.897518 -15.132535 -184.920693
4.001178 -15.153451 -184.922059
4.104838 -15.174366 -184.923425
4.208498 -15.195281 -184.924791
4.312158 -15.216196 -184.926157
4.401974 -15.338063 -184.925100
4.505634 -15.358978 -184.926466
4.609295 -15.379893 -184.927832
4.712955 -15.400808 -184.929198
4.816615 -15.421724 -184.930564
4.934119 -15.341687 -184.934353
5.037780 -15.362602 -184.935719
5.141440 -15.383517 -184.937085
5.258944 -15.303480 -184.940874
5.362604 -15.324395 -184.942240
5.466265 -15.345311 -184.943606
5.583769 -15.265274 -184.947396
5.687429 -15.286189 -184.948762
5.791089 -15.307104 -184.950128
5.894750 -15.328019 -184.951494
6.012254 -15.247982 -184.955283
6.115914 -15.268898 -184.956649
6.233419 -15.188861 -184.960438
6.337079 -15.209776 -184.961804
6.454583 -15.129739 -184.965593
6.558243 -15.150654 -184.966959
6.661904 -15.171569 -184.968325
6.779408 -15.091533 -184.972114
6.883068 -15.112448 -184.973480
7.000573 -15.032411 -184.977269
7.145766 -14.750470 -184.985905
7.249426 -14.771385 -184.987271
7.353086 -14.792301 -184.988637
7.470591 -14.712264 -184.992426
7.574251 -14.733179 -184.993792
7.677911 -14.754094 -184.995158
7.767727 -14.875961 -184.994101
7.871387 -14.896876 -184.995467
7.975047 -14.917791 -184.996833
8.092552 -14.837755 -185.000622
8.279278 -14.252958 -185.016527
8.382938 -14.273873 -185.017893
8.500442 -14.193837 -185.021682
8.604103 -14.214752 -185.023048
