ply
format ascii 1.0
element vertex 1515
property float x
property float y
property float z
element face 0
property list uchar uint vertex_indices
end_header
9.693460 -14.318637 -183.718735
9.815327 -14.228821 -183.717678
9.836242 -14.125161 -183.719044
9.958109 -14.035345 -183.717987
9.979024 -13.931685 -183.719353
10.100891 -13.841869 -183.718296
10.121806 -13.738209 -183.719662
10.243673 -13.648393 -183.718605
10.365540 -13.558577 -183.717548
10.386455 -13.454917 -183.718914
10.508322 -13.365101 -183.717857
10.529238 -13.261441 -183.719223
11.155864 -13.240847 -183.706050
11.176779 -13.137187 -183.707416
11.298646 -13.047371 -183.706359
11.319561 -12.943711 -183.707725
11.441429 -12.853895 -183.706668
11.462344 -12.750235 -183.708034
11.584211 -12.660419 -183.706977
11.706078 -12.570603 -183.705920
11.726993 -12.466943 -183.707286
11.848860 -12.377127 -183.706229
11.869775 -12.273467 -183.707595
11.991642 -12.183651 -183.706537
12.012557 -12.079991 -183.707903
12.235376 -12.004020 -183.704423
12.458195 -11.928048 -183.700943
12.580062 -11.838232 -183.699886
12.701929 -11.748416 -183.698829
12.823796 -11.658601 -183.697772
12.945663 -11.568785 -183.696715
13.067530 -11.478969 -183.695657
13.088445 -11.375309 -183.697023
13.715072 -11.354714 -183.683851
13.836939 -11.264899 -183.682794
14.059758 -11.188927 -183.679313
14.383529 -11.126800 -183.673410
14.505396 -11.036984 -183.672353
14.627263 -10.947168 -183.671296
14.648178 -10.843508 -183.672662
14.770045 -10.753692 -183.671605
14.891912 -10.663876 -183.670548
14.912827 -10.560216 -183.671914
15.034694 -10.470400 -183.670857
15.055610 -10.366740 -183.672223
15.076525 -10.263080 -183.673589
15.097440 -10.159420 -183.674955
15.219307 -10.069604 -183.673897
15.240222 -9.965944 -183.675263
15.362089 -9.876128 -183.674206
15.483956 -9.786312 -183.673149
15.504871 -9.682652 -183.674515
15.626738 -9.592836 -183.673458
15.647653 -9.489176 -183.674824
15.668569 -9.385516 -183.676190
15.790436 -9.295700 -183.675133
15.811351 -9.192040 -183.676499
15.832266 -9.088380 -183.677865
15.853181 -8.984720 -183.679231
15.975048 -8.894904 -183.678174
16.096915 -8.805088 -183.677117
16.218782 -8.715272 -183.676060
16.239697 -8.611612 -183.677426
16.361564 -8.521796 -183.676369
16.382479 -8.418136 -183.677735
16.403395 -8.314476 -183.679101
16.525262 -8.224660 -183.678044
16.546177 -8.121000 -183.679410
16.567092 -8.017340 -183.680776
16.688959 -7.927524 -183.679719
16.709874 -7.823864 -183.681085
16.730789 -7.720204 -183.682451
16.751704 -7.616543 -183.683817
16.772619 -7.512883 -183.685183
16.793535 -7.409223 -183.686549
16.915402 -7.319407 -183.685492
16.936317 -7.215747 -183.686858
16.957232 -7.112087 -183.688224
16.978147 -7.008427 -183.689590
16.999062 -6.904767 -183.690956
16.919025 -6.787262 -183.694745
16.939940 -6.683602 -183.696111
16.960856 -6.579942 -183.697477
16.981771 -6.476282 -183.698843
16.901734 -6.358777 -183.702632
16.922649 -6.255117 -183.703998
16.943564 -6.151457 -183.705364
16.964479 -6.047797 -183.706730
16.985394 -5.944137 -183.708096
17.006310 -5.840476 -183.709462
17.027225 -5.736816 -183.710828
17.048140 -5.633156 -183.712194
16.968103 -5.515652 -183.715983
16.989018 -5.411991 -183.717349
16.908981 -5.294487 -183.721138
16.929897 -5.190827 -183.722504
16.950812 -5.087167 -183.723870
16.870775 -4.969662 -183.727660
16.891690 -4.866002 -183.729026
16.912605 -4.762342 -183.730392
16.832568 -4.644837 -183.734181
16.752532 -4.527333 -183.737970
16.672495 -4.409828 -183.741759
16.491506 -4.278480 -183.747971
16.007662 -4.105598 -183.761453
15.927625 -3.988093 -183.765242
15.847588 -3.870589 -183.769031
15.868503 -3.766929 -183.770397
15.788466 -3.649424 -183.774186
15.708430 -3.531920 -183.777975
15.729345 -3.428260 -183.779341
15.649308 -3.310755 -183.783131
15.569271 -3.193251 -183.786920
15.388283 -3.061902 -183.793132
15.207294 -2.930553 -183.799344
15.228209 -2.826893 -183.800710
15.148172 -2.709388 -183.804499
15.169087 -2.605728 -183.805865
15.190002 -2.502068 -183.807231
15.109966 -2.384563 -183.811021
14.928977 -2.253215 -183.817233
14.848940 -2.135710 -183.821022
14.768903 -2.018206 -183.824811
14.688867 -1.900701 -183.828600
14.608830 -1.783197 -183.832389
14.629745 -1.679537 -183.833755
14.549708 -1.562032 -183.837545
14.570623 -1.458372 -183.838911
14.490587 -1.340867 -183.842700
14.410550 -1.223363 -183.846489
14.431465 -1.119703 -183.847855
14.351428 -1.002198 -183.851644
14.372343 -0.898538 -183.853010
14.393258 -0.794878 -183.854376
14.414174 -0.691218 -183.855742
14.334137 -0.573713 -183.859531
14.254100 -0.456209 -183.863320
14.073111 -0.324860 -183.869533
13.993075 -0.207356 -183.873322
14.013990 -0.103695 -183.874688
13.933953 0.013809 -183.878477
13.954868 0.117469 -183.879843
13.874831 0.234974 -183.883632
13.895746 0.338634 -183.884998
13.815710 0.456138 -183.888787
13.836625 0.559799 -183.890153
13.756588 0.677303 -183.893942
13.777503 0.780963 -183.895308
13.697466 0.898468 -183.899098
13.718381 1.002128 -183.900464
13.739297 1.105788 -183.901830
13.659260 1.223293 -183.905619
13.680175 1.326953 -183.906985
13.701090 1.430613 -183.908351
13.621053 1.548117 -183.912140
13.641968 1.651777 -183.913506
13.561932 1.769282 -183.917295
13.582847 1.872942 -183.918661
13.502810 1.990447 -183.922450
13.523725 2.094107 -183.923816
13.544640 2.197767 -183.925182
13.464603 2.315271 -183.928971
13.485519 2.418932 -183.930337
13.506434 2.522592 -183.931703
13.527349 2.626252 -183.933069
13.447312 2.743756 -183.936859
13.468227 2.847417 -183.938225
13.489142 2.951077 -183.939591
13.510057 3.054737 -183.940957
13.530973 3.158397 -183.942323
13.551888 3.262057 -183.943689
13.471851 3.379562 -183.947478
13.492766 3.483222 -183.948844
13.412729 3.600726 -183.952633
13.433644 3.704386 -183.953999
13.454559 3.808047 -183.955365
13.374523 3.925551 -183.959154
13.395438 4.029211 -183.960520
13.416353 4.132871 -183.961886
13.437268 4.236532 -183.963252
13.458183 4.340192 -183.964618
13.479098 4.443852 -183.965984
13.500013 4.547512 -183.967350
13.520929 4.651172 -183.968716
13.541844 4.754832 -183.970082
13.461807 4.872337 -183.973871
13.482722 4.975997 -183.975237
13.503637 5.079657 -183.976603
13.524552 5.183317 -183.977969
13.444516 5.300822 -183.981759
13.465431 5.404482 -183.983125
13.385394 5.521986 -183.986914
13.305357 5.639491 -183.990703
13.326272 5.743151 -183.992069
13.347187 5.846811 -183.993435
13.368103 5.950471 -183.994801
13.389018 6.054132 -183.996167
13.308981 6.171636 -183.999956
13.329896 6.275296 -184.001322
13.350811 6.378956 -184.002688
13.371726 6.482617 -184.004054
13.392641 6.586277 -184.005420
13.413557 6.689937 -184.006786
13.434472 6.793597 -184.008152
13.455387 6.897257 -184.009518
13.476302 7.000917 -184.010884
13.497217 7.104578 -184.012250
13.518132 7.208238 -184.013616
13.539047 7.311898 -184.014982
13.559962 7.415558 -184.016348
13.580878 7.519218 -184.017714
13.500841 7.636723 -184.021503
13.521756 7.740383 -184.022869
13.542671 7.844043 -184.024235
13.563586 7.947703 -184.025601
13.584501 8.051363 -184.026967
13.504465 8.168868 -184.030757
13.525380 8.272528 -184.032123
13.243439 8.417721 -184.040758
13.163402 8.535226 -184.044547
13.083366 8.652730 -184.048336
15.500561 -9.627125 -183.711109
15.938589 -9.334463 -183.700359
16.093571 -9.157261 -183.696879
16.059854 -9.057031 -183.698245
16.120486 -8.918314 -183.697188
16.181118 -8.779598 -183.696131
16.241750 -8.640882 -183.695074
16.585429 -8.386706 -183.686747
16.740411 -8.209504 -183.683267
16.706694 -8.109274 -183.684633
16.767326 -7.970557 -183.683576
17.111005 -7.716382 -183.675249
17.171637 -7.577666 -183.674192
17.232269 -7.438949 -183.673135
17.292902 -7.300233 -183.672078
17.353534 -7.161517 -183.671021
17.414166 -7.022800 -183.669964
17.380449 -6.922571 -183.671330
17.441081 -6.783854 -183.670273
17.407364 -6.683624 -183.671639
17.467996 -6.544908 -183.670582
17.434279 -6.444678 -183.671948
17.400562 -6.344448 -183.673314
17.461194 -6.205732 -183.672257
17.427477 -6.105502 -183.673623
17.393760 -6.005272 -183.674989
17.360043 -5.905042 -183.676355
17.326326 -5.804812 -183.677721
17.386958 -5.666096 -183.676664
17.353241 -5.565866 -183.678030
17.319524 -5.465636 -183.679396
17.285807 -5.365406 -183.680762
17.252090 -5.265176 -183.682128
17.218373 -5.164946 -183.683494
17.184656 -5.064716 -183.684860
17.150939 -4.964486 -183.686226
17.117222 -4.864256 -183.687592
17.083505 -4.764027 -183.688958
17.049788 -4.663797 -183.690324
17.016071 -4.563567 -183.691690
16.982354 -4.463337 -183.693056
16.948637 -4.363107 -183.694422
16.914920 -4.262877 -183.695788
16.881203 -4.162647 -183.697154
16.847486 -4.062417 -183.698520
16.813769 -3.962187 -183.699886
16.780052 -3.861957 -183.701252
16.651986 -3.800214 -183.705041
16.618269 -3.699984 -183.706407
16.584552 -3.599754 -183.707773
16.550835 -3.499524 -183.709139
16.517118 -3.399294 -183.710505
16.389052 -3.337550 -183.714294
16.355335 -3.237321 -183.715660
16.038571 -3.252550 -183.724296
16.004854 -3.152320 -183.725662
15.876788 -3.090576 -183.729451
15.843071 -2.990346 -183.730817
15.809354 -2.890116 -183.732183
15.681287 -2.828373 -183.735972
15.553221 -2.766629 -183.739761
15.519504 -2.666399 -183.741127
15.391438 -2.604656 -183.744916
15.357721 -2.504426 -183.746282
15.324004 -2.404196 -183.747648
15.290287 -2.303966 -183.749014
15.162221 -2.242223 -183.752803
15.128504 -2.141993 -183.754169
15.094787 -2.041763 -183.755535
15.061070 -1.941533 -183.756901
15.027353 -1.841303 -183.758268
14.993636 -1.741073 -183.759634
14.959919 -1.640843 -183.761000
14.926202 -1.540613 -183.762366
14.892485 -1.440383 -183.763732
14.858768 -1.340153 -183.765098
14.825051 -1.239923 -183.766464
14.791334 -1.139693 -183.767830
14.757617 -1.039464 -183.769196
14.723900 -0.939234 -183.770562
14.784532 -0.800517 -183.769505
14.750815 -0.700287 -183.770871
14.717098 -0.600057 -183.772237
14.683381 -0.499828 -183.773603
14.649664 -0.399598 -183.774969
14.521598 -0.337854 -183.778758
14.487881 -0.237624 -183.780124
14.454164 -0.137394 -183.781490
14.420447 -0.037164 -183.782856
14.386730 0.063066 -183.784222
14.353013 0.163296 -183.785588
14.319296 0.263525 -183.786954
14.285579 0.363755 -183.788320
14.251862 0.463985 -183.789686
14.218145 0.564215 -183.791052
14.184428 0.664445 -183.792418
14.056362 0.726189 -183.796207
14.022645 0.826419 -183.797573
14.083277 0.965135 -183.796516
14.049560 1.065365 -183.797882
14.110192 1.204081 -183.796825
14.076475 1.304311 -183.798191
14.042758 1.404541 -183.799557
14.103390 1.543257 -183.798500
14.069673 1.643487 -183.799866
14.035956 1.743717 -183.801232
14.002239 1.843947 -183.802598
13.968522 1.944177 -183.803964
13.934805 2.044407 -183.805330
13.901088 2.144637 -183.806696
13.867371 2.244867 -183.808062
13.833654 2.345097 -183.809428
13.799937 2.445327 -183.810794
13.766220 2.545557 -183.812160
13.732503 2.645786 -183.813526
13.698786 2.746016 -183.814892
13.665069 2.846246 -183.816258
13.725701 2.984963 -183.815201
13.691984 3.085193 -183.816567
13.752617 3.223909 -183.815510
13.718900 3.324139 -183.816876
13.685183 3.424369 -183.818242
13.745815 3.563085 -183.817185
13.712098 3.663315 -183.818551
13.678381 3.763545 -183.819917
13.644664 3.863775 -183.821283
13.610947 3.964005 -183.822649
13.577230 4.064235 -183.824015
13.543513 4.164465 -183.825381
13.509796 4.264694 -183.826747
13.476079 4.364924 -183.828113
13.442362 4.465154 -183.829479
13.408645 4.565384 -183.830845
13.469277 4.704101 -183.829788
13.435560 4.804330 -183.831154
13.401843 4.904560 -183.832520
13.462475 5.043277 -183.831463
13.428758 5.143507 -183.832829
13.395041 5.243736 -183.834195
13.455673 5.382453 -183.833138
13.421956 5.482683 -183.834504
13.388239 5.582913 -183.835870
13.354522 5.683143 -183.837236
13.320805 5.783372 -183.838602
13.287088 5.883602 -183.839968
13.347720 6.022319 -183.838911
13.314003 6.122549 -183.840277
13.280286 6.222779 -183.841643
13.340918 6.361495 -183.840586
13.307201 6.461725 -183.841952
13.273484 6.561955 -183.843318
13.334116 6.700671 -183.842260
13.300399 6.800901 -183.843626
13.361031 6.939617 -183.842569
13.327314 7.039847 -183.843935
13.387947 7.178563 -183.842878
13.448579 7.317280 -183.841821
13.414862 7.417510 -183.843187
13.475494 7.556226 -183.842130
13.441777 7.656456 -183.843496
13.408060 7.756686 -183.844862
13.374343 7.856916 -183.846228
13.340626 7.957146 -183.847594
13.306909 8.057376 -183.848960
13.273192 8.157605 -183.850326
13.333824 8.296322 -183.849269
13.300107 8.396552 -183.850635
13.266390 8.496782 -183.852001
13.327022 8.635498 -183.850944
13.293305 8.735728 -183.852310
13.259588 8.835958 -183.853676
13.225871 8.936188 -183.855042
13.097805 8.997931 -183.858831
13.064088 9.098161 -183.860197
13.030371 9.198391 -183.861563
12.902305 9.260135 -183.865352
12.774239 9.321878 -183.869141
12.740522 9.422108 -183.870507
12.612456 9.483852 -183.874297
12.578739 9.584082 -183.875663
12.356323 9.607339 -183.881875
12.133908 9.630596 -183.888087
12.100191 9.730826 -183.889453
11.972125 9.792569 -183.893242
11.938408 9.892799 -183.894608
11.904691 9.993029 -183.895974
11.776625 10.054773 -183.899763
11.742908 10.155003 -183.901130
11.614842 10.216746 -183.904919
11.203728 10.163031 -183.915977
10.981313 10.186288 -183.922189
10.853247 10.248031 -183.925979
10.725181 10.309775 -183.929768
10.597115 10.371518 -183.933557
10.563398 10.471748 -183.934923
10.435332 10.533492 -183.938712
9.929869 10.441290 -183.952194
9.896152 10.541520 -183.953560
9.768086 10.603263 -183.957349
9.545671 10.626521 -183.963561
9.323256 10.649778 -183.969773
9.195189 10.711521 -183.973562
8.878425 10.696292 -183.982198
8.844708 10.796522 -183.983564
8.716642 10.858266 -183.987353
8.682925 10.958496 -183.988719
8.460510 10.981753 -183.994931
8.143745 10.966524 -184.003567
8.015679 11.028267 -184.007356
7.887613 11.090011 -184.011145
17.048549 -4.013081 -183.776046
17.031700 -3.862633 -183.774989
16.952385 -3.792690 -183.776355
16.935536 -3.642242 -183.775298
16.856221 -3.572299 -183.776664
16.776906 -3.502356 -183.778030
16.697591 -3.432413 -183.779396
16.680742 -3.281965 -183.778339
16.601427 -3.212022 -183.779705
16.522112 -3.142079 -183.781071
16.442798 -3.072135 -183.782437
16.425948 -2.921687 -183.781379
16.346633 -2.851744 -183.782745
16.267319 -2.781801 -183.784111
16.188004 -2.711858 -183.785478
16.108689 -2.641915 -183.786844
16.091840 -2.491467 -183.785786
16.012525 -2.421524 -183.787152
15.933210 -2.351581 -183.788518
15.853895 -2.281637 -183.789884
15.774581 -2.211694 -183.791250
15.695266 -2.141751 -183.792616
15.553486 -2.152313 -183.796406
15.536636 -2.001865 -183.795349
15.457322 -1.931922 -183.796715
15.378007 -1.861978 -183.798081
15.361157 -1.711531 -183.797023
15.344308 -1.561083 -183.795966
15.327459 -1.410635 -183.794909
15.248144 -1.340691 -183.796275
15.231295 -1.190244 -183.795218
15.151980 -1.120300 -183.796584
15.072665 -1.050357 -183.797950
15.055816 -0.899909 -183.796893
14.976501 -0.829966 -183.798259
14.897187 -0.760023 -183.799625
14.817872 -0.690080 -183.800991
14.738557 -0.620137 -183.802357
14.659242 -0.550193 -183.803723
14.579927 -0.480250 -183.805089
14.563078 -0.329802 -183.804032
14.483763 -0.259859 -183.805398
14.404448 -0.189916 -183.806764
14.387599 -0.039468 -183.805707
14.308284 0.030475 -183.807073
14.291435 0.180923 -183.806016
14.212120 0.250866 -183.807382
14.320202 0.562324 -183.801479
14.303353 0.712772 -183.800421
14.224038 0.782715 -183.801787
14.207189 0.933163 -183.800730
14.190340 1.083611 -183.799673
14.173490 1.234059 -183.798616
14.156641 1.384507 -183.797559
14.077326 1.454450 -183.798925
14.060477 1.604898 -183.797868
13.981162 1.674841 -183.799234
13.901848 1.744784 -183.800600
13.884998 1.895232 -183.799543
13.868149 2.045680 -183.798486
13.851300 2.196128 -183.797429
13.834451 2.346576 -183.796372
13.817601 2.497024 -183.795314
13.800752 2.647472 -183.794257
13.783903 2.797920 -183.793200
13.767054 2.948368 -183.792143
13.750204 3.098815 -183.791086
13.733355 3.249263 -183.790029
13.716506 3.399711 -183.788972
13.699656 3.550159 -183.787915
13.620342 3.620102 -183.789281
13.603492 3.770550 -183.788224
13.586643 3.920998 -183.787166
13.507328 3.990942 -183.788532
13.490479 4.141389 -183.787475
13.411164 4.211333 -183.788841
13.394315 4.361781 -183.787784
13.377466 4.512229 -183.786727
13.360617 4.662676 -183.785670
13.281302 4.732620 -183.787036
13.264453 4.883068 -183.785979
13.185138 4.953011 -183.787345
13.105823 5.022954 -183.788711
13.026508 5.092897 -183.790077
12.947193 5.162840 -183.791443
13.242672 5.715812 -183.778270
13.288288 5.946765 -183.774790
13.271439 6.097213 -183.773733
13.254590 6.247661 -183.772676
13.300206 6.478613 -183.769196
13.283357 6.629061 -183.768139
13.266507 6.779509 -183.767081
13.249658 6.929957 -183.766024
13.170343 6.999900 -183.767390
13.153494 7.150348 -183.766333
13.136645 7.300796 -183.765276
13.182261 7.531749 -183.761796
13.165412 7.682197 -183.760739
13.148563 7.832645 -183.759682
13.131713 7.983093 -183.758625
13.114864 8.133541 -183.757567
13.160480 8.364494 -183.754087
13.143631 8.514942 -183.753030
13.126782 8.665389 -183.751973
13.109933 8.815837 -183.750916
13.030618 8.885781 -183.752282
13.013769 9.036228 -183.751225
12.996919 9.186676 -183.750168
12.917604 9.256620 -183.751534
12.838290 9.326563 -183.752900
12.758975 9.396506 -183.754266
12.679660 9.466449 -183.755632
12.662811 9.616897 -183.754575
12.583496 9.686840 -183.755941
12.504181 9.756783 -183.757307
12.424866 9.826727 -183.758673
12.345552 9.896670 -183.760039
12.266237 9.966613 -183.761405
12.186922 10.036556 -183.762771
12.045142 10.025994 -183.766560
11.965827 10.095938 -183.767926
11.886512 10.165881 -183.769292
11.807197 10.235824 -183.770658
11.665417 10.225262 -183.774447
11.586102 10.295205 -183.775813
11.506788 10.365149 -183.777179
11.365007 10.354587 -183.780968
11.285692 10.424530 -183.782334
11.206378 10.494473 -183.783700
11.127063 10.564416 -183.785066
10.985282 10.553855 -183.788855
10.905968 10.623798 -183.790221
10.764187 10.613236 -183.794011
10.684873 10.683179 -183.795377
10.543092 10.672618 -183.799166
10.338846 10.581551 -183.805378
10.259532 10.651495 -183.806744
10.180217 10.721438 -183.808110
10.100902 10.791381 -183.809476
10.021587 10.861324 -183.810842
9.879807 10.850762 -183.814631
9.800492 10.920706 -183.815997
9.721177 10.990649 -183.817363
9.579397 10.980087 -183.821152
9.500082 11.050030 -183.822518
9.358302 11.039469 -183.826308
9.216522 11.028907 -183.830097
9.137207 11.098850 -183.831463
8.995426 11.088289 -183.835252
8.853646 11.077727 -183.839041
8.774331 11.147670 -183.840407
8.632551 11.137108 -183.844196
8.490771 11.126547 -183.847985
8.411456 11.196490 -183.849351
8.332141 11.266433 -183.850717
8.190361 11.255872 -183.854506
8.111046 11.325815 -183.855872
7.969266 11.315253 -183.859662
7.827485 11.304691 -183.863451
7.685705 11.294130 -183.867240
7.606390 11.364073 -183.868606
7.464610 11.353511 -183.872395
7.385295 11.423455 -183.873761
7.243515 11.412893 -183.877550
7.101734 11.402331 -183.881339
6.959954 11.391770 -183.885128
6.880639 11.461713 -183.886494
6.738859 11.451151 -183.890284
6.659544 11.521094 -183.891650
6.517764 11.510533 -183.895439
6.375983 11.499971 -183.899228
6.234203 11.489409 -183.903017
6.154888 11.559353 -183.904383
6.013108 11.548791 -183.908172
5.871328 11.538229 -183.911961
5.604616 11.366658 -183.920597
5.525301 11.436601 -183.921963
5.383521 11.426040 -183.925752
5.241741 11.415478 -183.929541
5.037495 11.324412 -183.935753
4.833249 11.233345 -183.941966
4.691469 11.222784 -183.945755
4.549688 11.212222 -183.949544
4.407908 11.201660 -183.953333
4.328593 11.271604 -183.954699
4.124347 11.180537 -183.960911
3.732705 10.847956 -183.974393
3.590925 10.837395 -183.978182
3.449144 10.826833 -183.981971
12.860300 9.157741 -183.755878
12.770484 9.279608 -183.754821
12.666824 9.300523 -183.756187
12.577008 9.422390 -183.755130
12.542570 9.948065 -183.744381
12.438910 9.968980 -183.745747
12.349094 10.090847 -183.744690
12.245434 10.111762 -183.746056
12.127929 10.031725 -183.749845
12.024269 10.052641 -183.751211
11.920609 10.073556 -183.752577
11.858482 10.397327 -183.746673
11.768666 10.519194 -183.745616
11.665006 10.540109 -183.746982
11.561346 10.561024 -183.748348
11.457685 10.581939 -183.749714
11.354025 10.602854 -183.751080
11.250365 10.623769 -183.752446
11.160549 10.745636 -183.751389
11.056889 10.766551 -183.752755
10.967073 10.888419 -183.751698
10.863413 10.909334 -183.753064
10.759753 10.930249 -183.754430
10.656093 10.951164 -183.755796
10.552433 10.972079 -183.757162
10.448773 10.992994 -183.758528
10.345112 11.013909 -183.759894
10.241452 11.034824 -183.761260
10.151636 11.156691 -183.760203
10.047976 11.177607 -183.761569
9.944316 11.198522 -183.762935
9.840656 11.219437 -183.764301
9.736996 11.240352 -183.765667
9.633336 11.261267 -183.767033
9.529675 11.282182 -183.768399
9.426015 11.303097 -183.769765
9.322355 11.324013 -183.771131
9.218695 11.344928 -183.772497
9.115035 11.365843 -183.773863
9.011375 11.386758 -183.775229
8.907714 11.407673 -183.776595
8.804054 11.428588 -183.777961
8.700394 11.449503 -183.779327
8.596734 11.470418 -183.780693
8.493074 11.491334 -183.782059
8.389414 11.512249 -183.783425
8.285754 11.533164 -183.784791
8.182093 11.554079 -183.786158
8.078433 11.574994 -183.787524
7.974773 11.595909 -183.788890
7.871113 11.616824 -183.790256
7.767453 11.637739 -183.791622
7.677637 11.759607 -183.790564
7.573977 11.780522 -183.791930
7.484161 11.902389 -183.790873
7.380501 11.923304 -183.792239
7.276841 11.944219 -183.793605
7.173180 11.965134 -183.794971
7.069520 11.986049 -183.796337
6.965860 12.006964 -183.797703
6.862200 12.027880 -183.799069
6.758540 12.048795 -183.800435
6.654880 12.069710 -183.801801
6.537375 11.989673 -183.805591
6.433715 12.010588 -183.806957
6.330055 12.031503 -183.808323
6.226395 12.052418 -183.809689
6.122734 12.073334 -183.811055
6.005230 11.993297 -183.814844
5.887726 11.913260 -183.818633
5.784065 11.934175 -183.819999
5.666561 11.854138 -183.823788
5.562901 11.875053 -183.825154
5.459241 11.895969 -183.826520
5.355580 11.916884 -183.827886
5.265765 12.038751 -183.826829
5.148260 11.958714 -183.830618
5.044600 11.979629 -183.831984
4.927095 11.899592 -183.835773
4.809591 11.819556 -183.839563
4.692086 11.739519 -183.843352
4.588426 11.760434 -183.844718
4.470922 11.680397 -183.848507
4.367262 11.701312 -183.849873
4.249757 11.621275 -183.853662
4.146097 11.642191 -183.855028
4.042437 11.663106 -183.856394
3.924932 11.583069 -183.860183
3.821272 11.603984 -183.861549
3.717612 11.624899 -183.862915
3.613952 11.645814 -183.864281
3.496447 11.565778 -183.868070
3.392787 11.586693 -183.869436
3.275283 11.506656 -183.873225
3.157778 11.426619 -183.877015
3.040274 11.346582 -183.880804
2.922769 11.266546 -183.884593
2.819109 11.287461 -183.885959
2.701605 11.207424 -183.889748
2.597944 11.228339 -183.891114
2.494284 11.249254 -183.892480
2.376780 11.169217 -183.896269
2.273120 11.190132 -183.897635
2.155615 11.110096 -183.901424
2.051955 11.131011 -183.902790
1.934451 11.050974 -183.906580
1.816946 10.970937 -183.910369
1.713286 10.991852 -183.911735
1.595781 10.911816 -183.915524
1.492121 10.932731 -183.916890
1.374617 10.852694 -183.920679
1.243268 10.671705 -183.926891
1.125763 10.591668 -183.930680
1.008259 10.511632 -183.934470
0.890754 10.431595 -183.938259
0.759406 10.250606 -183.944471
0.614213 9.968666 -183.953106
0.482864 9.787677 -183.959319
0.351515 9.606688 -183.965531
0.234010 9.526651 -183.969320
0.116506 9.446615 -183.973109
0.012846 9.467530 -183.974475
-0.104659 9.387493 -183.978264
-0.208319 9.408408 -183.979630
-0.325823 9.328371 -183.983419
-0.443328 9.248335 -183.987209
-0.616210 8.764490 -184.000690
-0.719870 8.785405 -184.002056
-0.837374 8.705369 -184.005845
-0.941034 8.726284 -184.007211
10.757632 11.052549 -183.828346
10.618916 11.113181 -183.827288
10.480200 11.173813 -183.826231
10.379970 11.140096 -183.827597
10.279740 11.106379 -183.828963
10.141024 11.167011 -183.827906
10.040794 11.133294 -183.829272
9.902077 11.193926 -183.828215
9.801847 11.160209 -183.829581
9.663131 11.220841 -183.828524
9.562901 11.187124 -183.829890
9.347212 11.436455 -183.823987
9.246982 11.402738 -183.825353
9.108266 11.463370 -183.824296
9.008036 11.429653 -183.825662
8.907806 11.395936 -183.827028
8.807576 11.362219 -183.828394
8.668860 11.422851 -183.827337
8.568630 11.389134 -183.828703
8.391427 11.544115 -183.825222
8.252711 11.604747 -183.824165
8.152481 11.571030 -183.825531
8.052251 11.537313 -183.826897
7.952021 11.503596 -183.828263
7.851791 11.469879 -183.829629
7.751561 11.436162 -183.830995
7.612845 11.496794 -183.829938
7.474129 11.557426 -183.828881
7.335413 11.618059 -183.827824
7.196696 11.678691 -183.826767
7.096466 11.644974 -183.828133
6.996236 11.611257 -183.829499
6.934493 11.483191 -183.833288
6.834263 11.449474 -183.834654
6.695547 11.510106 -183.833597
6.595317 11.476389 -183.834963
6.456600 11.537021 -183.833906
6.317884 11.597653 -183.832849
6.140681 11.752634 -183.829369
6.001965 11.813266 -183.828311
5.901735 11.779549 -183.829677
5.763019 11.840181 -183.828620
5.624303 11.900813 -183.827563
5.485586 11.961446 -183.826506
5.385356 11.927729 -183.827872
5.285126 11.894012 -183.829238
5.146410 11.954644 -183.828181
5.046180 11.920927 -183.829547
4.907464 11.981559 -183.828490
4.807234 11.947842 -183.829856
4.707004 11.914125 -183.831222
4.606774 11.880408 -183.832588
4.506544 11.846691 -183.833954
4.406314 11.812974 -183.835320
4.267598 11.873606 -183.834263
4.167368 11.839889 -183.835629
4.067138 11.806172 -183.836995
3.966908 11.772455 -183.838361
3.866678 11.738738 -183.839727
3.766448 11.705021 -183.841093
3.666218 11.671304 -183.842459
3.565989 11.637587 -183.843825
3.465759 11.603870 -183.845191
3.365529 11.570153 -183.846557
3.265299 11.536436 -183.847923
3.165069 11.502719 -183.849289
3.064839 11.469002 -183.850655
2.926123 11.529634 -183.849598
2.825893 11.495917 -183.850964
2.687176 11.556549 -183.849907
2.586946 11.522832 -183.851273
2.486717 11.489115 -183.852639
2.386487 11.455398 -183.854005
2.286257 11.421681 -183.855371
2.186027 11.387964 -183.856737
2.085797 11.354247 -183.858103
1.985567 11.320530 -183.859469
1.885337 11.286813 -183.860835
1.785107 11.253096 -183.862201
1.684877 11.219379 -183.863567
1.623134 11.091313 -183.867356
1.522904 11.057596 -183.868722
1.461160 10.929530 -183.872511
1.360930 10.895813 -183.873877
1.260700 10.862096 -183.875243
1.160470 10.828379 -183.876609
1.060240 10.794662 -183.877975
0.960011 10.760945 -183.879341
0.859781 10.727228 -183.880707
0.759551 10.693511 -183.882073
0.697807 10.565445 -183.885863
0.597577 10.531728 -183.887229
0.497347 10.498011 -183.888595
0.435604 10.369945 -183.892384
0.335374 10.336228 -183.893750
0.350603 10.019463 -183.902385
0.250373 9.985746 -183.903751
0.150143 9.952029 -183.905117
0.011427 10.012661 -183.904060
-0.088803 9.978944 -183.905426
-0.189033 9.945227 -183.906792
-0.289263 9.911510 -183.908158
-0.389493 9.877793 -183.909524
-0.451236 9.749727 -183.913313
-0.551466 9.716010 -183.914679
-0.613210 9.587944 -183.918468
-0.713440 9.554227 -183.919835
-0.775183 9.426161 -183.923624
-0.875413 9.392444 -183.924990
-0.937157 9.264378 -183.928779
-1.037387 9.230661 -183.930145
-1.099130 9.102595 -183.933934
-1.199360 9.068878 -183.935300
-1.261104 8.940812 -183.939089
-1.361334 8.907095 -183.940455
-1.461564 8.873378 -183.941821
-1.561793 8.839661 -183.943187
-1.623537 8.711595 -183.946976
-1.723767 8.677878 -183.948342
-1.785510 8.549812 -183.952131
-1.847254 8.421745 -183.955921
-1.908998 8.293679 -183.959710
-1.970741 8.165613 -183.963499
-1.993998 7.943198 -183.969711
-2.094228 7.909481 -183.971077
-2.155972 7.781415 -183.974866
-2.256202 7.747698 -183.976232
-2.317945 7.619632 -183.980021
-2.379689 7.491566 -183.983811
-2.441432 7.363500 -183.987600
-2.503176 7.235433 -183.991389
-2.564919 7.107367 -183.995178
-2.665149 7.073650 -183.996544
-2.803866 7.134282 -183.995487
-2.904096 7.100565 -183.996853
-2.965839 6.972499 -184.000642
-3.066069 6.938782 -184.002008
-3.127813 6.810716 -184.005797
-3.228042 6.776999 -184.007163
-3.328272 6.743282 -184.008529
-3.428502 6.709565 -184.009895
-3.528732 6.675848 -184.011261
-3.590476 6.547782 -184.015050
-3.536760 6.136669 -184.026109
-3.598504 6.008603 -184.029898
-3.583275 5.691838 -184.038533
-3.645018 5.563772 -184.042323
-3.745248 5.530055 -184.043689
-3.806992 5.401989 -184.047478
3.609380 12.285540 -183.895802
3.458933 12.268691 -183.894745
3.388989 12.189376 -183.896111
3.319046 12.110061 -183.897477
3.249103 12.030747 -183.898843
3.098655 12.013898 -183.897786
2.948207 11.997048 -183.896729
2.797760 11.980199 -183.895671
2.727816 11.900885 -183.897037
2.577369 11.884036 -183.895980
2.507425 11.804721 -183.897346
2.356978 11.787872 -183.896289
2.287034 11.708557 -183.897655
2.136587 11.691708 -183.896598
2.066643 11.612393 -183.897964
1.996700 11.533078 -183.899330
1.926757 11.453764 -183.900696
1.776309 11.436915 -183.899639
1.625861 11.420066 -183.898582
1.394909 11.465682 -183.895102
1.244461 11.448833 -183.894045
1.174518 11.369518 -183.895411
1.024070 11.352669 -183.894354
0.954127 11.273354 -183.895720
0.803679 11.256505 -183.894663
0.733736 11.177190 -183.896029
0.583288 11.160341 -183.894971
0.513345 11.081027 -183.896337
0.362897 11.064177 -183.895280
0.292954 10.984863 -183.896646
0.223011 10.905548 -183.898012
0.153068 10.826233 -183.899378
0.002620 10.809384 -183.898321
-0.067323 10.730070 -183.899687
-0.217771 10.713220 -183.898630
-0.287714 10.633906 -183.899996
-0.357658 10.554591 -183.901362
-0.427601 10.475276 -183.902728
-0.497544 10.395962 -183.904094
-0.567487 10.316647 -183.905460
-0.637430 10.237332 -183.906826
-0.707373 10.158018 -183.908192
-0.857821 10.141168 -183.907135
-0.927764 10.061854 -183.908501
-0.997707 9.982539 -183.909867
-1.067651 9.903224 -183.911233
-1.218098 9.886375 -183.910176
-1.288042 9.807061 -183.911542
-1.357985 9.727746 -183.912908
-1.427928 9.648431 -183.914274
-1.497871 9.569117 -183.915640
-1.567814 9.489802 -183.917006
-1.637757 9.410487 -183.918372
-1.707701 9.331172 -183.919738
-1.777644 9.251858 -183.921104
-1.847587 9.172543 -183.922470
-1.917530 9.093228 -183.923836
-1.987473 9.013914 -183.925202
-2.057416 8.934599 -183.926568
-2.127359 8.855284 -183.927934
-2.197303 8.775970 -183.929300
-2.267246 8.696655 -183.930666
-2.337189 8.617340 -183.932032
-2.326627 8.475560 -183.935822
-2.396571 8.396245 -183.937188
-2.386009 8.254465 -183.940977
-2.455952 8.175150 -183.942343
-2.525895 8.095836 -183.943709
-2.595839 8.016521 -183.945075
-2.665782 7.937206 -183.946441
-2.816230 7.920357 -183.945384
-2.966677 7.903508 -183.944327
-3.036621 7.824193 -183.945693
-3.106564 7.744879 -183.947059
-3.176507 7.665564 -183.948425
-3.246450 7.586249 -183.949791
-3.316393 7.506935 -183.951157
-3.386336 7.427620 -183.952523
-3.456279 7.348305 -183.953889
-3.526223 7.268991 -183.955255
-3.515661 7.127210 -183.959044
-3.585604 7.047896 -183.960410
-3.655547 6.968581 -183.961776
-3.725491 6.889266 -183.963142
-3.795434 6.809952 -183.964508
-3.865377 6.730637 -183.965874
-3.935320 6.651322 -183.967240
-4.085768 6.634473 -183.966183
-4.155711 6.555158 -183.967549
-4.225654 6.475844 -183.968915
-4.295597 6.396529 -183.970281
-4.446045 6.379680 -183.969224
-4.515988 6.300365 -183.970590
-4.505427 6.158585 -183.974379
-4.575370 6.079270 -183.975745
-4.645313 5.999956 -183.977111
-4.715256 5.920641 -183.978477
-4.785199 5.841326 -183.979843
-4.855143 5.762012 -183.981209
-4.925086 5.682697 -183.982575
-4.995029 5.603382 -183.983941
-5.064972 5.524068 -183.985307
-5.134915 5.444753 -183.986673
-5.204858 5.365438 -183.988039
-5.274802 5.286123 -183.989405
-5.264240 5.144343 -183.993194
-5.334183 5.065029 -183.994560
-5.323622 4.923248 -183.998349
-5.393565 4.843934 -183.999715
-5.463508 4.764619 -184.001081
-5.533451 4.685304 -184.002447
-5.603394 4.605990 -184.003813
-5.673337 4.526675 -184.005179
-5.743281 4.447360 -184.006545
-5.813224 4.368046 -184.007911
-5.883167 4.288731 -184.009277
-5.953110 4.209416 -184.010643
-6.023053 4.130101 -184.012010
-6.012492 3.988321 -184.015799
-6.001930 3.846541 -184.019588
-6.071873 3.767226 -184.020954
-6.061312 3.625446 -184.024743
-6.050750 3.483666 -184.028532
-6.120693 3.404351 -184.029898
-6.110132 3.262571 -184.033687
-6.180075 3.183256 -184.035053
-6.250018 3.103942 -184.036419
-6.239457 2.962161 -184.040208
-6.309400 2.882847 -184.041574
-6.379343 2.803532 -184.042940
-6.368782 2.661752 -184.046730
-0.765065 10.750591 -183.974138
-0.785980 10.646931 -183.975504
-0.907847 10.557115 -183.974447
-1.130666 10.481144 -183.970967
-1.252533 10.391328 -183.969910
-1.273448 10.287668 -183.971276
-1.294363 10.184007 -183.972642
-1.416230 10.094192 -183.971585
-1.437145 9.990531 -183.972951
-1.559012 9.900716 -183.971894
-1.680879 9.810900 -183.970836
-1.802746 9.721084 -183.969779
-1.823661 9.617424 -183.971145
-1.945529 9.527608 -183.970088
-1.966444 9.423948 -183.971454
-2.391166 9.375665 -183.963128
-2.513033 9.285849 -183.962071
-2.533949 9.182189 -183.963437
-2.655816 9.092373 -183.962380
-2.676731 8.988713 -183.963746
-2.798598 8.898897 -183.962689
-2.819513 8.795237 -183.964055
-2.840428 8.691577 -183.965421
-2.962295 8.601761 -183.964363
-2.983210 8.498101 -183.965729
-3.004125 8.394441 -183.967095
-3.025041 8.290780 -183.968461
-3.045956 8.187120 -183.969827
-3.066871 8.083460 -183.971194
-3.087786 7.979800 -183.972560
-3.209653 7.889984 -183.971502
-3.230568 7.786324 -183.972868
-3.251483 7.682664 -183.974234
-3.373350 7.592848 -183.973177
-3.394265 7.489188 -183.974543
-3.415181 7.385528 -183.975909
-3.436096 7.281867 -183.977275
-3.860818 7.233585 -183.968949
-3.982685 7.143769 -183.967892
-4.104553 7.053953 -183.966835
-4.226420 6.964137 -183.965778
-4.348287 6.874321 -183.964720
-4.470154 6.784505 -183.963663
-4.592021 6.694690 -183.962606
-4.612936 6.591029 -183.963972
-4.633851 6.487369 -183.965338
-4.654766 6.383709 -183.966704
-4.776633 6.293893 -183.965647
-4.797548 6.190233 -183.967013
-4.919415 6.100417 -183.965956
-4.940330 5.996757 -183.967322
-5.163149 5.920786 -183.963842
-5.285016 5.830970 -183.962785
-5.406884 5.741154 -183.961728
-5.427799 5.637494 -183.963094
-5.448714 5.533834 -183.964460
-5.469629 5.430174 -183.965826
-5.490544 5.326513 -183.967192
-5.511459 5.222853 -183.968558
-5.431422 5.105349 -183.972347
-5.351386 4.987844 -183.976136
-6.886122 3.794427 -183.973356
-7.041103 3.617224 -183.969876
-7.101735 3.478508 -183.968819
-7.162367 3.339791 -183.967761
-7.222999 3.201075 -183.966704
-7.189282 3.100845 -183.968070
-7.249915 2.962129 -183.967013
-7.216198 2.861899 -183.968379
-7.276830 2.723183 -183.967322
-7.620509 2.469007 -183.958996
-7.586792 2.368777 -183.960362
-7.553075 2.268547 -183.961728
-7.519358 2.168317 -183.963094
-7.579990 2.029601 -183.962037
-7.546273 1.929371 -183.963403
-7.606905 1.790655 -183.962345
-7.573188 1.690425 -183.963712
-7.633820 1.551709 -183.962654
-7.600103 1.451479 -183.964020
-7.660736 1.312762 -183.962963
-7.627019 1.212533 -183.964329
-7.593302 1.112303 -183.965695
-7.653934 0.973586 -183.964638
-7.620217 0.873356 -183.966004
-7.586500 0.773126 -183.967370
-7.647132 0.634410 -183.966313
-7.613415 0.534180 -183.967679
-7.579698 0.433950 -183.969045
-7.545981 0.333720 -183.970411
-7.512264 0.233490 -183.971777
-7.478547 0.133261 -183.973143
-7.444830 0.033031 -183.974509
-7.411113 -0.067199 -183.975875
-7.377396 -0.167429 -183.977241
-7.343679 -0.267659 -183.978607
-7.309962 -0.367889 -183.979973
-7.276245 -0.468119 -183.981339
-7.242528 -0.568349 -183.982705
-7.208811 -0.668579 -183.984071
-7.175094 -0.768809 -183.985437
-7.141377 -0.869039 -183.986803
-7.013311 -0.930782 -183.990593
-6.979594 -1.031012 -183.991959
-6.945877 -1.131242 -183.993325
-6.912160 -1.231472 -183.994691
-6.878443 -1.331702 -183.996057
-6.844726 -1.431932 -183.997423
-6.716660 -1.493675 -184.001212
-6.682943 -1.593905 -184.002578
-6.649226 -1.694135 -184.003944
-6.615509 -1.794365 -184.005310
-6.487442 -1.856109 -184.009099
-6.453725 -1.956339 -184.010465
-6.325659 -2.018082 -184.014254
-6.291942 -2.118312 -184.015620
-6.258225 -2.218542 -184.016986
-6.224508 -2.318772 -184.018352
-6.190791 -2.419002 -184.019718
-6.157074 -2.519232 -184.021084
-6.029008 -2.580975 -184.024873
-5.995291 -2.681205 -184.026239
-5.961574 -2.781435 -184.027605
-5.927857 -2.881665 -184.028971
-5.894140 -2.981895 -184.030337
-5.860423 -3.082125 -184.031703
-5.732357 -3.143868 -184.035493
-5.698640 -3.244098 -184.036859
-5.664923 -3.344328 -184.038225
-5.631206 -3.444558 -184.039591
-5.597489 -3.544788 -184.040957
-5.563772 -3.645018 -184.042323
-5.530055 -3.745248 -184.043689
-5.401989 -3.806992 -184.047478
-5.368272 -3.907222 -184.048844
-5.334555 -4.007451 -184.050210
-5.300838 -4.107681 -184.051576
-5.267121 -4.207911 -184.052942
-5.139055 -4.269655 -184.056731
-5.105338 -4.369885 -184.058097
-5.071621 -4.470115 -184.059463
-5.037904 -4.570345 -184.060829
-5.004187 -4.670575 -184.062195
-4.970470 -4.770804 -184.063561
-4.936753 -4.871034 -184.064927
-4.903036 -4.971264 -184.066293
-4.869319 -5.071494 -184.067659
-4.835602 -5.171724 -184.069025
-4.801885 -5.271954 -184.070391
-4.673819 -5.333698 -184.074180
-4.640102 -5.433928 -184.075546
-4.606385 -5.534157 -184.076912
-4.572668 -5.634387 -184.078278
-4.538951 -5.734617 -184.079644
-4.505234 -5.834847 -184.081010
-4.377168 -5.896591 -184.084800
-4.343451 -5.996821 -184.086166
-4.309734 -6.097051 -184.087532
-4.276017 -6.197281 -184.088898
-4.242300 -6.297510 -184.090264
-4.208583 -6.397740 -184.091630
-4.174866 -6.497970 -184.092996
-4.046800 -6.559714 -184.096785
-4.013083 -6.659944 -184.098151
-3.979366 -6.760174 -184.099517
-3.945649 -6.860404 -184.100883
-3.911932 -6.960634 -184.102249
-3.783865 -7.022377 -184.106038
-3.750148 -7.122607 -184.107404
-3.716431 -7.222837 -184.108770
-3.682714 -7.323067 -184.110136
-3.648997 -7.423297 -184.111502
-3.615280 -7.523527 -184.112868
-3.581563 -7.623757 -184.114234
-3.453497 -7.685500 -184.118023
-3.419780 -7.785730 -184.119389
-3.386063 -7.885960 -184.120755
-3.352346 -7.986190 -184.122121
-3.318629 -8.086420 -184.123487
-3.284912 -8.186650 -184.124853
-3.156846 -8.248393 -184.128642
-3.123129 -8.348623 -184.130008
-3.089412 -8.448853 -184.131374
-3.055695 -8.549083 -184.132740
-3.021978 -8.649313 -184.134106
-2.893912 -8.711057 -184.137896
-2.860195 -8.811286 -184.139262
-2.732129 -8.873030 -184.143051
-2.698412 -8.973260 -184.144417
-2.570346 -9.035003 -184.148206
-2.536629 -9.135233 -184.149572
-2.502912 -9.235463 -184.150938
-2.469195 -9.335693 -184.152304
-2.435478 -9.435923 -184.153670
-2.401761 -9.536153 -184.155036
-2.368044 -9.636383 -184.156402
-2.239978 -9.698127 -184.160191
-2.206261 -9.798356 -184.161557
-2.172544 -9.898586 -184.162923
-2.138827 -9.998816 -184.164289
-2.010761 -10.060560 -184.168078
-1.977044 -10.160790 -184.169444
-1.943327 -10.261020 -184.170810
-1.815261 -10.322763 -184.174600
-1.592845 -10.346020 -184.180812
-1.370430 -10.369278 -184.187024
-1.336713 -10.469508 -184.188390
-1.302996 -10.569737 -184.189756
-1.363628 -10.708454 -184.188699
-1.329911 -10.808684 -184.190065
-1.390543 -10.947400 -184.189008
-1.356826 -11.047630 -184.190374
-1.323109 -11.147860 -184.191740
-1.289392 -11.248090 -184.193106
-1.161326 -11.309833 -184.196895
-1.033260 -11.371577 -184.200684
-0.905194 -11.433320 -184.204473
-0.777128 -11.495064 -184.208262
-0.649062 -11.556807 -184.212052
-0.520996 -11.618551 -184.215841
-0.392930 -11.680295 -184.219630
-0.264863 -11.742038 -184.223419
-0.231146 -11.842268 -184.224785
-0.008731 -11.865525 -184.230997
0.119335 -11.927269 -184.234786
0.247401 -11.989012 -184.238576
0.375467 -12.050756 -184.242365
0.503533 -12.112499 -184.246154
0.537250 -12.212729 -184.247520
0.570967 -12.312959 -184.248886
0.604684 -12.413189 -184.250252
0.638401 -12.513419 -184.251618
0.766467 -12.575163 -184.255407
-7.514741 -0.055361 -183.983357
-7.560357 -0.286313 -183.979877
-7.481042 -0.356256 -183.981243
-7.464193 -0.506704 -183.980186
-7.447344 -0.657152 -183.979129
-7.368029 -0.727095 -183.980495
-7.476111 -1.038553 -183.974591
-7.521728 -1.269505 -183.971111
-7.442413 -1.339448 -183.972477
-7.425564 -1.489896 -183.971420
-7.346249 -1.559839 -183.972786
-7.266935 -1.629782 -183.974152
-7.187620 -1.699726 -183.975518
-7.170771 -1.850173 -183.974461
-7.091456 -1.920117 -183.975827
-7.012141 -1.990060 -183.977193
-6.932827 -2.060003 -183.978559
-6.853512 -2.129946 -183.979925
-6.836663 -2.280394 -183.978868
-6.757348 -2.350337 -183.980234
-6.678033 -2.420280 -183.981600
-6.598719 -2.490223 -183.982966
-6.519404 -2.560166 -183.984332
-6.440089 -2.630110 -183.985698
-6.360775 -2.700053 -183.987064
-6.343926 -2.850501 -183.986007
-6.264611 -2.920444 -183.987373
-6.185296 -2.990387 -183.988739
-6.105982 -3.060330 -183.990105
-6.089132 -3.210778 -183.989048
-6.009818 -3.280721 -183.990414
-5.930503 -3.350664 -183.991780
-5.913654 -3.501112 -183.990723
-5.834339 -3.571055 -183.992089
-5.755025 -3.640998 -183.993455
-5.675710 -3.710942 -183.994821
-5.658861 -3.861389 -183.993764
-5.579546 -3.931333 -183.995130
-5.500231 -4.001276 -183.996496
-5.483382 -4.151724 -183.995439
-5.404067 -4.221667 -183.996805
-5.387218 -4.372115 -183.995748
-5.307904 -4.442058 -183.997114
-5.291055 -4.592506 -183.996057
-5.211740 -4.662449 -183.997423
-5.194891 -4.812897 -183.996366
-5.115576 -4.882840 -183.997732
-5.036261 -4.952783 -183.999098
-4.956947 -5.022726 -184.000464
-4.815166 -5.012164 -184.004253
-4.719003 -5.232555 -184.004562
-4.702153 -5.383003 -184.003504
-4.685304 -5.533451 -184.002447
-4.605990 -5.603394 -184.003813
-4.589140 -5.753842 -184.002756
-4.572291 -5.904290 -184.001699
-4.555442 -6.054738 -184.000642
-4.538593 -6.205186 -183.999585
-4.459278 -6.275129 -184.000951
-4.442429 -6.425577 -183.999894
-4.363114 -6.495520 -184.001260
-4.283800 -6.565463 -184.002626
-4.204485 -6.635406 -184.003992
-4.125170 -6.705349 -184.005358
-4.108321 -6.855797 -184.004301
-4.029007 -6.925740 -184.005667
-3.949692 -6.995683 -184.007033
-3.932843 -7.146131 -184.005976
-3.915994 -7.296579 -184.004919
-3.899144 -7.447027 -184.003862
-3.819830 -7.516970 -184.005228
-3.802981 -7.667418 -184.004170
-3.723666 -7.737361 -184.005536
-3.644351 -7.807304 -184.006902
-3.565037 -7.877247 -184.008269
-3.548187 -8.027695 -184.007211
-3.468873 -8.097638 -184.008577
-3.452024 -8.248086 -184.007520
-3.372709 -8.318029 -184.008886
-3.293394 -8.387973 -184.010252
-3.214080 -8.457916 -184.011618
-3.134765 -8.527859 -184.012984
-3.055450 -8.597802 -184.014350
-2.913670 -8.587241 -184.018140
-2.834355 -8.657184 -184.019506
-2.692575 -8.646622 -184.023295
-2.613260 -8.716565 -184.024661
-2.658877 -8.947518 -184.021180
-2.704493 -9.178470 -184.017700
-2.687644 -9.328918 -184.016643
-2.670795 -9.479366 -184.015586
-2.591480 -9.549309 -184.016952
-2.574631 -9.699757 -184.015895
-2.495316 -9.769700 -184.017261
-2.416002 -9.839643 -184.018627
-2.336687 -9.909587 -184.019993
-2.257372 -9.979530 -184.021359
-2.178058 -10.049473 -184.022725
-2.161208 -10.199921 -184.021668
-2.081894 -10.269864 -184.023034
-2.065045 -10.420312 -184.021977
-1.985730 -10.490255 -184.023343
-1.906415 -10.560198 -184.024709
-1.889566 -10.710646 -184.023652
-1.810251 -10.780589 -184.025018
-1.730937 -10.850532 -184.026384
-1.714088 -11.000980 -184.025327
-1.634773 -11.070923 -184.026693
-1.555458 -11.140866 -184.028059
-1.476144 -11.210809 -184.029425
-1.396829 -11.280753 -184.030791
-1.379980 -11.431200 -184.029734
-1.300665 -11.501144 -184.031100
-1.221350 -11.571087 -184.032466
-1.142036 -11.641030 -184.033832
-1.062721 -11.710973 -184.035198
-0.983406 -11.780916 -184.036564
-0.904092 -11.850859 -184.037930
-0.824777 -11.920803 -184.039296
-0.807928 -12.071250 -184.038239
-0.728613 -12.141194 -184.039605
-0.711764 -12.291641 -184.038548
-0.694915 -12.442089 -184.037490
-0.615600 -12.512032 -184.038856
-0.536285 -12.581976 -184.040222
-0.456971 -12.651919 -184.041588
-0.377656 -12.721862 -184.042954
-0.298341 -12.791805 -184.044320
-0.156561 -12.781243 -184.048110
-0.077246 -12.851187 -184.049476
0.002068 -12.921130 -184.050842
0.081383 -12.991073 -184.052208
0.223163 -12.980511 -184.055997
0.302478 -13.050455 -184.057363
0.381793 -13.120398 -184.058729
0.461107 -13.190341 -184.060095
0.540422 -13.260284 -184.061461
0.619737 -13.330227 -184.062827
0.636586 -13.480675 -184.061770
0.653435 -13.631123 -184.060713
0.795215 -13.620561 -184.064502
0.874530 -13.690505 -184.065868
0.953844 -13.760448 -184.067234
1.095625 -13.749886 -184.071023
1.174939 -13.819829 -184.072389
1.254254 -13.889772 -184.073755
1.333569 -13.959716 -184.075121
1.475349 -13.949154 -184.078910
1.617129 -13.938593 -184.082699
1.696444 -14.008536 -184.084065
1.775759 -14.078479 -184.085431
1.855073 -14.148422 -184.086797
1.934388 -14.218365 -184.088163
2.076168 -14.207804 -184.091953
2.155483 -14.277747 -184.093319
2.297263 -14.267185 -184.097108
2.439043 -14.256624 -184.100897
2.518358 -14.326567 -184.102263
2.660138 -14.316005 -184.106052
2.739453 -14.385949 -184.107418
2.818768 -14.455892 -184.108784
2.960548 -14.445330 -184.112573
3.102328 -14.434769 -184.116362
3.181643 -14.504712 -184.117728
3.323423 -14.494150 -184.121517
3.402738 -14.564093 -184.122883
3.544518 -14.553532 -184.126673
3.686298 -14.542970 -184.130462
3.890544 -14.451904 -184.136674
4.032324 -14.441343 -184.140463
4.174104 -14.430781 -184.144252
4.253419 -14.500724 -184.145618
4.332734 -14.570667 -184.146984
4.412048 -14.640611 -184.148350
4.553829 -14.630049 -184.152139
5.007937 -14.216964 -184.168044
5.149717 -14.206403 -184.171833
5.229031 -14.276346 -184.173199
5.370812 -14.265784 -184.176989
-4.283162 -6.427274 -183.965256
-4.207190 -6.650093 -183.961776
-4.117375 -6.771960 -183.960719
-4.041403 -6.994779 -183.957238
-3.951587 -7.116646 -183.956181
-3.861771 -7.238513 -183.955124
-3.799644 -7.562284 -183.949221
-3.709828 -7.684151 -183.948164
-3.620013 -7.806018 -183.947107
-3.530197 -7.927885 -183.946050
-3.440381 -8.049752 -183.944992
-3.336721 -8.070667 -183.946358
-3.246905 -8.192534 -183.945301
-3.143245 -8.213449 -183.946667
-3.053429 -8.335316 -183.945610
-2.977457 -8.558135 -183.942130
-2.887642 -8.680002 -183.941073
-2.797826 -8.801869 -183.940016
-2.694166 -8.822784 -183.941382
-2.604350 -8.944652 -183.940325
-2.542223 -9.268422 -183.934421
-2.452407 -9.390289 -183.933364
-2.362591 -9.512156 -183.932307
-2.272775 -9.634024 -183.931250
-2.182959 -9.755891 -183.930193
-2.106988 -9.978710 -183.926713
-2.017172 -10.100577 -183.925656
-1.913512 -10.121492 -183.927022
-1.823696 -10.243359 -183.925965
-1.733880 -10.365226 -183.924907
-1.644064 -10.487093 -183.923850
-1.554248 -10.608960 -183.922793
-1.478277 -10.831779 -183.919313
-1.388461 -10.953646 -183.918256
-1.298645 -11.075513 -183.917199
-1.222674 -11.298332 -183.913719
-1.132858 -11.420199 -183.912661
-1.043042 -11.542066 -183.911604
-0.939382 -11.562981 -183.912970
-0.849566 -11.684848 -183.911913
-0.759750 -11.806715 -183.910856
-0.669934 -11.928582 -183.909799
-0.580119 -12.050449 -183.908742
-0.490303 -12.172316 -183.907685
-0.386643 -12.193231 -183.909051
-0.296827 -12.315099 -183.907994
-0.193167 -12.336014 -183.909360
-0.103351 -12.457881 -183.908303
0.000309 -12.478796 -183.909669
0.090125 -12.600663 -183.908612
0.193785 -12.621578 -183.909978
0.283601 -12.743445 -183.908920
0.387261 -12.764360 -183.910286
0.490922 -12.785275 -183.911652
0.580737 -12.907142 -183.910595
0.684398 -12.928057 -183.911961
0.774213 -13.049925 -183.910904
0.877873 -13.070840 -183.912270
0.967689 -13.192707 -183.911213
1.071349 -13.213622 -183.912579
1.161165 -13.335489 -183.911522
1.264825 -13.356404 -183.912888
1.354641 -13.478271 -183.911831
1.458301 -13.499186 -183.913197
1.548117 -13.621053 -183.912140
1.637933 -13.742920 -183.911083
1.741593 -13.763835 -183.912449
1.831409 -13.885702 -183.911392
1.921225 -14.007569 -183.910335
2.011041 -14.129437 -183.909277
2.114701 -14.150352 -183.910643
2.218361 -14.171267 -183.912009
2.322021 -14.192182 -183.913376
