ply
format ascii 1.0
element vertex 1517
property float x
property float y
property float z
element face 0
property list uchar uint vertex_indices
end_header
15.165464 -3.137873 -182.796612
15.085427 -3.020369 -182.800401
15.106342 -2.916709 -182.801767
15.026305 -2.799204 -182.805557
15.047220 -2.695544 -182.806923
14.967184 -2.578039 -182.810712
14.887147 -2.460535 -182.814501
14.706158 -2.329186 -182.820713
14.626121 -2.211682 -182.824502
14.546084 -2.094177 -182.828291
14.466048 -1.976673 -182.832081
14.386011 -1.859168 -182.835870
14.406926 -1.755508 -182.837236
14.326889 -1.638004 -182.841025
14.347804 -1.534343 -182.842391
14.267768 -1.416839 -182.846180
14.288683 -1.313179 -182.847546
14.208646 -1.195674 -182.851335
14.128609 -1.078170 -182.855124
14.048572 -0.960665 -182.858913
14.069488 -0.857005 -182.860279
13.989451 -0.739501 -182.864069
14.010366 -0.635840 -182.865435
13.930329 -0.518336 -182.869224
13.850292 -0.400832 -182.873013
13.770256 -0.283327 -182.876802
13.690219 -0.165823 -182.880591
13.610182 -0.048318 -182.884380
13.530145 0.069186 -182.888169
13.551060 0.172847 -182.889535
13.471024 0.290351 -182.893325
13.491939 0.394011 -182.894691
13.411902 0.511516 -182.898480
13.432817 0.615176 -182.899846
13.453732 0.718836 -182.901212
13.474647 0.822496 -182.902578
13.495562 0.926156 -182.903944
13.516478 1.029817 -182.905310
13.436441 1.147321 -182.909099
13.457356 1.250981 -182.910465
13.377319 1.368486 -182.914254
13.398234 1.472146 -182.915620
13.419149 1.575806 -182.916986
13.339113 1.693310 -182.920775
13.360028 1.796971 -182.922141
13.380943 1.900631 -182.923507
13.401858 2.004291 -182.924873
13.321821 2.121795 -182.928662
13.342736 2.225456 -182.930028
13.262700 2.342960 -182.933818
13.283615 2.446620 -182.935184
13.304530 2.550280 -182.936550
13.325445 2.653941 -182.937916
13.346360 2.757601 -182.939282
13.266323 2.875105 -182.943071
13.287238 2.978765 -182.944437
13.207202 3.096270 -182.948226
13.228117 3.199930 -182.949592
13.148080 3.317434 -182.953381
13.168995 3.421095 -182.954747
13.189910 3.524755 -182.956113
13.210825 3.628415 -182.957479
13.231741 3.732075 -182.958845
13.252656 3.835735 -182.960211
13.172619 3.953240 -182.964000
13.193534 4.056900 -182.965366
13.214449 4.160560 -182.966732
13.235364 4.264220 -182.968098
13.256279 4.367880 -182.969464
13.277195 4.471541 -182.970830
13.298110 4.575201 -182.972196
13.319025 4.678861 -182.973562
13.339940 4.782521 -182.974928
13.360855 4.886181 -182.976294
13.381770 4.989841 -182.977661
13.301733 5.107346 -182.981450
13.322649 5.211006 -182.982816
13.343564 5.314666 -182.984182
13.263527 5.432171 -182.987971
13.284442 5.535831 -182.989337
13.305357 5.639491 -182.990703
13.225320 5.756995 -182.994492
13.246235 5.860656 -182.995858
13.267151 5.964316 -182.997224
13.187114 6.081820 -183.001013
13.208029 6.185480 -183.002379
13.228944 6.289141 -183.003745
13.249859 6.392801 -183.005111
13.270774 6.496461 -183.006477
13.291690 6.600121 -183.007843
13.312605 6.703781 -183.009209
13.333520 6.807441 -183.010575
13.354435 6.911102 -183.011941
13.274398 7.028606 -183.015730
13.295313 7.132266 -183.017096
13.215276 7.249771 -183.020886
13.236192 7.353431 -183.022252
13.257107 7.457091 -183.023618
13.278022 7.560751 -183.024984
13.197985 7.678256 -183.028773
13.218900 7.781916 -183.030139
13.239815 7.885576 -183.031505
13.260730 7.989236 -183.032871
13.180694 8.106741 -183.036660
12.192090 8.348844 -183.062257
15.931787 -8.995287 -182.702034
15.898070 -8.895057 -182.703400
15.958703 -8.756341 -182.702343
16.019335 -8.617625 -182.701286
16.079967 -8.478908 -182.700229
16.140599 -8.340192 -182.699172
16.672977 -8.009044 -182.685999
16.733609 -7.870327 -182.684942
16.794241 -7.731611 -182.683885
16.760524 -7.631381 -182.685251
16.726807 -7.531151 -182.686617
17.164835 -7.238490 -182.675867
17.225468 -7.099773 -182.674810
17.286100 -6.961057 -182.673753
17.252383 -6.860827 -182.675119
17.313015 -6.722111 -182.674062
17.279298 -6.621881 -182.675428
17.245581 -6.521651 -182.676794
17.306213 -6.382935 -182.675737
17.366845 -6.244218 -182.674680
17.333128 -6.143988 -182.676046
17.393760 -6.005272 -182.674989
17.360043 -5.905042 -182.676355
17.326326 -5.804812 -182.677721
17.292609 -5.704582 -182.679087
17.353241 -5.565866 -182.678030
17.319524 -5.465636 -182.679396
17.285807 -5.365406 -182.680762
17.252090 -5.265176 -182.682128
17.218373 -5.164946 -182.683494
17.184656 -5.064716 -182.684860
17.150939 -4.964486 -182.686226
17.117222 -4.864256 -182.687592
17.083505 -4.764027 -182.688958
17.049788 -4.663797 -182.690324
17.016071 -4.563567 -182.691690
16.982354 -4.463337 -182.693056
17.042986 -4.324621 -182.691999
17.009269 -4.224391 -182.693365
16.975552 -4.124161 -182.694731
16.847486 -4.062417 -182.698520
16.813769 -3.962187 -182.699886
16.780052 -3.861957 -182.701252
16.746335 -3.761727 -182.702618
16.712618 -3.661497 -182.703984
16.678901 -3.561268 -182.705350
16.645184 -3.461038 -182.706716
16.517118 -3.399294 -182.710505
16.483401 -3.299064 -182.711871
16.355335 -3.237321 -182.715660
16.321618 -3.137091 -182.717026
16.099203 -3.113833 -182.723239
16.065486 -3.013604 -182.724605
15.937420 -2.951860 -182.728394
15.620655 -2.967089 -182.737029
15.492589 -2.905346 -182.740818
15.458872 -2.805116 -182.742184
15.425155 -2.704886 -182.743550
15.391438 -2.604656 -182.744916
15.357721 -2.504426 -182.746282
15.229655 -2.442682 -182.750071
15.195938 -2.342452 -182.751437
15.162221 -2.242223 -182.752803
15.034155 -2.180479 -182.756593
15.000438 -2.080249 -182.757959
14.966721 -1.980019 -182.759325
14.933004 -1.879789 -182.760691
14.804938 -1.818046 -182.764480
14.771221 -1.717816 -182.765846
14.737504 -1.617586 -182.767212
14.703787 -1.517356 -182.768578
14.670070 -1.417126 -182.769944
14.730702 -1.278410 -182.768887
14.696985 -1.178180 -182.770253
14.663268 -1.077950 -182.771619
14.629551 -0.977720 -182.772985
14.595834 -0.877490 -182.774351
14.467768 -0.815746 -182.778140
14.434051 -0.715517 -182.779506
14.400334 -0.615287 -182.780872
14.366617 -0.515057 -182.782238
14.332900 -0.414827 -182.783604
14.299183 -0.314597 -182.784970
14.265466 -0.214367 -182.786336
14.231749 -0.114137 -182.787702
14.198032 -0.013907 -182.789068
14.164315 0.086323 -182.790434
14.130598 0.186553 -182.791800
14.096881 0.286783 -182.793166
14.063164 0.387013 -182.794532
14.029447 0.487243 -182.795898
14.090079 0.625959 -182.794841
14.056362 0.726189 -182.796207
14.022645 0.826419 -182.797573
13.988928 0.926649 -182.798939
13.955211 1.026879 -182.800305
13.921494 1.127108 -182.801671
13.887777 1.227338 -182.803037
13.854060 1.327568 -182.804403
13.820343 1.427798 -182.805769
13.786626 1.528028 -182.807135
13.752909 1.628258 -182.808501
13.719192 1.728488 -182.809867
13.779824 1.867204 -182.808810
13.746107 1.967434 -182.810176
13.712390 2.067664 -182.811542
13.773022 2.206380 -182.810485
13.739305 2.306610 -182.811851
13.705588 2.406840 -182.813217
13.671871 2.507070 -182.814583
13.638154 2.607300 -182.815949
13.604437 2.707530 -182.817315
13.665069 2.846246 -182.816258
13.631352 2.946476 -182.817624
13.597635 3.046706 -182.818990
13.563918 3.146936 -182.820356
13.530201 3.247166 -182.821722
13.496484 3.347396 -182.823088
13.462767 3.447626 -182.824454
13.429050 3.547856 -182.825820
13.395333 3.648086 -182.827186
13.361616 3.748316 -182.828552
13.327899 3.848546 -182.829918
13.294182 3.948775 -182.831284
13.354814 4.087492 -182.830227
13.321097 4.187722 -182.831593
13.287380 4.287952 -182.832959
13.348013 4.426668 -182.831902
13.314296 4.526898 -182.833268
13.280579 4.627128 -182.834634
13.246862 4.727358 -182.836000
13.307494 4.866074 -182.834943
13.273777 4.966304 -182.836309
13.240060 5.066534 -182.837675
13.206343 5.166764 -182.839041
13.266975 5.305480 -182.837984
13.233258 5.405710 -182.839350
13.199541 5.505940 -182.840716
13.165824 5.606170 -182.842082
13.132107 5.706400 -182.843448
13.192739 5.845116 -182.842391
13.159022 5.945346 -182.843757
13.125305 6.045576 -182.845123
13.185937 6.184292 -182.844066
13.152220 6.284522 -182.845432
13.118503 6.384752 -182.846798
13.179135 6.523468 -182.845741
13.145418 6.623698 -182.847107
13.111701 6.723928 -182.848473
13.077984 6.824158 -182.849839
13.044267 6.924388 -182.851205
13.104899 7.063104 -182.850148
13.071182 7.163334 -182.851514
13.131814 7.302051 -182.850457
13.098097 7.402280 -182.851823
13.064380 7.502510 -182.853189
13.125012 7.641227 -182.852131
13.091295 7.741457 -182.853497
13.151928 7.880173 -182.852440
13.118211 7.980403 -182.853806
13.084494 8.080633 -182.855172
13.050777 8.180863 -182.856538
13.017060 8.281093 -182.857904
12.983343 8.381323 -182.859270
12.949626 8.481552 -182.860636
12.915909 8.581782 -182.862002
12.882192 8.682012 -182.863368
12.848475 8.782242 -182.864735
12.814758 8.882472 -182.866101
12.686691 8.944216 -182.869890
12.558625 9.005959 -182.873679
12.430559 9.067703 -182.877468
12.396842 9.167933 -182.878834
12.268776 9.229676 -182.882623
12.235059 9.329906 -182.883989
11.823946 9.276191 -182.895048
11.695880 9.337934 -182.898837
11.284766 9.284219 -182.909895
11.251049 9.384448 -182.911261
11.217332 9.484678 -182.912627
11.089266 9.546422 -182.916416
11.055549 9.646652 -182.917782
10.927483 9.708395 -182.921572
10.893766 9.808625 -182.922938
10.765700 9.870369 -182.926727
10.637634 9.932112 -182.930516
10.320869 9.916883 -182.939151
10.004105 9.901654 -182.947787
9.970388 10.001884 -182.949153
9.842322 10.063627 -182.952942
9.808605 10.163857 -182.954308
9.586190 10.187115 -182.960520
9.080727 10.094913 -182.974002
9.047010 10.195143 -182.975368
8.918944 10.256886 -182.979157
8.885227 10.357116 -182.980523
8.851510 10.457346 -182.981889
8.723444 10.519089 -182.985678
8.595378 10.580833 -182.989467
8.467312 10.642577 -182.993256
17.019782 -4.394482 -182.780583
17.065398 -4.163529 -182.777103
17.048549 -4.013081 -182.776046
17.031700 -3.862633 -182.774989
16.952385 -3.792690 -182.776355
16.935536 -3.642242 -182.775298
16.856221 -3.572299 -182.776664
16.839371 -3.421851 -182.775606
16.760057 -3.351908 -182.776973
16.743207 -3.201460 -182.775915
16.663893 -3.131517 -182.777281
16.584578 -3.061574 -182.778647
16.505263 -2.991631 -182.780013
16.425948 -2.921687 -182.781379
16.346633 -2.851744 -182.782745
16.204853 -2.862306 -182.786535
16.125538 -2.792363 -182.787901
16.046224 -2.722420 -182.789267
15.966909 -2.652476 -182.790633
15.887594 -2.582533 -182.791999
15.870745 -2.432085 -182.790942
15.791430 -2.362142 -182.792308
15.712115 -2.292199 -182.793674
15.632800 -2.222256 -182.795040
15.553486 -2.152313 -182.796406
15.474171 -2.082370 -182.797772
15.394856 -2.012426 -182.799138
15.315541 -1.942483 -182.800504
15.236226 -1.872540 -182.801870
15.156912 -1.802597 -182.803236
15.015131 -1.813159 -182.807025
14.935816 -1.743215 -182.808391
14.856502 -1.673272 -182.809757
14.839652 -1.522824 -182.808700
14.885269 -1.291872 -182.805220
14.868419 -1.141424 -182.804162
14.789105 -1.071480 -182.805528
14.772255 -0.921033 -182.804471
14.692941 -0.851089 -182.805837
14.676091 -0.700641 -182.804780
14.596777 -0.630698 -182.806146
14.579927 -0.480250 -182.805089
14.563078 -0.329802 -182.804032
14.483763 -0.259859 -182.805398
14.404448 -0.189916 -182.806764
14.387599 -0.039468 -182.805707
14.308284 0.030475 -182.807073
14.228970 0.100418 -182.808439
14.149655 0.170361 -182.809805
14.132806 0.320809 -182.808748
14.053491 0.390752 -182.810114
14.036642 0.541200 -182.809057
13.957327 0.611144 -182.810423
13.940478 0.761592 -182.809366
13.923628 0.912039 -182.808309
13.906779 1.062487 -182.807252
13.827464 1.132431 -182.808618
13.810615 1.282879 -182.807560
13.793766 1.433326 -182.806503
13.776916 1.583774 -182.805446
13.697602 1.653718 -182.806812
13.680752 1.804166 -182.805755
13.601438 1.874109 -182.807121
13.522123 1.944052 -182.808487
13.442808 2.013995 -182.809853
13.425959 2.164443 -182.808796
13.346644 2.234386 -182.810162
13.454726 2.545844 -182.804259
13.562808 2.857301 -182.798355
13.545958 3.007749 -182.797298
13.466644 3.077692 -182.798664
13.449794 3.228140 -182.797607
13.432945 3.378588 -182.796550
13.416096 3.529036 -182.795493
13.399247 3.679484 -182.794436
13.382397 3.829932 -182.793379
13.303083 3.899875 -182.794745
13.286233 4.050323 -182.793688
13.206918 4.120266 -182.795054
13.190069 4.270714 -182.793997
13.173220 4.421162 -182.792939
13.156371 4.571610 -182.791882
13.077056 4.641553 -182.793248
12.997741 4.711496 -182.794614
12.918426 4.781440 -182.795980
12.839112 4.851383 -182.797346
12.947193 5.162840 -182.791443
12.930344 5.313288 -182.790386
13.100891 5.705250 -182.782059
13.084042 5.855698 -182.781002
13.067193 6.006146 -182.779945
13.050344 6.156594 -182.778888
12.971029 6.226537 -182.780254
12.954180 6.376985 -182.779197
12.874865 6.446929 -182.780563
12.920481 6.677881 -182.777083
12.966097 6.908834 -182.773603
12.949248 7.059282 -182.772545
12.869933 7.129225 -182.773911
12.853084 7.279673 -182.772854
12.836235 7.430121 -182.771797
12.881851 7.661074 -182.768317
12.865002 7.811522 -182.767260
12.848153 7.961970 -182.766203
12.893769 8.192922 -182.762723
12.876920 8.343370 -182.761665
12.860070 8.493818 -182.760608
12.843221 8.644266 -182.759551
12.763906 8.714209 -182.760917
12.684592 8.784153 -182.762283
12.605277 8.854096 -182.763649
12.588428 9.004544 -182.762592
12.509113 9.074487 -182.763958
12.429798 9.144430 -182.765324
12.350483 9.214373 -182.766690
12.271168 9.284316 -182.768056
12.254319 9.434764 -182.766999
12.175004 9.504707 -182.768365
12.095690 9.574651 -182.769731
12.016375 9.644594 -182.771097
11.937060 9.714537 -182.772463
11.857745 9.784480 -182.773829
11.778430 9.854423 -182.775195
11.636650 9.843862 -182.778984
11.557335 9.913805 -182.780350
11.478020 9.983748 -182.781716
11.336240 9.973186 -182.785506
11.256925 10.043129 -182.786872
11.115145 10.032568 -182.790661
10.973365 10.022006 -182.794450
10.894050 10.091949 -182.795816
10.814735 10.161892 -182.797182
10.672955 10.151331 -182.800971
10.593640 10.221274 -182.802337
10.514325 10.291217 -182.803703
10.435010 10.361160 -182.805069
10.293230 10.350599 -182.808858
10.213915 10.420542 -182.810224
10.072135 10.409980 -182.814013
9.930355 10.399419 -182.817803
9.788574 10.388857 -182.821592
9.709260 10.458800 -182.822958
9.567479 10.448239 -182.826747
9.488164 10.518182 -182.828113
9.346384 10.507620 -182.831902
9.267069 10.577563 -182.833268
9.125289 10.567002 -182.837057
9.045974 10.636945 -182.838423
8.904194 10.626383 -182.842212
8.824879 10.696326 -182.843578
8.683099 10.685765 -182.847367
8.541318 10.675203 -182.851157
8.399538 10.664641 -182.854946
8.320223 10.734585 -182.856312
8.240908 10.804528 -182.857678
8.099128 10.793966 -182.861467
8.019813 10.863909 -182.862833
7.940499 10.933852 -182.864199
7.798718 10.923291 -182.867988
7.719403 10.993234 -182.869354
7.577623 10.982672 -182.873143
7.435843 10.972111 -182.876932
7.294062 10.961549 -182.880722
7.214748 11.031492 -182.882088
7.135433 11.101435 -182.883454
7.056118 11.171379 -182.884820
6.914338 11.160817 -182.888609
6.772557 11.150255 -182.892398
6.630777 11.139694 -182.896187
6.488997 11.129132 -182.899976
6.347216 11.118570 -182.903765
6.205436 11.108009 -182.907554
6.126121 11.177952 -182.908920
5.984341 11.167390 -182.912710
5.780095 11.076324 -182.918922
5.575849 10.985258 -182.925134
5.434069 10.974696 -182.928923
5.354754 11.044639 -182.930289
5.212974 11.034077 -182.934078
12.639136 9.098619 -182.761034
12.549320 9.220486 -182.759977
12.459504 9.342353 -182.758919
12.355844 9.363269 -182.760285
12.279872 9.586088 -182.756805
12.190056 9.707955 -182.755748
12.100241 9.829822 -182.754691
11.996580 9.850737 -182.756057
11.892920 9.871652 -182.757423
11.789260 9.892567 -182.758789
11.685600 9.913482 -182.760155
11.595784 10.035349 -182.759098
11.505968 10.157216 -182.758041
11.416152 10.279083 -182.756984
11.312492 10.299998 -182.758350
11.208832 10.320914 -182.759716
11.105172 10.341829 -182.761082
11.001512 10.362744 -182.762448
10.897852 10.383659 -182.763814
10.794192 10.404574 -182.765180
10.690531 10.425489 -182.766546
10.586871 10.446404 -182.767912
10.483211 10.467319 -182.769278
10.393395 10.589187 -182.768221
10.289735 10.610102 -182.769587
10.199919 10.731969 -182.768530
10.096259 10.752884 -182.769896
9.992599 10.773799 -182.771262
9.888939 10.794714 -182.772628
9.785279 10.815629 -182.773994
9.667774 10.735592 -182.777783
9.577958 10.857459 -182.776726
9.474298 10.878375 -182.778092
9.384482 11.000242 -182.777035
9.280822 11.021157 -182.778401
9.177162 11.042072 -182.779767
9.073502 11.062987 -182.781133
8.969842 11.083902 -182.782499
8.866181 11.104817 -182.783865
8.762521 11.125732 -182.785231
8.658861 11.146648 -182.786597
8.555201 11.167563 -182.787963
8.465385 11.289430 -182.786906
8.361725 11.310345 -182.788272
8.258065 11.331260 -182.789638
8.154405 11.352175 -182.791004
8.050745 11.373090 -182.792370
7.947084 11.394005 -182.793736
7.843424 11.414921 -182.795102
7.739764 11.435836 -182.796468
7.636104 11.456751 -182.797834
7.532444 11.477666 -182.799200
7.428784 11.498581 -182.800566
7.325123 11.519496 -182.801932
7.221463 11.540411 -182.803298
7.117803 11.561326 -182.804664
7.014143 11.582242 -182.806030
6.910483 11.603157 -182.807396
6.806823 11.624072 -182.808762
6.689318 11.544035 -182.812551
6.585658 11.564950 -182.813917
6.481998 11.585865 -182.815283
6.378338 11.606780 -182.816649
6.260833 11.526744 -182.820438
6.157173 11.547659 -182.821804
6.053513 11.568574 -182.823170
5.949853 11.589489 -182.824536
5.846193 11.610404 -182.825902
5.742532 11.631319 -182.827268
5.638872 11.652234 -182.828634
5.521368 11.572198 -182.832424
5.417708 11.593113 -182.833790
5.300203 11.513076 -182.837579
5.196543 11.533991 -182.838945
5.079038 11.453954 -182.842734
4.961534 11.373918 -182.846523
4.857874 11.394833 -182.847889
4.740369 11.314796 -182.851678
4.636709 11.335711 -182.853044
4.533049 11.356626 -182.854410
4.415544 11.276589 -182.858199
4.325729 11.398456 -182.857142
4.222069 11.419372 -182.858508
4.118408 11.440287 -182.859874
4.014748 11.461202 -182.861240
3.897244 11.381165 -182.865029
3.793584 11.402080 -182.866395
3.676079 11.322043 -182.870185
3.558575 11.242007 -182.873974
3.441070 11.161970 -182.877763
3.323566 11.081933 -182.881552
3.219905 11.102848 -182.882918
3.116245 11.123763 -182.884284
3.012585 11.144678 -182.885650
2.908925 11.165594 -182.887016
2.805265 11.186509 -182.888382
2.687760 11.106472 -182.892171
2.584100 11.127387 -182.893537
2.466596 11.047350 -182.897326
2.349091 10.967314 -182.901115
2.231587 10.887277 -182.904905
2.114082 10.807240 -182.908694
1.996578 10.727203 -182.912483
1.879073 10.647166 -182.916272
1.761569 10.567130 -182.920061
1.657909 10.588045 -182.921427
1.540404 10.508008 -182.925216
1.436744 10.528923 -182.926582
1.305395 10.347934 -182.932795
1.187891 10.267898 -182.936584
1.070386 10.187861 -182.940373
0.952882 10.107824 -182.944162
0.835377 10.027787 -182.947951
0.717873 9.947750 -182.951740
0.586524 9.766762 -182.957953
0.469019 9.686725 -182.961742
0.337671 9.505736 -182.967954
0.164789 9.021892 -182.981436
0.061129 9.042807 -182.982802
-0.056376 8.962770 -182.986591
-0.160036 8.983685 -182.987957
-0.277541 8.903649 -182.991746
-0.395045 8.823612 -182.995535
-0.498705 8.844527 -182.996901
-0.616210 8.764490 -183.000690
-0.761403 8.482550 -183.009326
11.204240 10.237124 -182.848788
11.065523 10.297756 -182.847731
10.965293 10.264039 -182.849097
10.826577 10.324671 -182.848039
10.687861 10.385303 -182.846982
10.549145 10.445935 -182.845925
10.410428 10.506567 -182.844868
10.271712 10.567199 -182.843811
10.094509 10.722181 -182.840331
9.917307 10.877162 -182.836851
9.778590 10.937794 -182.835793
9.678360 10.904077 -182.837159
9.539644 10.964709 -182.836102
9.400928 11.025341 -182.835045
9.262211 11.085973 -182.833988
9.123495 11.146605 -182.832931
8.984779 11.207238 -182.831874
8.846063 11.267870 -182.830817
8.745833 11.234153 -182.832183
8.645603 11.200436 -182.833549
8.506886 11.261068 -182.832492
8.406657 11.227351 -182.833858
8.267940 11.287983 -182.832801
8.129224 11.348615 -182.831744
7.990508 11.409247 -182.830686
7.851791 11.469879 -182.829629
7.751561 11.436162 -182.830995
7.651331 11.402445 -182.832361
7.512615 11.463077 -182.831304
7.412385 11.429360 -182.832670
7.312155 11.395643 -182.834036
7.173439 11.456275 -182.832979
7.034723 11.516908 -182.831922
6.934493 11.483191 -182.833288
6.795777 11.543823 -182.832231
6.695547 11.510106 -182.833597
6.595317 11.476389 -182.834963
6.495087 11.442672 -182.836329
6.394857 11.408955 -182.837695
6.294627 11.375238 -182.839061
6.155911 11.435870 -182.838004
6.017194 11.496502 -182.836947
5.878478 11.557134 -182.835890
5.739762 11.617766 -182.834833
5.601045 11.678398 -182.833776
5.500815 11.644681 -182.835142
5.400586 11.610964 -182.836508
5.338842 11.482898 -182.840297
5.238612 11.449181 -182.841663
5.099896 11.509813 -182.840606
4.999666 11.476096 -182.841972
4.860950 11.536728 -182.840914
4.760720 11.503011 -182.842281
4.622003 11.563643 -182.841223
4.521773 11.529926 -182.842589
4.383057 11.590559 -182.841532
4.244341 11.651191 -182.840475
4.105625 11.711823 -182.839418
4.005395 11.678106 -182.840784
3.905165 11.644389 -182.842150
3.804935 11.610672 -182.843516
3.704705 11.576955 -182.844882
3.604475 11.543238 -182.846248
3.504245 11.509521 -182.847614
3.404015 11.475804 -182.848980
3.303785 11.442087 -182.850346
3.242042 11.314021 -182.854135
3.141812 11.280304 -182.855501
3.041582 11.246587 -182.856867
2.941352 11.212870 -182.858233
2.841122 11.179153 -182.859599
2.740892 11.145436 -182.860965
2.640662 11.111719 -182.862331
2.540432 11.078002 -182.863697
2.478689 10.949936 -182.867487
2.378459 10.916219 -182.868853
2.278229 10.882502 -182.870219
2.177999 10.848785 -182.871585
2.077769 10.815068 -182.872951
1.939053 10.875700 -182.871894
1.838823 10.841983 -182.873260
1.777079 10.713917 -182.877049
1.676849 10.680200 -182.878415
1.576619 10.646483 -182.879781
1.476389 10.612766 -182.881147
1.376159 10.579049 -182.882513
1.275930 10.545332 -182.883879
1.175700 10.511615 -182.885245
1.075470 10.477898 -182.886611
1.013726 10.349831 -182.890400
0.913496 10.316114 -182.891766
0.851753 10.188048 -182.895555
0.751523 10.154331 -182.896921
0.651293 10.120614 -182.898287
0.551063 10.086897 -182.899653
0.450833 10.053180 -182.901019
0.389089 9.925114 -182.904808
0.327346 9.797048 -182.908597
0.265602 9.668982 -182.912387
0.165372 9.635265 -182.913753
0.065142 9.601548 -182.915119
-0.035087 9.567831 -182.916485
-0.135317 9.534114 -182.917851
-0.235547 9.500397 -182.919217
-0.335777 9.466680 -182.920583
-0.436007 9.432963 -182.921949
-0.536237 9.399246 -182.923315
-0.597981 9.271180 -182.927104
-0.698211 9.237463 -182.928470
-0.798440 9.203746 -182.929836
-0.860184 9.075680 -182.933625
-0.960414 9.041963 -182.934991
-1.022157 8.913897 -182.938780
-1.122387 8.880180 -182.940146
-1.222617 8.846463 -182.941512
-1.322847 8.812746 -182.942878
-1.423077 8.779029 -182.944244
-1.484821 8.650963 -182.948033
-1.546564 8.522896 -182.951823
-1.569821 8.300481 -182.958035
-1.631565 8.172415 -182.961824
-1.731795 8.138698 -182.963190
-1.793538 8.010632 -182.966979
-1.855282 7.882566 -182.970768
-1.955512 7.848849 -182.972134
-2.017255 7.720783 -182.975923
-2.078999 7.592717 -182.979713
-2.140743 7.464651 -182.983502
-2.240972 7.430934 -182.984868
-2.341202 7.397217 -182.986234
-2.402946 7.269150 -182.990023
-2.464689 7.141084 -182.993812
-2.526433 7.013018 -182.997601
-2.588177 6.884952 -183.001390
-2.688406 6.851235 -183.002756
-2.750150 6.723169 -183.006545
-2.811894 6.595103 -183.010335
-2.912124 6.561386 -183.011701
-2.973867 6.433320 -183.015490
-3.074097 6.399603 -183.016856
-3.212813 6.460235 -183.015799
-3.274557 6.332169 -183.019588
-3.374787 6.298452 -183.020954
-3.436530 6.170386 -183.024743
-3.536760 6.136669 -183.026109
-3.598504 6.008603 -183.029898
-3.698734 5.974886 -183.031264
-3.798964 5.941169 -183.032630
-3.860707 5.813102 -183.036419
-3.922451 5.685036 -183.040208
-3.984194 5.556970 -183.043998
-4.045938 5.428904 -183.047787
-4.107681 5.300838 -183.051576
-4.092452 4.984074 -183.060211
-4.154196 4.856008 -183.064000
-4.254426 4.822291 -183.065366
-4.316169 4.694224 -183.069156
-4.416399 4.660507 -183.070522
-4.516629 4.626790 -183.071888
-4.616859 4.593073 -183.073254
-4.678602 4.465007 -183.077043
-4.663373 4.148243 -183.085678
4.001342 12.114992 -182.904128
3.850894 12.098143 -182.903071
3.539437 12.206225 -182.897168
3.469494 12.126911 -182.898534
3.319046 12.110061 -182.897477
3.249103 12.030747 -182.898843
3.179160 11.951432 -182.900209
3.109217 11.872117 -182.901575
3.039274 11.792803 -182.902941
2.969330 11.713488 -182.904307
2.818883 11.696639 -182.903250
2.748939 11.617324 -182.904616
2.598492 11.600475 -182.903559
2.448044 11.583626 -182.902502
2.297596 11.566777 -182.901444
2.227653 11.487462 -182.902810
2.077205 11.470613 -182.901753
1.926757 11.453764 -182.900696
1.776309 11.436915 -182.899639
1.625861 11.420066 -182.898582
1.475414 11.403216 -182.897525
1.405470 11.323902 -182.898891
1.255023 11.307053 -182.897834
1.185079 11.227738 -182.899200
1.115136 11.148423 -182.900566
1.045193 11.069108 -182.901932
0.975250 10.989794 -182.903298
0.905307 10.910479 -182.904664
0.835364 10.831164 -182.906030
0.765421 10.751850 -182.907396
0.695477 10.672535 -182.908762
0.545030 10.655686 -182.907705
0.394582 10.638837 -182.906648
0.324639 10.559522 -182.908014
0.174191 10.542673 -182.906957
0.104248 10.463358 -182.908323
0.034304 10.384044 -182.909689
-0.035639 10.304729 -182.911055
-0.105582 10.225414 -182.912421
-0.256030 10.208565 -182.911364
-0.406478 10.191716 -182.910307
-0.476421 10.112401 -182.911673
-0.546364 10.033087 -182.913039
-0.616307 9.953772 -182.914405
-0.686250 9.874457 -182.915771
-0.756193 9.795142 -182.917137
-0.826137 9.715828 -182.918503
-0.896080 9.636513 -182.919869
-0.966023 9.557198 -182.921235
-1.035966 9.477884 -182.922601
-1.105909 9.398569 -182.923967
-1.175852 9.319254 -182.925333
-1.245796 9.239940 -182.926699
-1.315739 9.160625 -182.928065
-1.385682 9.081310 -182.929431
-1.455625 9.001996 -182.930797
-1.606073 8.985146 -182.929740
-1.676016 8.905832 -182.931106
-1.745959 8.826517 -182.932472
-1.896407 8.809668 -182.931415
-1.966350 8.730353 -182.932781
-2.116798 8.713504 -182.931723
-2.186741 8.634189 -182.933089
-2.256684 8.554875 -182.934455
-2.326627 8.475560 -182.935822
-2.316066 8.333780 -182.939611
-2.386009 8.254465 -182.940977
-2.455952 8.175150 -182.942343
-2.525895 8.095836 -182.943709
-2.595839 8.016521 -182.945075
-2.585277 7.874741 -182.948864
-2.655220 7.795426 -182.950230
-2.725163 7.716111 -182.951596
-2.795106 7.636797 -182.952962
-2.865050 7.557482 -182.954328
-2.934993 7.478167 -182.955694
-3.004936 7.398853 -182.957060
-3.074879 7.319538 -182.958426
-3.144822 7.240223 -182.959792
-3.214765 7.160909 -182.961158
-3.284709 7.081594 -182.962524
-3.354652 7.002279 -182.963890
-3.424595 6.922965 -182.965256
-3.494538 6.843650 -182.966622
-3.564481 6.764335 -182.967988
-3.634424 6.685021 -182.969354
-3.704368 6.605706 -182.970720
-3.774311 6.526391 -182.972086
-3.844254 6.447077 -182.973452
-3.914197 6.367762 -182.974818
-3.984140 6.288447 -182.976184
-4.134588 6.271598 -182.975127
-4.204531 6.192283 -182.976493
-4.274474 6.112969 -182.977859
-4.344417 6.033654 -182.979225
-4.414361 5.954339 -182.980591
-4.484304 5.875025 -182.981957
-4.554247 5.795710 -182.983323
-4.624190 5.716395 -182.984689
-4.694133 5.637081 -182.986055
-4.764076 5.557766 -182.987421
-4.753515 5.415986 -182.991210
-4.823458 5.336671 -182.992576
-4.893401 5.257356 -182.993942
-4.963344 5.178042 -182.995308
-5.033288 5.098727 -182.996674
-5.103231 5.019412 -182.998040
-5.173174 4.940097 -182.999406
-5.243117 4.860783 -183.000772
-5.313060 4.781468 -183.002138
-5.302499 4.639688 -183.005928
-5.372442 4.560373 -183.007294
-5.442385 4.481059 -183.008660
-5.431823 4.339278 -183.012449
-5.501767 4.259964 -183.013815
-5.491205 4.118183 -183.017604
-5.561148 4.038869 -183.018970
-5.631091 3.959554 -183.020336
-5.701035 3.880239 -183.021702
-5.770978 3.800925 -183.023068
-5.760416 3.659144 -183.026857
-5.830359 3.579830 -183.028223
-5.819798 3.438049 -183.032012
-5.809236 3.296269 -183.035801
-5.879179 3.216955 -183.037167
-5.868618 3.075174 -183.040957
-5.938561 2.995860 -183.042323
-6.008504 2.916545 -183.043689
-5.997943 2.774765 -183.047478
-6.067886 2.695450 -183.048844
-6.137829 2.616135 -183.050210
-6.207772 2.536821 -183.051576
-6.197211 2.395040 -183.055365
-3.457011 7.178207 -182.978641
-3.477926 7.074547 -182.980007
-3.498841 6.970887 -182.981373
-3.519756 6.867227 -182.982739
-3.742575 6.791255 -182.979259
-3.965394 6.715284 -182.975779
-4.087261 6.625468 -182.974722
-4.612936 6.591029 -182.963972
-4.633851 6.487369 -182.965338
-4.755718 6.397553 -182.964281
-4.776633 6.293893 -182.965647
-4.797548 6.190233 -182.967013
-4.818463 6.086573 -182.968379
-4.839379 5.982913 -182.969745
-4.961246 5.893097 -182.968688
-4.982161 5.789437 -182.970054
-5.003076 5.685777 -182.971420
-5.023991 5.582117 -182.972786
-5.044906 5.478456 -182.974152
-5.166773 5.388641 -182.973095
-5.187688 5.284980 -182.974461
-5.309555 5.195165 -182.973404
-5.330470 5.091504 -182.974770
-5.452338 5.001689 -182.973713
-5.473253 4.898028 -182.975079
-5.595120 4.808213 -182.974022
-5.817939 4.732241 -182.970542
-5.939806 4.642425 -182.969484
-6.061673 4.552609 -182.968427
-6.082588 4.448949 -182.969793
-6.103503 4.345289 -182.971159
-6.124418 4.241629 -182.972525
-6.145333 4.137969 -182.973891
-6.166248 4.034309 -182.975257
-6.187164 3.930648 -182.976623
-6.409982 3.854677 -182.973143
-6.430898 3.751017 -182.974509
-6.552765 3.661201 -182.973452
-6.573680 3.557541 -182.974818
-6.594595 3.453881 -182.976184
-6.514558 3.336376 -182.979973
-6.535473 3.232716 -182.981339
-6.556388 3.129056 -182.982705
-6.577304 3.025396 -182.984071
-6.699171 2.935580 -182.983014
-6.720086 2.831920 -182.984380
-6.841953 2.742104 -182.983323
-6.862868 2.638444 -182.984689
-6.883783 2.534784 -182.986055
-6.904698 2.431123 -182.987421
-6.925613 2.327463 -182.988787
-6.946528 2.223803 -182.990153
-6.967444 2.120143 -182.991519
-6.988359 2.016483 -182.992885
-7.009274 1.912823 -182.994251
-7.030189 1.809162 -182.995617
-6.950152 1.691658 -182.999406
-6.971067 1.587998 -183.000772
-6.991982 1.484338 -183.002138
-6.911946 1.366833 -183.005928
-6.932861 1.263173 -183.007294
-6.953776 1.159513 -183.008660
-6.974691 1.055853 -183.010026
-6.894654 0.938348 -183.013815
-6.915569 0.834688 -183.015181
-6.936484 0.731028 -183.016547
-6.856448 0.613523 -183.020336
-6.877363 0.509863 -183.021702
-6.898278 0.406203 -183.023068
-6.818241 0.288699 -183.026857
-6.839156 0.185038 -183.028223
-6.759120 0.067534 -183.032012
-6.578131 -0.063815 -183.038225
-6.397142 -0.195164 -183.044437
-6.629990 3.670940 -182.980934
-6.690622 3.532223 -182.979877
-6.751254 3.393507 -182.978820
-6.717537 3.293277 -182.980186
-6.778169 3.154561 -182.979129
-7.310547 2.823413 -182.965956
-7.465528 2.646210 -182.962476
-7.526160 2.507494 -182.961419
-7.492443 2.407264 -182.962785
-7.553075 2.268547 -182.961728
-7.519358 2.168317 -182.963094
-7.485641 2.068087 -182.964460
-7.451924 1.967858 -182.965826
-7.512556 1.829141 -182.964769
-7.478839 1.728911 -182.966135
-7.445122 1.628681 -182.967501
-7.411405 1.528451 -182.968867
-7.472037 1.389735 -182.967810
-7.438320 1.289505 -182.969176
-7.404603 1.189275 -182.970542
-7.370886 1.089045 -182.971908
-7.431518 0.950329 -182.970850
-7.397801 0.850099 -182.972217
-7.458434 0.711383 -182.971159
-7.424717 0.611153 -182.972525
-7.391000 0.510923 -182.973891
-7.451632 0.372207 -182.972834
-7.417915 0.271977 -182.974200
-7.384198 0.171747 -182.975566
-7.350481 0.071517 -182.976932
-7.316764 -0.028713 -182.978298
-7.283047 -0.128943 -182.979664
-7.249330 -0.229173 -182.981030
-7.215613 -0.329403 -182.982396
-7.181896 -0.429633 -182.983762
-7.148179 -0.529863 -182.985128
-7.114462 -0.630092 -182.986494
-7.080745 -0.730322 -182.987861
-7.047028 -0.830552 -182.989227
-7.013311 -0.930782 -182.990593
-6.885245 -0.992526 -182.994382
-6.851528 -1.092756 -182.995748
-6.817811 -1.192986 -182.997114
-6.784094 -1.293216 -182.998480
-6.750377 -1.393445 -182.999846
-6.716660 -1.493675 -183.001212
-6.682943 -1.593905 -183.002578
-6.649226 -1.694135 -183.003944
-6.615509 -1.794365 -183.005310
-6.581792 -1.894595 -183.006676
-6.453725 -1.956339 -183.010465
-6.420008 -2.056569 -183.011831
-6.386291 -2.156798 -183.013197
-6.352574 -2.257028 -183.014563
-6.318857 -2.357258 -183.015929
-6.190791 -2.419002 -183.019718
-6.157074 -2.519232 -183.021084
-6.123357 -2.619462 -183.022450
-6.089640 -2.719692 -183.023816
-6.055923 -2.819922 -183.025182
-5.927857 -2.881665 -183.028971
-5.894140 -2.981895 -183.030337
-5.860423 -3.082125 -183.031703
-5.732357 -3.143868 -183.035493
-5.698640 -3.244098 -183.036859
-5.664923 -3.344328 -183.038225
-5.631206 -3.444558 -183.039591
-5.597489 -3.544788 -183.040957
-5.563772 -3.645018 -183.042323
-5.530055 -3.745248 -183.043689
-5.496338 -3.845478 -183.045055
-5.462621 -3.945708 -183.046421
-5.334555 -4.007451 -183.050210
-5.300838 -4.107681 -183.051576
-5.267121 -4.207911 -183.052942
-5.233404 -4.308141 -183.054308
-5.199687 -4.408371 -183.055674
-5.165970 -4.508601 -183.057040
-5.132253 -4.608831 -183.058406
-5.098536 -4.709061 -183.059772
-5.064819 -4.809291 -183.061138
-5.031102 -4.909521 -183.062504
-4.997385 -5.009751 -183.063870
-4.869319 -5.071494 -183.067659
-4.835602 -5.171724 -183.069025
-4.801885 -5.271954 -183.070391
-4.768168 -5.372184 -183.071757
-4.734451 -5.472414 -183.073123
-4.606385 -5.534157 -183.076912
-4.572668 -5.634387 -183.078278
-4.538951 -5.734617 -183.079644
-4.505234 -5.834847 -183.081010
-4.471517 -5.935077 -183.082376
-4.437800 -6.035307 -183.083742
-4.309734 -6.097051 -183.087532
-4.276017 -6.197281 -183.088898
-4.147951 -6.259024 -183.092687
-4.114234 -6.359254 -183.094053
-4.080517 -6.459484 -183.095419
-4.046800 -6.559714 -183.096785
-4.013083 -6.659944 -183.098151
-3.979366 -6.760174 -183.099517
-3.945649 -6.860404 -183.100883
-3.911932 -6.960634 -183.102249
-3.783865 -7.022377 -183.106038
-3.750148 -7.122607 -183.107404
-3.716431 -7.222837 -183.108770
-3.588365 -7.284580 -183.112559
-3.554648 -7.384810 -183.113925
-3.520931 -7.485040 -183.115291
-3.392865 -7.546784 -183.119080
-3.359148 -7.647014 -183.120446
-3.325431 -7.747244 -183.121812
-3.291714 -7.847474 -183.123178
-3.163648 -7.909217 -183.126967
-3.129931 -8.009447 -183.128333
-3.096214 -8.109677 -183.129700
-3.062497 -8.209907 -183.131066
-2.934431 -8.271650 -183.134855
-2.900714 -8.371880 -183.136221
-2.772648 -8.433624 -183.140010
-2.738931 -8.533854 -183.141376
-2.705214 -8.634084 -183.142742
-2.671497 -8.734314 -183.144108
-2.637780 -8.834544 -183.145474
-2.604063 -8.934774 -183.146840
-2.570346 -9.035003 -183.148206
-2.536629 -9.135233 -183.149572
-2.408563 -9.196977 -183.153361
-2.374846 -9.297207 -183.154727
-2.341129 -9.397437 -183.156093
-2.307412 -9.497667 -183.157459
-2.273695 -9.597897 -183.158825
-2.239978 -9.698127 -183.160191
-2.206261 -9.798356 -183.161557
-2.078195 -9.860100 -183.165346
-2.044478 -9.960330 -183.166712
-2.010761 -10.060560 -183.168078
-1.977044 -10.160790 -183.169444
-1.848978 -10.222533 -183.173233
-1.815261 -10.322763 -183.174600
-1.781544 -10.422993 -183.175966
-1.747827 -10.523223 -183.177332
-1.619760 -10.584967 -183.181121
-1.586043 -10.685197 -183.182487
-1.457977 -10.746940 -183.186276
-1.424260 -10.847170 -183.187642
-1.201845 -10.870427 -183.193854
-0.979430 -10.893684 -183.200066
-0.945713 -10.993914 -183.201432
-0.817647 -11.055658 -183.205222
-0.689581 -11.117401 -183.209011
-0.561515 -11.179145 -183.212800
-0.527798 -11.279375 -183.214166
-0.494081 -11.379605 -183.215532
-0.366014 -11.441348 -183.219321
-0.332297 -11.541578 -183.220687
-0.204231 -11.603322 -183.224476
-0.076165 -11.665065 -183.228265
0.146250 -11.688323 -183.234478
0.179967 -11.788552 -183.235844
0.308033 -11.850296 -183.239633
0.341750 -11.950526 -183.240999
0.469816 -12.012269 -183.244788
0.597882 -12.074013 -183.248577
0.725948 -12.135757 -183.252366
0.759665 -12.235987 -183.253732
1.265128 -12.143785 -183.267214
-4.781468 -5.313060 -183.002138
-4.764619 -5.463508 -183.001081
-4.747770 -5.613956 -183.000024
-4.730921 -5.764404 -182.998967
-4.651606 -5.834347 -183.000333
-4.634757 -5.984795 -182.999276
-4.555442 -6.054738 -183.000642
-4.538593 -6.205186 -182.999585
-4.459278 -6.275129 -183.000951
-4.379964 -6.345072 -183.002317
-4.300649 -6.415015 -183.003683
-4.283800 -6.565463 -183.002626
-4.204485 -6.635406 -183.003992
-4.125170 -6.705349 -183.005358
-4.045856 -6.775292 -183.006724
-4.029007 -6.925740 -183.005667
-3.949692 -6.995683 -183.007033
-3.870377 -7.065627 -183.008399
-3.791063 -7.135570 -183.009765
-3.774213 -7.286018 -183.008708
-3.694899 -7.355961 -183.010074
-3.615584 -7.425904 -183.011440
-3.598735 -7.576352 -183.010383
-3.519420 -7.646295 -183.011749
-3.502571 -7.796743 -183.010692
-3.423256 -7.866686 -183.012058
-3.406407 -8.017134 -183.011001
-3.327093 -8.087077 -183.012367
-3.247778 -8.157020 -183.013733
-3.230929 -8.307468 -183.012675
-3.151614 -8.377411 -183.014041
-3.134765 -8.527859 -183.012984
-3.055450 -8.597802 -183.014350
-2.976136 -8.667745 -183.015716
-2.959286 -8.818193 -183.014659
-2.879972 -8.888136 -183.016025
-2.800657 -8.958079 -183.017391
-2.721342 -9.028023 -183.018757
-2.642028 -9.097966 -183.020123
-2.562713 -9.167909 -183.021489
-2.483398 -9.237852 -183.022855
-2.466549 -9.388300 -183.021798
-2.449700 -9.538748 -183.020741
-2.370385 -9.608691 -183.022107
-2.353536 -9.759139 -183.021050
-2.274221 -9.829082 -183.022416
-2.194907 -9.899025 -183.023782
-2.178058 -10.049473 -183.022725
-2.098743 -10.119416 -183.024091
-2.019428 -10.189359 -183.025457
-1.940114 -10.259302 -183.026823
-1.923264 -10.409750 -183.025766
-1.843950 -10.479693 -183.027132
-1.827101 -10.630141 -183.026075
-1.747786 -10.700084 -183.027441
-1.668471 -10.770027 -183.028807
-1.651622 -10.920475 -183.027750
-1.572307 -10.990418 -183.029116
-1.492993 -11.060362 -183.030482
-1.413678 -11.130305 -183.031848
-1.334363 -11.200248 -183.033214
-1.255049 -11.270191 -183.034580
-1.175734 -11.340134 -183.035946
-1.096419 -11.410077 -183.037312
-1.017105 -11.480021 -183.038678
-1.000255 -11.630468 -183.037621
-0.920941 -11.700412 -183.038987
-0.841626 -11.770355 -183.040353
-0.699846 -11.759793 -183.044142
-0.620531 -11.829736 -183.045508
-0.541216 -11.899679 -183.046874
-0.524367 -12.050127 -183.045817
-0.507518 -12.200575 -183.044760
-0.490669 -12.351023 -183.043703
-0.411354 -12.420966 -183.045069
-0.332040 -12.490909 -183.046435
-0.252725 -12.560852 -183.047801
-0.110945 -12.550291 -183.051590
-0.031630 -12.620234 -183.052956
0.110150 -12.609673 -183.056745
0.189465 -12.679616 -183.058111
0.268780 -12.749559 -183.059477
0.348094 -12.819502 -183.060843
0.427409 -12.889445 -183.062209
0.506724 -12.959388 -183.063575
0.586038 -13.029332 -183.064941
0.665353 -13.099275 -183.066307
0.744668 -13.169218 -183.067673
0.823982 -13.239161 -183.069039
0.903297 -13.309104 -183.070405
1.045077 -13.298543 -183.074194
1.124392 -13.368486 -183.075560
1.203707 -13.438429 -183.076926
1.283021 -13.508372 -183.078292
1.424802 -13.497811 -183.082082
1.566582 -13.487249 -183.085871
1.708362 -13.476688 -183.089660
1.787677 -13.546631 -183.091026
1.804526 -13.697079 -183.089969
1.883841 -13.767022 -183.091335
2.025621 -13.756460 -183.095124
2.104935 -13.826403 -183.096490
2.184250 -13.896346 -183.097856
2.263565 -13.966290 -183.099222
2.342879 -14.036233 -183.100588
2.422194 -14.106176 -183.101954
2.501509 -14.176119 -183.103320
2.643289 -14.165558 -183.107109
2.722604 -14.235501 -183.108475
2.864384 -14.224939 -183.112264
3.068630 -14.133873 -183.118477
3.147944 -14.203816 -183.119843
3.289725 -14.193255 -183.123632
3.369039 -14.263198 -183.124998
3.510820 -14.252636 -183.128787
3.652600 -14.242075 -183.132576
3.731915 -14.312018 -183.133942
3.811229 -14.381961 -183.135308
3.890544 -14.451904 -183.136674
3.969859 -14.521847 -183.138040
4.111639 -14.511286 -183.141829
4.190953 -14.581229 -183.143195
4.332734 -14.570667 -183.146984
4.474514 -14.560106 -183.150773
4.616294 -14.549544 -183.154563
4.758074 -14.538983 -183.158352
-3.398848 -7.746896 -182.952262
-3.309032 -7.868763 -182.951205
-3.219216 -7.990630 -182.950148
-3.115556 -8.011545 -182.951514
-3.025740 -8.133412 -182.950457
-2.949769 -8.356231 -182.946976
-2.859953 -8.478098 -182.945919
-2.756293 -8.499014 -182.947285
-2.666477 -8.620881 -182.946228
-2.562817 -8.641796 -182.947594
-2.486845 -8.864615 -182.944114
-2.397029 -8.986482 -182.943057
-2.293369 -9.007397 -182.944423
-2.258931 -9.533072 -182.933673
-2.169115 -9.654939 -182.932616
-2.065455 -9.675854 -182.933982
-1.975639 -9.797721 -182.932925
-1.871979 -9.818636 -182.934291
-1.782163 -9.940503 -182.933234
-1.720036 -10.264274 -182.927331
-1.630220 -10.386141 -182.926273
-1.526560 -10.407056 -182.927639
-1.436744 -10.528923 -182.926582
-1.333084 -10.549838 -182.927948
-1.270957 -10.873609 -182.922045
-1.181141 -10.995476 -182.920988
-1.077481 -11.016391 -182.922354
-0.987665 -11.138258 -182.921297
-0.884005 -11.159173 -182.922663
-0.794189 -11.281040 -182.921606
-0.718217 -11.503859 -182.918125
-0.614557 -11.524775 -182.919491
-0.524741 -11.646642 -182.918434
-0.421081 -11.667557 -182.919800
-0.331265 -11.789424 -182.918743
-0.241449 -11.911291 -182.917686
-0.151634 -12.033158 -182.916629
-0.061818 -12.155025 -182.915572
0.041842 -12.175940 -182.916938
0.131658 -12.297807 -182.915881
0.235318 -12.318722 -182.917247
0.325134 -12.440589 -182.916190
0.428794 -12.461504 -182.917556
0.532454 -12.482420 -182.918922
0.636115 -12.503335 -182.920288
0.739775 -12.524250 -182.921654
0.829591 -12.646117 -182.920597
0.905562 -12.868936 -182.917117
0.995378 -12.990803 -182.916059
1.085194 -13.112670 -182.915002
1.188854 -13.133585 -182.916368
1.278670 -13.255452 -182.915311
1.382330 -13.276367 -182.916677
1.485990 -13.297282 -182.918043
1.575806 -13.419149 -182.916986
1.679466 -13.440065 -182.918352
1.783126 -13.460980 -182.919718
1.872942 -13.582847 -182.918661
1.976602 -13.603762 -182.920027
2.066418 -13.725629 -182.918970
2.170078 -13.746544 -182.920336
2.273738 -13.767459 -182.921702
2.363554 -13.889326 -182.920645
2.467214 -13.910241 -182.922011
2.570875 -13.931156 -182.923377
2.674535 -13.952072 -182.924743
2.778195 -13.972987 -182.926109
2.868011 -14.094854 -182.925052
2.971671 -14.115769 -182.926418
3.061487 -14.237636 -182.925361
3.165147 -14.258551 -182.926727
3.268807 -14.279466 -182.928093
3.358623 -14.401333 -182.927036
3.462283 -14.422248 -182.928402
3.565943 -14.443163 -182.929768
3.669603 -14.464079 -182.931134
3.773264 -14.484994 -182.932500
3.863079 -14.606861 -182.931443
3.966739 -14.627776 -182.932809
4.070400 -14.648691 -182.934175
4.174060 -14.669606 -182.935541
4.277720 -14.690521 -182.936907
4.381380 -14.711436 -182.938273
4.485040 -14.732352 -182.939639
4.588700 -14.753267 -182.941005
4.692361 -14.774182 -182.942371
4.796021 -14.795097 -182.943737
4.899681 -14.816012 -182.945103
5.003341 -14.836927 -182.946469
5.107001 -14.857842 -182.947835
5.210661 -14.878757 -182.949201
5.314322 -14.899673 -182.950567
5.417982 -14.920588 -182.951933
5.521642 -14.941503 -182.953299
5.625302 -14.962418 -182.954665
5.728962 -14.983333 -182.956031
5.846467 -14.903296 -182.959820
5.950127 -14.924212 -182.961186
6.067631 -14.844175 -182.964975
6.185136 -14.764138 -182.968764
6.302640 -14.684101 -182.972553
6.420145 -14.604064 -182.976343
6.523805 -14.624980 -182.977709
6.641309 -14.544943 -182.981498
6.744970 -14.565858 -182.982864
6.862474 -14.485821 -182.986653
6.979979 -14.405784 -182.990442
7.097483 -14.325748 -182.994231
7.214988 -14.245711 -182.998020
7.332492 -14.165674 -183.001810
7.449997 -14.085637 -183.005599
7.567501 -14.005600 -183.009388
7.698850 -13.824612 -183.015600
7.830199 -13.643623 -183.021812
7.947703 -13.563586 -183.025601
8.065208 -13.483549 -183.029391
8.168868 -13.504465 -183.030757
8.286372 -13.424428 -183.034546
8.390032 -13.445343 -183.035912
8.507537 -13.365306 -183.039701
8.625041 -13.285269 -183.043490
8.742546 -13.205233 -183.047279
8.860050 -13.125196 -183.051068
8.977555 -13.045159 -183.054857
9.136592 -12.662266 -183.065916
9.254097 -12.582230 -183.069705
9.385446 -12.401241 -183.075917
9.516794 -12.220252 -183.082130
9.634299 -12.140216 -183.085919
9.751803 -12.060179 -183.089708
9.869308 -11.980142 -183.093497
9.986812 -11.900105 -183.097286
10.104317 -11.820068 -183.101075
10.207977 -11.840984 -183.102441
10.325482 -11.760947 -183.106231
10.429142 -11.781862 -183.107597
10.532802 -11.802777 -183.108963
10.650306 -11.722740 -183.112752
10.767811 -11.642703 -183.116541
10.899160 -11.461715 -183.122753
11.016664 -11.381678 -183.126542
11.120324 -11.402593 -183.127908
11.237829 -11.322556 -183.131697
11.341489 -11.343471 -183.133063
11.445149 -11.364387 -183.134429
11.548809 -11.385302 -183.135795
11.666314 -11.305265 -183.139585
11.769974 -11.326180 -183.140951
11.887478 -11.246143 -183.144740
12.060360 -10.762299 -183.158221
12.177865 -10.682262 -183.162010
12.323058 -10.400321 -183.170646
12.440562 -10.320285 -183.174435
0.041462 -11.818898 -182.854671
0.180178 -11.879530 -182.853614
0.318895 -11.940163 -182.852557
0.611556 -12.378191 -182.841807
0.942705 -12.910569 -182.828634
1.081421 -12.971201 -182.827577
1.220137 -13.031833 -182.826520
1.397340 -13.186814 -182.823040
1.536056 -13.247446 -182.821983
1.674772 -13.308079 -182.820926
1.813489 -13.368711 -182.819869
1.952205 -13.429343 -182.818812
2.129408 -13.584324 -182.815331
2.268124 -13.644956 -182.814274
2.406840 -13.705588 -182.813217
2.545557 -13.766220 -182.812160
2.722759 -13.921202 -182.808680
2.861476 -13.981834 -182.807623
2.961705 -13.948117 -182.808989
3.100422 -14.008749 -182.807932
3.200652 -13.975032 -182.809298
3.377854 -14.130013 -182.805817
3.555057 -14.284994 -182.802337
3.693773 -14.345626 -182.801280
3.832490 -14.406258 -182.800223
3.971206 -14.466891 -182.799166
4.109922 -14.527523 -182.798109
4.248639 -14.588155 -182.797052
4.387355 -14.648787 -182.795994
4.487585 -14.615070 -182.797360
4.587815 -14.581353 -182.798726
4.688045 -14.547636 -182.800092
4.826761 -14.608268 -182.799035
4.965477 -14.668900 -182.797978
5.104193 -14.729532 -182.796921
5.242910 -14.790164 -182.795864
5.343140 -14.756447 -182.797230
5.443370 -14.722730 -182.798596
5.582086 -14.783362 -182.797539
5.682316 -14.749645 -182.798905
5.782546 -14.715928 -182.800271
5.882776 -14.682211 -182.801637
5.983006 -14.648494 -182.803003
6.083236 -14.614777 -182.804369
6.221952 -14.675410 -182.803312
6.322182 -14.641693 -182.804678
6.422412 -14.607976 -182.806044
6.522642 -14.574259 -182.807410
6.622872 -14.540542 -182.808776
6.723101 -14.506825 -182.810142
6.823331 -14.473108 -182.811508
6.923561 -14.439391 -182.812874
7.023791 -14.405674 -182.814240
7.124021 -14.371957 -182.815606
7.185765 -14.243890 -182.819395
7.285995 -14.210173 -182.820761
7.386225 -14.176456 -182.822127
7.486454 -14.142739 -182.823493
7.625171 -14.203372 -182.822436
7.686914 -14.075305 -182.826225
7.787144 -14.041588 -182.827591
7.887374 -14.007871 -182.828957
7.987604 -13.974154 -182.830323
8.049348 -13.846088 -182.834112
8.149578 -13.812371 -182.835478
8.211321 -13.684305 -182.839268
8.311551 -13.650588 -182.840634
8.373295 -13.522522 -182.844423
8.473524 -13.488805 -182.845789
8.573754 -13.455088 -182.847155
8.712471 -13.515720 -182.846098
8.812701 -13.482003 -182.847464
8.912931 -13.448286 -182.848830
9.013160 -13.414569 -182.850196
9.113390 -13.380852 -182.851562
9.213620 -13.347135 -182.852928
9.275364 -13.219069 -182.856717
9.375594 -13.185352 -182.858083
9.437337 -13.057286 -182.861872
9.499081 -12.929220 -182.865661
9.599311 -12.895503 -182.867027
9.661054 -12.767437 -182.870816
9.761284 -12.733720 -182.872182
9.861514 -12.700003 -182.873548
9.961744 -12.666286 -182.874914
10.023488 -12.538220 -182.878704
10.085231 -12.410154 -182.882493
10.146975 -12.282087 -182.886282
10.208718 -12.154021 -182.890071
10.308948 -12.120304 -182.891437
10.409178 -12.086587 -182.892803
