ply
format ascii 1.0
element vertex 1517
property float x
property float y
property float z
element face 0
property list uchar uint vertex_indices
end_header
10.574692 -12.521976 -181.731208
10.595607 -12.418316 -181.732574
10.616522 -12.314655 -181.733940
10.738389 -12.224840 -181.732883
10.860256 -12.135024 -181.731826
10.982123 -12.045208 -181.730769
11.103990 -11.955392 -181.729712
11.225857 -11.865576 -181.728654
11.448676 -11.789605 -181.725174
11.671495 -11.713633 -181.721694
11.894314 -11.637662 -181.718214
12.016181 -11.547846 -181.717157
12.037096 -11.444186 -181.718523
12.158963 -11.354370 -181.717466
12.280830 -11.264554 -181.716408
12.301745 -11.160894 -181.717774
12.423612 -11.071078 -181.716717
12.545479 -10.981262 -181.715660
12.768298 -10.905291 -181.712180
13.092069 -10.843164 -181.706277
13.415840 -10.781036 -181.700373
13.638659 -10.705065 -181.696893
13.962430 -10.642938 -181.690990
14.084297 -10.553122 -181.689933
14.206164 -10.463306 -181.688875
14.227079 -10.359646 -181.690242
14.348946 -10.269830 -181.689184
14.369861 -10.166170 -181.690550
14.491728 -10.076354 -181.689493
14.512643 -9.972694 -181.690859
14.634511 -9.882878 -181.689802
14.655426 -9.779218 -181.691168
14.777293 -9.689402 -181.690111
14.798208 -9.585742 -181.691477
14.920075 -9.495926 -181.690420
15.041942 -9.406110 -181.689363
15.163809 -9.316294 -181.688306
15.184724 -9.212634 -181.689672
15.306591 -9.122818 -181.688615
15.327506 -9.019158 -181.689981
15.449373 -8.929342 -181.688924
15.470288 -8.825682 -181.690290
15.592155 -8.735866 -181.689233
15.714023 -8.646051 -181.688175
15.835890 -8.556235 -181.687118
15.856805 -8.452575 -181.688484
15.978672 -8.362759 -181.687427
15.999587 -8.259099 -181.688793
16.020502 -8.155438 -181.690159
16.041417 -8.051778 -181.691525
16.062332 -7.948118 -181.692891
16.083247 -7.844458 -181.694257
16.205114 -7.754642 -181.693200
16.226030 -7.650982 -181.694566
16.246945 -7.547322 -181.695932
16.267860 -7.443662 -181.697298
16.288775 -7.340002 -181.698664
16.309690 -7.236341 -181.700030
16.431557 -7.146526 -181.698973
16.452472 -7.042865 -181.700339
16.473387 -6.939205 -181.701705
16.494303 -6.835545 -181.703071
16.515218 -6.731885 -181.704437
16.637085 -6.642069 -181.703380
16.658000 -6.538409 -181.704746
16.678915 -6.434749 -181.706112
16.699830 -6.331089 -181.707478
16.720745 -6.227428 -181.708844
16.741660 -6.123768 -181.710210
16.762576 -6.020108 -181.711576
16.783491 -5.916448 -181.712942
16.804406 -5.812788 -181.714308
16.724369 -5.695283 -181.718097
16.745284 -5.591623 -181.719463
16.766199 -5.487963 -181.720829
16.787114 -5.384303 -181.722195
16.808030 -5.280643 -181.723561
16.828945 -5.176982 -181.724927
16.748908 -5.059478 -181.728717
16.769823 -4.955818 -181.730083
16.790738 -4.852158 -181.731449
16.811653 -4.748498 -181.732815
16.731616 -4.630993 -181.736604
16.752532 -4.527333 -181.737970
16.773447 -4.423673 -181.739336
16.693410 -4.306168 -181.743125
16.714325 -4.202508 -181.744491
16.634288 -4.085004 -181.748280
16.453300 -3.953655 -181.754492
16.171359 -3.808462 -181.763128
15.081803 -3.552514 -181.791148
15.001766 -3.435009 -181.794937
14.921730 -3.317505 -181.798726
14.841693 -3.200000 -181.802516
14.862608 -3.096340 -181.803882
14.782571 -2.978836 -181.807671
14.803486 -2.875176 -181.809037
14.723449 -2.757671 -181.812826
14.542461 -2.626322 -181.819038
14.462424 -2.508818 -181.822827
14.483339 -2.405158 -181.824193
14.403302 -2.287653 -181.827982
14.424217 -2.183993 -181.829348
14.445133 -2.080333 -181.830714
14.365096 -1.962828 -181.834504
14.386011 -1.859168 -181.835870
14.305974 -1.741664 -181.839659
14.225937 -1.624159 -181.843448
14.145901 -1.506655 -181.847237
14.065864 -1.389150 -181.851026
14.086779 -1.285490 -181.852392
14.006742 -1.167986 -181.856181
13.926705 -1.050481 -181.859971
13.745717 -0.919132 -181.866183
13.665680 -0.801628 -181.869972
13.686595 -0.697968 -181.871338
13.707510 -0.594308 -181.872704
13.728425 -0.490647 -181.874070
13.749340 -0.386987 -181.875436
13.669304 -0.269483 -181.879225
13.690219 -0.165823 -181.880591
13.610182 -0.048318 -181.884380
13.530145 0.069186 -181.888169
13.450108 0.186691 -181.891959
13.471024 0.290351 -181.893325
13.390987 0.407856 -181.897114
13.411902 0.511516 -181.898480
13.432817 0.615176 -181.899846
13.352780 0.732680 -181.903635
13.373695 0.836341 -181.905001
13.293659 0.953845 -181.908790
13.314574 1.057505 -181.910156
13.335489 1.161165 -181.911522
13.255452 1.278670 -181.915311
13.276367 1.382330 -181.916677
13.297282 1.485990 -181.918043
13.217246 1.603495 -181.921832
13.238161 1.707155 -181.923198
13.259076 1.810815 -181.924564
13.279991 1.914475 -181.925930
13.199954 2.031980 -181.929720
13.220869 2.135640 -181.931086
13.241784 2.239300 -181.932452
13.161748 2.356804 -181.936241
13.182663 2.460465 -181.937607
13.102626 2.577969 -181.941396
13.123541 2.681629 -181.942762
13.043504 2.799134 -181.946551
13.064419 2.902794 -181.947917
13.085335 3.006454 -181.949283
13.005298 3.123958 -181.953072
13.026213 3.227619 -181.954438
13.047128 3.331279 -181.955804
13.068043 3.434939 -181.957170
13.088958 3.538599 -181.958536
13.109873 3.642259 -181.959902
13.130789 3.745919 -181.961268
13.151704 3.849580 -181.962634
13.172619 3.953240 -181.964000
13.193534 4.056900 -181.965366
13.214449 4.160560 -181.966732
13.134412 4.278065 -181.970522
13.155327 4.381725 -181.971888
13.176243 4.485385 -181.973254
13.096206 4.602889 -181.977043
13.117121 4.706550 -181.978409
13.138036 4.810210 -181.979775
13.158951 4.913870 -181.981141
13.179866 5.017530 -181.982507
13.099830 5.135034 -181.986296
13.120745 5.238695 -181.987662
13.040708 5.356199 -181.991451
13.061623 5.459859 -181.992817
13.082538 5.563519 -181.994183
13.103453 5.667180 -181.995549
13.124368 5.770840 -181.996915
13.145284 5.874500 -181.998281
13.166199 5.978160 -181.999647
13.187114 6.081820 -182.001013
13.107077 6.199325 -182.004802
13.127992 6.302985 -182.006168
13.148907 6.406645 -182.007534
13.068871 6.524150 -182.011323
13.089786 6.627810 -182.012689
13.009749 6.745314 -182.016479
13.030664 6.848974 -182.017845
13.051579 6.952635 -182.019211
13.072494 7.056295 -182.020577
13.093409 7.159955 -182.021943
13.114325 7.263615 -182.023309
13.135240 7.367275 -182.024675
13.055203 7.484780 -182.028464
13.076118 7.588440 -182.029830
13.097033 7.692100 -182.031196
13.117948 7.795760 -182.032562
13.037912 7.913265 -182.036351
14.671532 -9.395380 -181.734901
15.770004 -8.833314 -181.707189
15.830636 -8.694597 -181.706132
15.796919 -8.594367 -181.707498
15.857552 -8.455651 -181.706441
15.918184 -8.316935 -181.705384
16.450561 -7.985787 -181.692211
16.416844 -7.885557 -181.693577
16.477476 -7.746840 -181.692520
16.538109 -7.608124 -181.691463
16.598741 -7.469408 -181.690406
16.659373 -7.330691 -181.689349
16.908703 -7.115002 -181.683446
16.969335 -6.976286 -181.682388
17.029967 -6.837570 -181.681331
16.996250 -6.737340 -181.682697
17.056883 -6.598624 -181.681640
17.023166 -6.498394 -181.683006
16.989449 -6.398164 -181.684372
17.050081 -6.259447 -181.683315
17.110713 -6.120731 -181.682258
17.171345 -5.982015 -181.681201
17.137628 -5.881785 -181.682567
17.198260 -5.743069 -181.681510
17.164543 -5.642839 -181.682876
17.130826 -5.542609 -181.684242
17.097109 -5.442379 -181.685608
17.063392 -5.342149 -181.686974
17.029675 -5.241919 -181.688340
17.090307 -5.103203 -181.687283
17.056590 -5.002973 -181.688649
17.022873 -4.902743 -181.690015
16.989156 -4.802513 -181.691381
16.955439 -4.702283 -181.692747
16.921722 -4.602053 -181.694113
16.888005 -4.501823 -181.695479
16.854288 -4.401593 -181.696845
16.820571 -4.301363 -181.698211
16.786854 -4.201133 -181.699577
16.753137 -4.100903 -181.700943
16.719420 -4.000674 -181.702309
16.685703 -3.900444 -181.703675
16.651986 -3.800214 -181.705041
16.618269 -3.699984 -181.706407
16.584552 -3.599754 -181.707773
16.456486 -3.538010 -181.711562
16.422769 -3.437780 -181.712928
16.294703 -3.376037 -181.716717
16.166637 -3.314293 -181.720506
16.038571 -3.252550 -181.724296
15.816155 -3.229293 -181.730508
15.310693 -3.321495 -181.743990
15.276976 -3.221265 -181.745356
15.243259 -3.121035 -181.746722
15.115193 -3.059291 -181.750511
15.081476 -2.959061 -181.751877
15.047759 -2.858831 -181.753243
15.014042 -2.758601 -181.754609
14.980325 -2.658371 -181.755975
14.946608 -2.558142 -181.757341
14.912891 -2.457912 -181.758707
14.879174 -2.357682 -181.760073
14.845457 -2.257452 -181.761439
14.811740 -2.157222 -181.762805
14.778023 -2.056992 -181.764171
14.744306 -1.956762 -181.765537
14.616240 -1.895018 -181.769326
14.582523 -1.794789 -181.770692
14.548806 -1.694559 -181.772058
14.420740 -1.632815 -181.775847
14.387023 -1.532585 -181.777213
14.353306 -1.432355 -181.778579
14.319589 -1.332125 -181.779945
14.285872 -1.231895 -181.781311
14.252155 -1.131665 -181.782677
14.218438 -1.031436 -181.784043
14.184721 -0.931206 -181.785409
14.151004 -0.830976 -181.786775
14.117287 -0.730746 -181.788141
14.083570 -0.630516 -181.789507
14.049853 -0.530286 -181.790873
14.016136 -0.430056 -181.792239
13.982419 -0.329826 -181.793605
14.043051 -0.191110 -181.792548
14.009334 -0.090880 -181.793914
13.975617 0.009350 -181.795280
13.941900 0.109580 -181.796646
14.002532 0.248296 -181.795589
13.968815 0.348526 -181.796955
13.935098 0.448756 -181.798321
13.901381 0.548986 -181.799687
13.867664 0.649216 -181.801053
13.833947 0.749446 -181.802419
13.800230 0.849676 -181.803785
13.766513 0.949906 -181.805151
13.732796 1.050136 -181.806517
13.699079 1.150366 -181.807883
13.665362 1.250596 -181.809249
13.631645 1.350825 -181.810615
13.597928 1.451055 -181.811981
13.564211 1.551285 -181.813347
13.530494 1.651515 -181.814713
13.496777 1.751745 -181.816079
13.463060 1.851975 -181.817445
13.429343 1.952205 -181.818812
13.395626 2.052435 -181.820178
13.361909 2.152665 -181.821544
13.328192 2.252895 -181.822910
13.294475 2.353125 -181.824276
13.260758 2.453355 -181.825642
13.227041 2.553585 -181.827008
13.287673 2.692301 -181.825950
13.348305 2.831017 -181.824893
13.314588 2.931247 -181.826259
13.280871 3.031477 -181.827625
13.341503 3.170193 -181.826568
13.307786 3.270423 -181.827934
13.274069 3.370653 -181.829300
13.240352 3.470883 -181.830666
13.206635 3.571113 -181.832032
13.172918 3.671343 -181.833398
13.233550 3.810059 -181.832341
13.199833 3.910289 -181.833707
13.166116 4.010519 -181.835073
13.132399 4.110749 -181.836439
13.193031 4.249465 -181.835382
13.159314 4.349695 -181.836748
13.125597 4.449925 -181.838114
13.091880 4.550155 -181.839480
13.152512 4.688871 -181.838423
13.118795 4.789101 -181.839789
13.085078 4.889331 -181.841155
13.051361 4.989561 -181.842521
13.017644 5.089791 -181.843887
13.078277 5.228507 -181.842830
13.044560 5.328737 -181.844196
13.010843 5.428967 -181.845562
12.977126 5.529197 -181.846928
12.943409 5.629427 -181.848294
13.004041 5.768143 -181.847237
12.970324 5.868373 -181.848603
12.936607 5.968603 -181.849969
12.902890 6.068833 -181.851335
12.963522 6.207549 -181.850278
12.929805 6.307779 -181.851644
12.896088 6.408009 -181.853010
12.956720 6.546725 -181.851953
12.828654 6.608469 -181.855742
12.794937 6.708699 -181.857108
12.761220 6.808929 -181.858474
12.727503 6.909159 -181.859840
12.693786 7.009389 -181.861206
12.660069 7.109619 -181.862572
12.720701 7.248335 -181.861515
12.781333 7.387051 -181.860458
12.841965 7.525768 -181.859401
12.902597 7.664484 -181.858344
12.963229 7.803200 -181.857287
12.929512 7.903430 -181.858653
12.895795 8.003660 -181.860019
12.862078 8.103890 -181.861385
12.828361 8.204120 -181.862751
12.794644 8.304350 -181.864117
12.666578 8.366093 -181.867906
12.632861 8.466323 -181.869272
12.599144 8.566553 -181.870638
12.565427 8.666783 -181.872004
12.437361 8.728527 -181.875793
12.403644 8.828757 -181.877159
12.369927 8.928986 -181.878525
12.241861 8.990730 -181.882314
12.113795 9.052474 -181.886103
11.891380 9.075731 -181.892316
11.763314 9.137474 -181.896105
11.635247 9.199218 -181.899894
11.507181 9.260961 -181.903683
11.284766 9.284219 -181.909895
11.062351 9.307476 -181.916108
10.934285 9.369219 -181.919897
10.900568 9.469449 -181.921263
10.772502 9.531193 -181.925052
10.738785 9.631423 -181.926418
10.705068 9.731653 -181.927784
10.577002 9.793396 -181.931573
10.448935 9.855140 -181.935362
10.132171 9.839910 -181.943998
9.532359 9.709222 -181.959902
9.404293 9.770966 -181.963691
9.370576 9.871196 -181.965057
9.242510 9.932939 -181.968847
9.114444 9.994683 -181.972636
8.892029 10.017940 -181.978848
8.763963 10.079683 -181.982637
8.635897 10.141427 -181.986426
8.507831 10.203171 -181.990215
8.379764 10.264914 -181.994005
8.251698 10.326658 -181.997794
7.557538 10.157483 -182.016122
7.335122 10.180740 -182.022334
7.207056 10.242484 -182.026123
6.701594 10.150282 -182.039605
6.573528 10.212025 -182.043394
6.351112 10.235282 -182.049606
16.969234 -3.943138 -181.777412
16.952385 -3.792690 -181.776355
16.873070 -3.722747 -181.777721
16.856221 -3.572299 -181.776664
16.776906 -3.502356 -181.778030
16.822522 -3.271403 -181.774549
16.805673 -3.120955 -181.773492
16.788824 -2.970507 -181.772435
16.709509 -2.900564 -181.773801
16.630194 -2.830621 -181.775167
16.550879 -2.760678 -181.776533
16.471565 -2.690735 -181.777899
16.392250 -2.620792 -181.779265
16.250469 -2.631353 -181.783054
16.171155 -2.561410 -181.784420
16.029374 -2.571972 -181.788210
15.950060 -2.502029 -181.789576
15.808279 -2.512590 -181.793365
15.728964 -2.442647 -181.794731
15.587184 -2.453209 -181.798520
15.507869 -2.383265 -181.799886
15.428554 -2.313322 -181.801252
15.349240 -2.243379 -181.802618
15.269925 -2.173436 -181.803984
15.190610 -2.103493 -181.805350
15.111295 -2.033550 -181.806716
15.031981 -1.963607 -181.808082
14.952666 -1.893663 -181.809448
14.873351 -1.823720 -181.810814
14.794036 -1.753777 -181.812180
14.777187 -1.603329 -181.811123
14.697872 -1.533386 -181.812489
14.618557 -1.463443 -181.813855
14.726639 -1.151985 -181.807952
14.709790 -1.001537 -181.806894
14.630475 -0.931594 -181.808260
14.551160 -0.861651 -181.809627
14.471846 -0.791708 -181.810993
14.392531 -0.721765 -181.812359
14.375681 -0.571317 -181.811301
14.296367 -0.501374 -181.812667
14.217052 -0.431430 -181.814033
14.200203 -0.280982 -181.812976
14.120888 -0.211039 -181.814342
14.041573 -0.141096 -181.815708
14.024724 0.009352 -181.814651
13.945409 0.079295 -181.816017
13.866094 0.149238 -181.817383
13.849245 0.299686 -181.816326
13.832396 0.450134 -181.815269
13.753081 0.520077 -181.816635
13.798697 0.751030 -181.813155
13.844313 0.981983 -181.809675
13.764999 1.051926 -181.811041
13.748149 1.202374 -181.809984
13.668835 1.272317 -181.811350
13.589520 1.342260 -181.812716
13.510205 1.412203 -181.814082
13.430890 1.482146 -181.815448
13.351575 1.552090 -181.816814
13.459657 1.863547 -181.810910
13.505274 2.094500 -181.807430
13.488424 2.244948 -181.806373
13.409110 2.314891 -181.807739
13.392260 2.465339 -181.806682
13.312945 2.535282 -181.808048
13.296096 2.685730 -181.806991
13.216781 2.755673 -181.808357
13.199932 2.906121 -181.807300
13.183083 3.056569 -181.806243
13.166234 3.207017 -181.805185
13.149384 3.357465 -181.804128
13.132535 3.507913 -181.803071
13.115686 3.658361 -181.802014
13.036371 3.728304 -181.803380
13.081987 3.959257 -181.799900
13.065138 4.109705 -181.798843
13.048289 4.260153 -181.797786
13.031440 4.410600 -181.796729
13.077056 4.641553 -181.793248
13.122672 4.872506 -181.789768
13.043357 4.942449 -181.791134
13.026508 5.092897 -181.790077
13.009659 5.243345 -181.789020
12.992810 5.393793 -181.787963
12.975960 5.544241 -181.786906
12.896646 5.614184 -181.788272
12.879796 5.764632 -181.787215
12.862947 5.915080 -181.786158
12.846098 6.065528 -181.785100
12.891714 6.296481 -181.781620
12.874865 6.446929 -181.780563
12.920481 6.677881 -181.777083
12.903632 6.828329 -181.776026
12.886783 6.978777 -181.774969
12.869933 7.129225 -181.773911
12.790619 7.199168 -181.775278
12.773769 7.349616 -181.774220
12.694455 7.419559 -181.775586
12.677605 7.570007 -181.774529
12.660756 7.720455 -181.773472
12.643907 7.870903 -181.772415
12.627058 8.021351 -181.771358
12.610208 8.171799 -181.770301
12.530893 8.241742 -181.771667
12.514044 8.392190 -181.770610
12.497195 8.542638 -181.769553
12.480346 8.693086 -181.768496
12.463496 8.843534 -181.767438
12.384182 8.913477 -181.768804
12.304867 8.983420 -181.770170
12.225552 9.053364 -181.771537
12.146237 9.123307 -181.772903
12.066923 9.193250 -181.774269
11.987608 9.263193 -181.775635
11.908293 9.333136 -181.777001
11.828978 9.403079 -181.778367
11.749663 9.473022 -181.779733
11.670349 9.542966 -181.781099
11.591034 9.612909 -181.782465
11.511719 9.682852 -181.783831
11.369939 9.672290 -181.787620
11.290624 9.742234 -181.788986
11.211309 9.812177 -181.790352
11.069529 9.801615 -181.794141
10.990214 9.871558 -181.795507
10.848434 9.860997 -181.799296
10.769119 9.930940 -181.800662
10.689804 10.000883 -181.802028
10.548024 9.990321 -181.805817
10.468709 10.060264 -181.807183
10.389394 10.130208 -181.808549
10.310079 10.200151 -181.809915
10.168299 10.189589 -181.813704
10.088984 10.259532 -181.815071
9.947204 10.248971 -181.818860
9.805424 10.238409 -181.822649
9.726109 10.308352 -181.824015
9.584328 10.297791 -181.827804
9.505014 10.367734 -181.829170
9.425699 10.437677 -181.830536
9.283919 10.427115 -181.834325
9.079673 10.336049 -181.840537
8.937892 10.325487 -181.844327
8.796112 10.314926 -181.848116
8.716797 10.384869 -181.849482
8.637482 10.454812 -181.850848
8.558168 10.524755 -181.852214
8.478853 10.594698 -181.853580
8.399538 10.664641 -181.854946
8.320223 10.734585 -181.856312
8.178443 10.724023 -181.860101
8.036663 10.713461 -181.863890
7.894882 10.702900 -181.867679
7.753102 10.692338 -181.871468
7.611322 10.681776 -181.875257
7.532007 10.751720 -181.876623
7.452692 10.821663 -181.877989
7.310912 10.811101 -181.881779
7.169131 10.800539 -181.885568
7.027351 10.789978 -181.889357
6.885571 10.779416 -181.893146
6.806256 10.849359 -181.894512
6.726941 10.919303 -181.895878
6.585161 10.908741 -181.899667
6.443380 10.898179 -181.903456
6.301600 10.887618 -181.907245
6.159820 10.877056 -181.911035
6.018039 10.866494 -181.914824
5.813794 10.775428 -181.921036
5.609548 10.684362 -181.927248
5.467767 10.673800 -181.931037
5.325987 10.663238 -181.934827
5.246672 10.733182 -181.936193
5.104892 10.722620 -181.939982
4.900646 10.631553 -181.946194
4.696400 10.540487 -181.952406
4.554620 10.529925 -181.956195
4.412840 10.519364 -181.959985
4.333525 10.589307 -181.961351
12.404127 8.938546 -181.768612
12.314311 9.060413 -181.767555
12.210651 9.081328 -181.768921
12.134679 9.304147 -181.765441
12.044863 9.426014 -181.764383
11.955047 9.547881 -181.763326
11.865232 9.669748 -181.762269
11.761571 9.690663 -181.763635
11.671756 9.812530 -181.762578
11.568095 9.833445 -181.763944
11.464435 9.854361 -181.765310
11.360775 9.875276 -181.766676
11.257115 9.896191 -181.768042
11.153455 9.917106 -181.769408
11.049795 9.938021 -181.770774
10.959979 10.059888 -181.769717
10.870163 10.181755 -181.768660
10.766503 10.202670 -181.770026
10.676687 10.324537 -181.768969
10.573027 10.345452 -181.770335
10.469367 10.366368 -181.771701
10.365707 10.387283 -181.773067
10.262046 10.408198 -181.774433
10.158386 10.429113 -181.775799
10.054726 10.450028 -181.777165
9.951066 10.470943 -181.778531
9.847406 10.491858 -181.779897
9.729901 10.411822 -181.783686
9.626241 10.432737 -181.785052
9.508737 10.352700 -181.788841
9.405076 10.373615 -181.790207
9.315261 10.495482 -181.789150
9.211600 10.516397 -181.790516
9.121785 10.638264 -181.789459
9.018124 10.659179 -181.790825
8.914464 10.680095 -181.792191
8.810804 10.701010 -181.793557
8.707144 10.721925 -181.794923
8.617328 10.843792 -181.793866
8.513668 10.864707 -181.795232
8.410008 10.885622 -181.796598
8.320192 11.007489 -181.795541
8.230376 11.129356 -181.794484
8.126716 11.150271 -181.795850
8.023056 11.171186 -181.797216
7.919396 11.192102 -181.798582
7.815736 11.213017 -181.799948
7.712075 11.233932 -181.801314
7.608415 11.254847 -181.802680
7.504755 11.275762 -181.804046
7.401095 11.296677 -181.805412
7.297435 11.317592 -181.806778
7.193775 11.338507 -181.808144
7.090114 11.359423 -181.809510
6.986454 11.380338 -181.810876
6.882794 11.401253 -181.812242
6.765290 11.321216 -181.816031
6.661629 11.342131 -181.817397
6.557969 11.363046 -181.818763
6.454309 11.383962 -181.820129
6.336805 11.303925 -181.823919
6.233145 11.324840 -181.825285
6.129484 11.345755 -181.826651
6.025824 11.366670 -181.828017
5.922164 11.387585 -181.829383
5.818504 11.408500 -181.830749
5.714844 11.429416 -181.832115
5.611184 11.450331 -181.833481
5.507523 11.471246 -181.834847
5.403863 11.492161 -181.836213
5.286359 11.412124 -181.840002
5.168854 11.332087 -181.843791
5.051350 11.252051 -181.847580
4.947690 11.272966 -181.848946
4.830185 11.192929 -181.852735
4.726525 11.213844 -181.854101
4.622865 11.234759 -181.855467
4.505360 11.154722 -181.859256
4.401700 11.175638 -181.860622
4.284196 11.095601 -181.864412
4.166691 11.015564 -181.868201
4.063031 11.036479 -181.869567
3.945527 10.956442 -181.873356
3.841866 10.977357 -181.874722
3.738206 10.998273 -181.876088
3.620702 10.918236 -181.879877
3.517042 10.939151 -181.881243
3.399537 10.859114 -181.885032
3.282033 10.779077 -181.888821
3.178372 10.799992 -181.890187
3.074712 10.820908 -181.891553
2.971052 10.841823 -181.892919
2.853548 10.761786 -181.896709
2.749887 10.782701 -181.898075
2.632383 10.702664 -181.901864
2.514879 10.622628 -181.905653
2.411218 10.643543 -181.907019
2.307558 10.664458 -181.908385
2.190054 10.584421 -181.912174
2.086394 10.605336 -181.913540
1.968889 10.525299 -181.917329
1.851385 10.445263 -181.921118
1.733880 10.365226 -181.924907
1.588687 10.083285 -181.933543
1.471182 10.003248 -181.937332
1.353678 9.923212 -181.941121
1.250018 9.944127 -181.942487
1.132513 9.864090 -181.946276
1.015009 9.784053 -181.950065
0.897504 9.704016 -181.953855
0.780000 9.623980 -181.957644
0.648651 9.442991 -181.963856
0.503458 9.161050 -181.972491
0.372109 8.980062 -181.978704
11.042266 10.075341 -181.853943
10.903550 10.135973 -181.852886
10.764834 10.196605 -181.851829
10.664604 10.162888 -181.853195
10.525887 10.223520 -181.852137
10.387171 10.284152 -181.851080
10.248455 10.344784 -181.850023
10.148225 10.311067 -181.851389
10.009509 10.371699 -181.850332
9.909279 10.337982 -181.851698
9.770562 10.398614 -181.850641
9.593360 10.553596 -181.847161
9.493130 10.519879 -181.848527
9.354413 10.580511 -181.847470
9.254184 10.546794 -181.848836
8.923035 11.079171 -181.835663
8.822805 11.045454 -181.837029
8.684089 11.106087 -181.835972
8.583859 11.072370 -181.837338
8.483629 11.038653 -181.838704
8.383399 11.004936 -181.840070
8.283169 10.971219 -181.841436
8.182940 10.937502 -181.842802
8.044223 10.998134 -181.841745
7.905507 11.058766 -181.840688
7.766791 11.119398 -181.839631
7.666561 11.085681 -181.840997
7.527844 11.146313 -181.839940
7.427614 11.112596 -181.841306
7.288898 11.173228 -181.840249
7.188668 11.139511 -181.841615
7.049952 11.200143 -181.840557
6.949722 11.166426 -181.841923
6.811006 11.227058 -181.840866
6.710776 11.193341 -181.842232
6.572060 11.253973 -181.841175
6.471830 11.220256 -181.842541
6.333113 11.280889 -181.841484
6.232883 11.247172 -181.842850
6.094167 11.307804 -181.841793
5.993937 11.274087 -181.843159
5.855221 11.334719 -181.842102
5.754991 11.301002 -181.843468
5.654761 11.267285 -181.844834
5.554531 11.233568 -181.846200
5.492788 11.105502 -181.849989
5.354071 11.166134 -181.848932
5.253841 11.132417 -181.850298
5.115125 11.193049 -181.849241
4.937922 11.348030 -181.845761
4.837692 11.314313 -181.847127
4.698976 11.374945 -181.846070
4.598746 11.341228 -181.847436
4.498516 11.307511 -181.848802
4.359800 11.368143 -181.847745
4.259570 11.334426 -181.849111
4.082367 11.489408 -181.845630
3.982137 11.455691 -181.846996
3.843421 11.516323 -181.845939
3.743191 11.482606 -181.847305
3.681448 11.354540 -181.851094
3.581218 11.320823 -181.852460
3.480988 11.287106 -181.853826
3.419244 11.159039 -181.857616
3.319014 11.125322 -181.858982
3.257271 10.997256 -181.862771
3.157041 10.963539 -181.864137
3.056811 10.929822 -181.865503
2.956581 10.896105 -181.866869
2.856351 10.862388 -181.868235
2.756121 10.828671 -181.869601
2.655891 10.794954 -181.870967
2.555661 10.761237 -181.872333
2.455431 10.727520 -181.873699
2.316715 10.788152 -181.872642
2.216485 10.754435 -181.874008
2.116255 10.720718 -181.875374
2.016025 10.687001 -181.876740
1.915795 10.653284 -181.878106
1.815566 10.619567 -181.879472
1.715336 10.585850 -181.880838
1.615106 10.552133 -181.882204
1.553362 10.424067 -181.885993
1.453132 10.390350 -181.887359
1.352902 10.356633 -181.888725
1.252672 10.322916 -181.890091
1.152442 10.289199 -181.891457
1.090699 10.161133 -181.895246
0.990469 10.127416 -181.896612
0.890239 10.093699 -181.897978
0.828495 9.965633 -181.901767
0.728266 9.931916 -181.903133
0.628036 9.898199 -181.904499
0.527806 9.864482 -181.905865
0.427576 9.830765 -181.907231
0.365832 9.702699 -181.911021
0.265602 9.668982 -181.912387
-0.682981 8.920699 -181.937105
-0.783211 8.886982 -181.938471
-0.844955 8.758915 -181.942260
-0.945185 8.725198 -181.943626
-1.045415 8.691481 -181.944992
-1.107158 8.563415 -181.948782
-1.207388 8.529698 -181.950148
-1.269132 8.401632 -181.953937
-1.369362 8.367915 -181.955303
-1.431105 8.239849 -181.959092
-1.531335 8.206132 -181.960458
-1.593079 8.078066 -181.964247
-1.654822 7.950000 -181.968036
-1.716566 7.821934 -181.971825
-1.778309 7.693868 -181.975615
-1.840053 7.565802 -181.979404
-1.901796 7.437735 -181.983193
-2.002026 7.404018 -181.984559
-2.063770 7.275952 -181.988348
-2.164000 7.242235 -181.989714
-2.225743 7.114169 -181.993503
-2.287487 6.986103 -181.997292
-2.349230 6.858037 -182.001081
-2.410974 6.729971 -182.004871
-2.511204 6.696254 -182.006237
-2.611434 6.662537 -182.007603
-2.711664 6.628820 -182.008969
-2.773407 6.500754 -182.012758
-2.873637 6.467037 -182.014124
-2.973867 6.433320 -182.015490
-3.035611 6.305254 -182.019279
-3.135841 6.271537 -182.020645
-3.197584 6.143471 -182.024434
-3.259328 6.015404 -182.028223
-3.359558 5.981687 -182.029589
-3.421301 5.853621 -182.033378
-3.521531 5.819904 -182.034744
-3.583275 5.691838 -182.038533
-3.606532 5.469423 -182.044746
-3.629789 5.247008 -182.050958
-3.730019 5.213291 -182.052324
-3.830249 5.179574 -182.053690
-3.930479 5.145857 -182.055056
-4.030709 5.112140 -182.056422
-4.130939 5.078423 -182.057788
-4.192682 4.950357 -182.061577
-4.292912 4.916640 -182.062943
-4.316169 4.694224 -182.069156
-4.300940 4.377460 -182.077791
-4.362684 4.249394 -182.081580
5.026780 11.586501 -181.928051
4.876332 11.569652 -181.926994
4.806389 11.490337 -181.928360
4.333923 11.723350 -181.917610
4.102970 11.768967 -181.914130
3.549999 12.064445 -181.900957
3.480056 11.985130 -181.902323
3.410112 11.905816 -181.903689
3.340169 11.826501 -181.905055
3.270226 11.747186 -181.906421
3.200283 11.667872 -181.907787
3.130340 11.588557 -181.909153
2.979892 11.571708 -181.908096
2.909949 11.492393 -181.909462
2.759501 11.475544 -181.908405
2.528549 11.521160 -181.904925
2.458605 11.441846 -181.906291
2.308158 11.424997 -181.905234
2.157710 11.408147 -181.904176
2.087767 11.328833 -181.905542
2.017823 11.249518 -181.906909
1.947880 11.170203 -181.908275
1.797432 11.153354 -181.907217
1.646985 11.136505 -181.906160
1.496537 11.119656 -181.905103
1.426594 11.040341 -181.906469
1.437155 10.898561 -181.910258
1.367212 10.819246 -181.911624
1.297269 10.739932 -181.912990
1.227326 10.660617 -181.914356
1.076878 10.643768 -181.913299
0.845925 10.689384 -181.909819
0.775982 10.610069 -181.911185
0.625534 10.593220 -181.910128
0.555591 10.513906 -181.911494
0.485648 10.434591 -181.912860
0.335200 10.417742 -181.911803
0.265257 10.338427 -181.913169
0.114809 10.321578 -181.912112
0.044866 10.242263 -181.913478
-0.105582 10.225414 -181.912421
-0.175525 10.146099 -181.913787
-0.325973 10.129250 -181.912730
-0.395916 10.049936 -181.914096
-0.465859 9.970621 -181.915462
-0.535802 9.891306 -181.916828
-0.605746 9.811992 -181.918194
-0.675689 9.732677 -181.919560
-0.745632 9.653362 -181.920926
-0.815575 9.574048 -181.922292
-0.885518 9.494733 -181.923658
-0.874957 9.352953 -181.927447
-0.944900 9.273638 -181.928813
-1.014843 9.194323 -181.930179
-1.084786 9.115009 -181.931545
-1.154729 9.035694 -181.932911
-1.305177 9.018845 -181.931854
-1.455625 9.001996 -181.930797
-1.525568 8.922681 -181.932163
-1.595511 8.843366 -181.933529
-1.745959 8.826517 -181.932472
-1.815902 8.747202 -181.933838
-1.885845 8.667888 -181.935204
-1.955789 8.588573 -181.936570
-2.025732 8.509258 -181.937936
-2.095675 8.429944 -181.939302
-2.165618 8.350629 -181.940668
-2.235561 8.271314 -181.942034
-2.305504 8.192000 -181.943400
-2.375448 8.112685 -181.944766
-2.364886 7.970905 -181.948555
-2.434829 7.891590 -181.949921
-2.504772 7.812275 -181.951287
-2.574715 7.732961 -181.952653
-2.564154 7.591180 -181.956442
-2.634097 7.511866 -181.957808
-2.704040 7.432551 -181.959174
-2.773983 7.353236 -181.960540
-2.843927 7.273922 -181.961906
-2.913870 7.194607 -181.963272
-2.983813 7.115292 -181.964638
-3.134261 7.098443 -181.963581
-3.204204 7.019128 -181.964947
-3.274147 6.939814 -181.966313
-3.344090 6.860499 -181.967679
-3.414033 6.781184 -181.969045
-3.564481 6.764335 -181.967988
-3.634424 6.685021 -181.969354
-3.623863 6.543240 -181.973143
-3.693806 6.463926 -181.974509
-3.763749 6.384611 -181.975875
-3.833692 6.305296 -181.977241
-3.903635 6.225982 -181.978607
-3.973579 6.146667 -181.979973
-4.043522 6.067352 -181.981339
-4.113465 5.988038 -181.982705
-4.183408 5.908723 -181.984071
-4.253351 5.829408 -181.985437
-4.323294 5.750093 -181.986803
-4.393238 5.670779 -181.988169
-4.463181 5.591464 -181.989535
-4.533124 5.512149 -181.990901
-4.603067 5.432835 -181.992267
-4.673010 5.353520 -181.993633
-4.742953 5.274205 -181.994999
-4.732392 5.132425 -181.998789
-4.802335 5.053110 -182.000155
-4.872278 4.973796 -182.001521
-4.942221 4.894481 -182.002887
-4.931660 4.752701 -182.006676
-5.001603 4.673386 -182.008042
-5.071546 4.594071 -182.009408
-5.221994 4.577222 -182.008351
-5.291937 4.497908 -182.009717
-5.361880 4.418593 -182.011083
-5.351319 4.276813 -182.014872
-5.421262 4.197498 -182.016238
-5.410700 4.055718 -182.020027
-2.621233 8.235403 -181.978154
-2.642148 8.131743 -181.979520
-2.764015 8.041927 -181.978463
-2.784930 7.938267 -181.979829
-2.805845 7.834607 -181.981195
-2.927712 7.744791 -181.980138
-3.049579 7.654975 -181.979081
-3.070495 7.551315 -181.980447
-3.192362 7.461499 -181.979390
-3.314229 7.371683 -181.978332
-3.436096 7.281867 -181.977275
-3.557963 7.192052 -181.976218
-3.578878 7.088392 -181.977584
-3.700745 6.998576 -181.976527
-3.721660 6.894916 -181.977893
-3.742575 6.791255 -181.979259
-3.864442 6.701440 -181.978202
-3.986309 6.611624 -181.977145
-4.007224 6.507964 -181.978511
-4.129091 6.418148 -181.977454
-4.150007 6.314488 -181.978820
-4.271874 6.224672 -181.977763
-4.393741 6.134856 -181.976706
-4.414656 6.031196 -181.978072
-4.536523 5.941380 -181.977015
-4.557438 5.837720 -181.978381
-4.679305 5.747904 -181.977324
-4.801172 5.658088 -181.976266
-4.923039 5.568272 -181.975209
-4.943954 5.464612 -181.976575
-4.964869 5.360952 -181.977941
-5.086736 5.271136 -181.976884
-5.107652 5.167476 -181.978250
-5.229519 5.077660 -181.977193
-5.250434 4.974000 -181.978559
-5.372301 4.884184 -181.977502
-5.494168 4.794368 -181.976445
-5.616035 4.704552 -181.975388
-5.636950 4.600892 -181.976754
-5.657865 4.497232 -181.978120
-5.678780 4.393572 -181.979486
-5.800647 4.303756 -181.978429
-5.922514 4.213940 -181.977372
-5.943429 4.110280 -181.978738
-5.964345 4.006620 -181.980104
-6.086212 3.916804 -181.979047
-6.107127 3.813144 -181.980413
-6.228994 3.723328 -181.979356
-6.249909 3.619668 -181.980722
-6.371776 3.529852 -181.979664
-6.392691 3.426192 -181.981030
-6.413606 3.322532 -181.982396
-6.434521 3.218872 -181.983762
-6.455436 3.115212 -181.985128
-6.476352 3.011551 -181.986494
-6.497267 2.907891 -181.987861
-6.518182 2.804231 -181.989227
-6.640049 2.714415 -181.988169
-6.660964 2.610755 -181.989535
-6.782831 2.520939 -181.988478
-6.803746 2.417279 -181.989844
-6.824661 2.313619 -181.991210
-6.845576 2.209959 -181.992576
-6.866492 2.106299 -181.993942
-6.887407 2.002638 -181.995308
-6.807370 1.885134 -181.999098
-6.828285 1.781474 -182.000464
-6.849200 1.677814 -182.001830
-6.769163 1.560309 -182.005619
-6.689127 1.442805 -182.009408
-6.609090 1.325300 -182.013197
-6.630005 1.221640 -182.014563
-6.751872 1.131824 -182.013506
-6.772787 1.028164 -182.014872
-6.793702 0.924504 -182.016238
-6.814617 0.820844 -182.017604
-6.835533 0.717184 -182.018970
-6.755496 0.599679 -182.022759
-6.776411 0.496019 -182.024125
-6.797326 0.392359 -182.025491
-6.717289 0.274854 -182.029280
-6.738204 0.171194 -182.030646
-6.658168 0.053690 -182.034435
-6.578131 -0.063815 -182.038225
-6.599046 -0.167475 -182.039591
-6.519009 -0.284980 -182.043380
-6.438972 -0.402484 -182.047169
-6.758056 3.732683 -181.977145
-6.818688 3.593967 -181.976088
-6.973669 3.416764 -181.972608
-7.034301 3.278048 -181.971551
-7.000584 3.177818 -181.972917
-6.966867 3.077588 -181.974283
-7.027499 2.938872 -181.973225
-7.088131 2.800155 -181.972168
-7.148764 2.661439 -181.971111
-7.209396 2.522723 -181.970054
-7.270028 2.384006 -181.968997
-7.330660 2.245290 -181.967940
-7.391292 2.106574 -181.966883
-7.357575 2.006344 -181.968249
-7.418207 1.867628 -181.967192
-7.384490 1.767398 -181.968558
-7.350773 1.667168 -181.969924
-7.317056 1.566938 -181.971290
-7.377688 1.428222 -181.970233
-7.343971 1.327992 -181.971599
-7.404603 1.189275 -181.970542
-7.370886 1.089045 -181.971908
-7.337169 0.988816 -181.973274
-7.397801 0.850099 -181.972217
-7.364084 0.749869 -181.973583
-7.424717 0.611153 -181.972525
-7.391000 0.510923 -181.973891
-7.357283 0.410693 -181.975257
-7.417915 0.271977 -181.974200
-7.384198 0.171747 -181.975566
-7.350481 0.071517 -181.976932
-7.316764 -0.028713 -181.978298
-7.283047 -0.128943 -181.979664
-7.249330 -0.229173 -181.981030
-7.215613 -0.329403 -181.982396
-7.181896 -0.429633 -181.983762
-7.148179 -0.529863 -181.985128
-7.020113 -0.591606 -181.988918
-6.986396 -0.691836 -181.990284
-6.952679 -0.792066 -181.991650
-6.918962 -0.892296 -181.993016
-6.885245 -0.992526 -181.994382
-6.851528 -1.092756 -181.995748
-6.817811 -1.192986 -181.997114
-6.784094 -1.293216 -181.998480
-6.750377 -1.393445 -181.999846
-6.716660 -1.493675 -182.001212
-6.682943 -1.593905 -182.002578
-6.554876 -1.655649 -182.006367
-6.521159 -1.755879 -182.007733
-6.487442 -1.856109 -182.009099
-6.453725 -1.956339 -182.010465
-6.420008 -2.056569 -182.011831
-6.386291 -2.156798 -182.013197
-6.258225 -2.218542 -182.016986
-6.224508 -2.318772 -182.018352
-6.190791 -2.419002 -182.019718
-6.157074 -2.519232 -182.021084
-6.123357 -2.619462 -182.022450
-6.089640 -2.719692 -182.023816
-6.055923 -2.819922 -182.025182
-6.022206 -2.920151 -182.026548
-5.894140 -2.981895 -182.030337
-5.860423 -3.082125 -182.031703
-5.826706 -3.182355 -182.033069
-5.792989 -3.282585 -182.034435
-5.664923 -3.344328 -182.038225
-5.631206 -3.444558 -182.039591
-5.597489 -3.544788 -182.040957
-5.563772 -3.645018 -182.042323
-5.530055 -3.745248 -182.043689
-5.496338 -3.845478 -182.045055
-5.462621 -3.945708 -182.046421
-5.428904 -4.045938 -182.047787
-5.300838 -4.107681 -182.051576
-5.267121 -4.207911 -182.052942
-5.233404 -4.308141 -182.054308
-5.199687 -4.408371 -182.055674
-5.165970 -4.508601 -182.057040
-5.132253 -4.608831 -182.058406
-5.098536 -4.709061 -182.059772
-5.064819 -4.809291 -182.061138
-5.031102 -4.909521 -182.062504
-4.997385 -5.009751 -182.063870
-4.963668 -5.109981 -182.065236
-4.929951 -5.210210 -182.066602
-4.801885 -5.271954 -182.070391
-4.768168 -5.372184 -182.071757
-4.734451 -5.472414 -182.073123
-4.700734 -5.572644 -182.074489
-4.667017 -5.672874 -182.075855
-4.633300 -5.773104 -182.077221
-4.599583 -5.873334 -182.078587
-4.565866 -5.973564 -182.079953
-4.437800 -6.035307 -182.083742
-4.404083 -6.135537 -182.085108
-4.370366 -6.235767 -182.086474
-4.336649 -6.335997 -182.087840
-4.208583 -6.397740 -182.091630
-4.174866 -6.497970 -182.092996
-4.141149 -6.598200 -182.094362
-4.013083 -6.659944 -182.098151
-3.979366 -6.760174 -182.099517
-3.851299 -6.821917 -182.103306
-3.817582 -6.922147 -182.104672
-3.783865 -7.022377 -182.106038
-3.750148 -7.122607 -182.107404
-3.622082 -7.184351 -182.111193
-3.588365 -7.284580 -182.112559
-3.460299 -7.346324 -182.116348
-3.426582 -7.446554 -182.117714
-3.392865 -7.546784 -182.119080
-3.359148 -7.647014 -182.120446
-3.325431 -7.747244 -182.121812
-3.291714 -7.847474 -182.123178
-3.163648 -7.909217 -182.126967
-3.129931 -8.009447 -182.128333
-3.096214 -8.109677 -182.129700
-3.062497 -8.209907 -182.131066
-2.934431 -8.271650 -182.134855
-2.900714 -8.371880 -182.136221
-2.866997 -8.472110 -182.137587
-2.833280 -8.572340 -182.138953
-2.799563 -8.672570 -182.140319
-2.671497 -8.734314 -182.144108
-2.637780 -8.834544 -182.145474
-2.604063 -8.934774 -182.146840
-2.570346 -9.035003 -182.148206
-2.536629 -9.135233 -182.149572
-2.502912 -9.235463 -182.150938
-2.374846 -9.297207 -182.154727
-2.341129 -9.397437 -182.156093
-2.307412 -9.497667 -182.157459
-2.179346 -9.559410 -182.161248
-2.145629 -9.659640 -182.162614
-2.111912 -9.759870 -182.163980
-2.078195 -9.860100 -182.165346
-1.950129 -9.921844 -182.169135
-1.822062 -9.983587 -182.172925
-1.788345 -10.083817 -182.174291
-1.754628 -10.184047 -182.175657
-1.626562 -10.245791 -182.179446
-1.592845 -10.346020 -182.180812
-1.559128 -10.446250 -182.182178
-1.525411 -10.546480 -182.183544
-7.089400 -0.023676 -181.994725
-7.072551 -0.174124 -181.993668
-6.993236 -0.244067 -181.995034
-6.976387 -0.394515 -181.993976
-7.022003 -0.625468 -181.990496
-7.005154 -0.775915 -181.989439
-7.113236 -1.087373 -181.983536
-7.096387 -1.237820 -181.982479
-7.079538 -1.388268 -181.981422
-7.062689 -1.538716 -181.980364
-6.983374 -1.608659 -181.981730
-6.966525 -1.759107 -181.980673
-6.887210 -1.829050 -181.982039
-6.870361 -1.979498 -181.980982
-6.791046 -2.049441 -181.982348
-6.774197 -2.199889 -181.981291
-6.694883 -2.269832 -181.982657
-6.678033 -2.420280 -181.981600
-6.598719 -2.490223 -181.982966
-6.519404 -2.560166 -181.984332
-6.440089 -2.630110 -181.985698
-6.423240 -2.780557 -181.984641
-6.343926 -2.850501 -181.986007
-6.264611 -2.920444 -181.987373
-6.247762 -3.070892 -181.986316
-6.168447 -3.140835 -181.987682
-6.151598 -3.291283 -181.986625
-6.072283 -3.361226 -181.987991
-5.992969 -3.431169 -181.989357
-5.913654 -3.501112 -181.990723
-5.834339 -3.571055 -181.992089
-5.817490 -3.721503 -181.991032
-5.738175 -3.791446 -181.992398
-5.658861 -3.861389 -181.993764
-5.579546 -3.931333 -181.995130
-5.500231 -4.001276 -181.996496
-5.483382 -4.151724 -181.995439
-5.404067 -4.221667 -181.996805
-5.262287 -4.211105 -182.000594
-5.182973 -4.281048 -182.001960
-5.103658 -4.350991 -182.003326
-5.024343 -4.420935 -182.004692
-4.945029 -4.490878 -182.006058
-4.928179 -4.641326 -182.005001
-4.911330 -4.791773 -182.003944
-4.894481 -4.942221 -182.002887
-4.815166 -5.012164 -182.004253
-4.735852 -5.082108 -182.005619
-4.656537 -5.152051 -182.006985
-4.492977 -5.974233 -182.003065
-4.476127 -6.124681 -182.002008
-4.396813 -6.194624 -182.003374
-4.379964 -6.345072 -182.002317
-4.300649 -6.415015 -182.003683
-4.283800 -6.565463 -182.002626
-4.204485 -6.635406 -182.003992
-4.187636 -6.785854 -182.002935
-4.108321 -6.855797 -182.004301
-4.029007 -6.925740 -182.005667
-3.949692 -6.995683 -182.007033
-3.870377 -7.065627 -182.008399
-3.853528 -7.216074 -182.007342
-3.774213 -7.286018 -182.008708
-3.694899 -7.355961 -182.010074
-3.678050 -7.506409 -182.009017
-3.598735 -7.576352 -182.010383
-3.519420 -7.646295 -182.011749
-3.502571 -7.796743 -182.010692
-3.423256 -7.866686 -182.012058
-3.281476 -7.856124 -182.015847
-3.202161 -7.926068 -182.017213
-3.122847 -7.996011 -182.018579
-3.105998 -8.146459 -182.017522
-3.026683 -8.216402 -182.018888
-3.009834 -8.366850 -182.017831
-2.930519 -8.436793 -182.019197
-2.913670 -8.587241 -182.018140
-2.834355 -8.657184 -182.019506
-2.817506 -8.807632 -182.018448
-2.738191 -8.877575 -182.019814
-2.721342 -9.028023 -182.018757
-2.704493 -9.178470 -182.017700
-2.625178 -9.248414 -182.019066
-2.545864 -9.318357 -182.020432
-2.529015 -9.468805 -182.019375
-2.449700 -9.538748 -182.020741
-2.370385 -9.608691 -182.022107
-2.353536 -9.759139 -182.021050
-2.274221 -9.829082 -182.022416
-2.194907 -9.899025 -182.023782
-2.115592 -9.968968 -182.025148
-2.036277 -10.038911 -182.026514
-1.956963 -10.108854 -182.027880
-1.877648 -10.178798 -182.029246
-1.860799 -10.329245 -182.028189
-1.781484 -10.399189 -182.029555
-1.702169 -10.469132 -182.030921
-1.622855 -10.539075 -182.032287
-1.606006 -10.689523 -182.031230
-1.526691 -10.759466 -182.032596
-1.509842 -10.909914 -182.031539
-1.430527 -10.979857 -182.032905
-1.351212 -11.049800 -182.034271
-1.271898 -11.119743 -182.035637
-1.192583 -11.189686 -182.037003
-1.113268 -11.259630 -182.038369
-1.033954 -11.329573 -182.039735
-0.954639 -11.399516 -182.041101
-0.875324 -11.469459 -182.042467
-0.796010 -11.539402 -182.043833
-0.779161 -11.689850 -182.042776
-0.699846 -11.759793 -182.044142
-0.620531 -11.829736 -182.045508
-0.541216 -11.899679 -182.046874
-0.461902 -11.969623 -182.048240
-0.382587 -12.039566 -182.049606
-0.303272 -12.109509 -182.050972
-0.286423 -12.259957 -182.049915
-0.207109 -12.329900 -182.051281
-0.127794 -12.399843 -182.052647
-0.048479 -12.469786 -182.054013
0.030835 -12.539729 -182.055379
0.172616 -12.529168 -182.059168
0.251930 -12.599111 -182.060534
0.331245 -12.669054 -182.061900
0.473025 -12.658493 -182.065689
0.552340 -12.728436 -182.067055
0.631655 -12.798379 -182.068421
0.773435 -12.787817 -182.072210
0.852750 -12.857761 -182.073577
0.869599 -13.008208 -182.072519
0.948913 -13.078152 -182.073885
1.028228 -13.148095 -182.075251
1.107543 -13.218038 -182.076617
1.186857 -13.287981 -182.077983
1.266172 -13.357924 -182.079349
1.407952 -13.347363 -182.083139
1.674664 -13.175792 -182.091774
1.753978 -13.245735 -182.093140
1.833293 -13.315678 -182.094506
1.912608 -13.385621 -182.095872
1.991922 -13.455564 -182.097238
2.071237 -13.525508 -182.098604
2.150552 -13.595451 -182.099970
2.229867 -13.665394 -182.101336
2.309181 -13.735337 -182.102702
2.388496 -13.805280 -182.104068
2.530276 -13.794719 -182.107857
2.609591 -13.864662 -182.109223
2.751371 -13.854100 -182.113012
2.893151 -13.843539 -182.116802
3.034931 -13.832977 -182.120591
3.114246 -13.902920 -182.121957
3.193561 -13.972864 -182.123323
3.272876 -14.042807 -182.124689
3.414656 -14.032245 -182.128478
3.493970 -14.102188 -182.129844
3.635751 -14.091627 -182.133633
3.715065 -14.161570 -182.134999
3.794380 -14.231513 -182.136365
3.873695 -14.301456 -182.137731
3.953009 -14.371400 -182.139097
4.032324 -14.441343 -182.140463
4.174104 -14.430781 -182.144252
4.253419 -14.500724 -182.145618
4.395199 -14.490163 -182.149407
4.536979 -14.479601 -182.153197
5.116018 -13.905507 -182.173948
5.257799 -13.894945 -182.177737
5.462044 -13.803879 -182.183949
-2.694166 -8.822784 -181.941382
-2.604350 -8.944652 -181.940325
-2.500690 -8.965567 -181.941691
-2.410874 -9.087434 -181.940634
-2.321058 -9.209301 -181.939577
-2.245086 -9.432120 -181.936096
-2.155271 -9.553987 -181.935039
-2.065455 -9.675854 -181.933982
-1.975639 -9.797721 -181.932925
-1.871979 -9.818636 -181.934291
-1.782163 -9.940503 -181.933234
-1.678503 -9.961418 -181.934600
-1.602531 -10.184237 -181.931120
-1.526560 -10.407056 -181.927639
-1.436744 -10.528923 -181.926582
-1.346928 -10.650790 -181.925525
-1.257112 -10.772657 -181.924468
-1.153452 -10.793572 -181.925834
-1.063636 -10.915439 -181.924777
-0.973820 -11.037306 -181.923720
-0.870160 -11.058222 -181.925086
-0.766500 -11.079137 -181.926452
-0.676684 -11.201004 -181.925395
-0.573024 -11.221919 -181.926761
-0.483208 -11.343786 -181.925704
-0.393392 -11.465653 -181.924647
-0.289732 -11.486568 -181.926013
-0.199916 -11.608435 -181.924956
-0.096256 -11.629350 -181.926322
0.007404 -11.650265 -181.927688
0.069531 -11.974036 -181.921784
0.159347 -12.095903 -181.920727
0.249163 -12.217770 -181.919670
0.352823 -12.238685 -181.921036
0.456483 -12.259601 -181.922402
0.546299 -12.381468 -181.921345
0.649959 -12.402383 -181.922711
0.725930 -12.625202 -181.919231
0.829591 -12.646117 -181.920597
0.919406 -12.767984 -181.919540
1.023067 -12.788899 -181.920906
1.112882 -12.910766 -181.919849
1.216543 -12.931681 -181.921215
1.320203 -12.952596 -181.922581
1.423863 -12.973511 -181.923947
1.513679 -13.095379 -181.922889
1.603495 -13.217246 -181.921832
1.693310 -13.339113 -181.920775
1.796971 -13.360028 -181.922141
1.900631 -13.380943 -181.923507
1.990447 -13.502810 -181.922450
2.094107 -13.523725 -181.923816
2.197767 -13.544640 -181.925182
2.301427 -13.565555 -181.926548
2.391243 -13.687422 -181.925491
2.494903 -13.708337 -181.926857
2.584719 -13.830205 -181.925800
2.688379 -13.851120 -181.927166
2.792039 -13.872035 -181.928532
2.895699 -13.892950 -181.929898
2.999360 -13.913865 -181.931264
3.089175 -14.035732 -181.930207
3.192836 -14.056647 -181.931573
3.296496 -14.077562 -181.932939
3.386312 -14.199429 -181.931882
3.489972 -14.220345 -181.933248
3.593632 -14.241260 -181.934614
3.697292 -14.262175 -181.935980
3.800952 -14.283090 -181.937346
3.904612 -14.304005 -181.938712
4.008272 -14.324920 -181.940078
4.098088 -14.446787 -181.939021
4.201748 -14.467702 -181.940387
4.305409 -14.488617 -181.941753
4.409069 -14.509533 -181.943119
4.512729 -14.530448 -181.944485
4.616389 -14.551363 -181.945851
4.733894 -14.471326 -181.949640
4.837554 -14.492241 -181.951006
4.941214 -14.513156 -181.952372
5.058718 -14.433120 -181.956161
5.162379 -14.454035 -181.957527
5.266039 -14.474950 -181.958893
5.369699 -14.495865 -181.960259
5.473359 -14.516780 -181.961625
5.577019 -14.537695 -181.962991
5.694524 -14.457658 -181.966781
5.798184 -14.478574 -181.968147
5.901844 -14.499489 -181.969513
6.019348 -14.419452 -181.973302
6.123009 -14.440367 -181.974668
6.226669 -14.461282 -181.976034
6.344173 -14.381245 -181.979823
6.447833 -14.402161 -181.981189
6.551494 -14.423076 -181.982555
6.668998 -14.343039 -181.986344
6.772658 -14.363954 -181.987710
6.890163 -14.283917 -181.991499
6.993823 -14.304832 -181.992865
7.111327 -14.224796 -181.996654
7.242676 -14.043807 -182.002867
7.374025 -13.862818 -182.009079
7.477685 -13.883733 -182.010445
7.595190 -13.803697 -182.014234
7.712694 -13.723660 -182.018023
7.871732 -13.340767 -182.029082
7.975392 -13.361682 -182.030448
8.092896 -13.281646 -182.034237
8.196556 -13.302561 -182.035603
8.300217 -13.323476 -182.036969
8.417721 -13.243439 -182.040758
8.576759 -12.860547 -182.051817
8.749640 -12.376702 -182.065298
8.867145 -12.296665 -182.069087
8.984649 -12.216629 -182.072876
9.102154 -12.136592 -182.076666
9.219658 -12.056555 -182.080455
9.337163 -11.976518 -182.084244
9.454667 -11.896481 -182.088033
9.572172 -11.816445 -182.091822
9.689676 -11.736408 -182.095611
9.807181 -11.656371 -182.099400
9.924685 -11.576334 -182.103190
10.042190 -11.496298 -182.106979
10.145850 -11.517213 -182.108345
10.263354 -11.437176 -182.112134
10.380859 -11.357139 -182.115923
10.498363 -11.277102 -182.119712
10.602023 -11.298017 -182.121078
10.719528 -11.217981 -182.124867
10.823188 -11.238896 -182.126233
10.926848 -11.259811 -182.127599
11.030508 -11.280726 -182.128965
11.134169 -11.301641 -182.130331
11.251673 -11.221604 -182.134120
11.355333 -11.242520 -182.135487
11.458993 -11.263435 -182.136853
11.631875 -10.779590 -182.150334
11.735535 -10.800505 -182.151700
11.853040 -10.720469 -182.155489
11.970544 -10.640432 -182.159278
12.088049 -10.560395 -182.163068
12.191709 -10.581310 -182.164434
12.323058 -10.400321 -182.170646
-0.212713 -11.475219 -181.862997
0.079948 -11.913247 -181.852248
0.218665 -11.973880 -181.851191
0.357381 -12.034512 -181.850134
0.496097 -12.095144 -181.849076
0.673300 -12.250125 -181.845596
0.812016 -12.310757 -181.844539
0.950732 -12.371389 -181.843482
1.243394 -12.809418 -181.832732
1.420597 -12.964399 -181.829252
1.520827 -12.930682 -181.830618
1.659543 -12.991314 -181.829561
1.759773 -12.957597 -181.830927
