ply
format ascii 1.0
element vertex 1515
property float x
property float y
property float z
element face 0
property list uchar uint vertex_indices
end_header
15.650530 -8.127077 -180.812483
15.720473 -8.047762 -180.813849
15.790416 -7.968448 -180.815215
15.860359 -7.889133 -180.816581
15.930302 -7.809818 -180.817947
16.000245 -7.730504 -180.819313
15.989684 -7.588723 -180.823102
16.059627 -7.509409 -180.824468
16.129570 -7.430094 -180.825834
16.199513 -7.350779 -180.827200
16.269456 -7.271465 -180.828566
16.258895 -7.129685 -180.832355
16.328838 -7.050370 -180.833721
16.398781 -6.971055 -180.835087
16.468724 -6.891740 -180.836453
16.538668 -6.812426 -180.837819
16.528106 -6.670646 -180.841609
16.598049 -6.591331 -180.842975
16.587488 -6.449551 -180.846764
16.576926 -6.307770 -180.850553
16.405355 -6.041059 -180.859188
16.394794 -5.899279 -180.862977
16.384232 -5.757499 -180.866766
16.454175 -5.678184 -180.868133
16.524119 -5.598869 -180.869499
16.513557 -5.457089 -180.873288
16.583500 -5.377774 -180.874654
16.572939 -5.235994 -180.878443
16.642882 -5.156679 -180.879809
16.632320 -5.014899 -180.883598
16.219235 -4.560791 -180.899503
7.510724 -14.338887 -180.765523
7.733543 -14.262915 -180.762043
8.057314 -14.200788 -180.756139
8.179181 -14.110972 -180.755082
8.200096 -14.007312 -180.756448
8.321963 -13.917496 -180.755391
8.342878 -13.813836 -180.756757
8.363793 -13.710176 -180.758123
8.485660 -13.620360 -180.757066
8.506576 -13.516700 -180.758432
8.931298 -13.468417 -180.750106
9.053165 -13.378601 -180.749048
9.074081 -13.274941 -180.750414
9.195948 -13.185125 -180.749357
9.317815 -13.095309 -180.748300
9.540634 -13.019338 -180.744820
9.561549 -12.915678 -180.746186
9.683416 -12.825862 -180.745129
9.704331 -12.722202 -180.746495
9.725246 -12.618541 -180.747861
9.847113 -12.528726 -180.746804
10.069932 -12.452754 -180.743324
10.292751 -12.376783 -180.739843
10.414618 -12.286967 -180.738786
10.435533 -12.183307 -180.740152
10.557400 -12.093491 -180.739095
10.578315 -11.989831 -180.740461
10.700182 -11.900015 -180.739404
10.822049 -11.810199 -180.738347
10.943916 -11.720383 -180.737290
11.065783 -11.630567 -180.736233
11.187651 -11.540751 -180.735176
11.309518 -11.450936 -180.734119
11.431385 -11.361120 -180.733061
11.654204 -11.285148 -180.729581
11.877023 -11.209177 -180.726101
11.998890 -11.119361 -180.725044
12.322660 -11.057234 -180.719140
12.545479 -10.981262 -180.715660
12.667346 -10.891446 -180.714603
12.789213 -10.801631 -180.713546
12.911081 -10.711815 -180.712489
13.032948 -10.621999 -180.711432
13.154815 -10.532183 -180.710375
13.175730 -10.428523 -180.711741
13.196645 -10.324863 -180.713107
13.318512 -10.235047 -180.712050
13.945139 -10.214453 -180.698877
14.167957 -10.138481 -180.695397
14.188873 -10.034821 -180.696763
14.310740 -9.945005 -180.695706
14.331655 -9.841345 -180.697072
14.352570 -9.737685 -180.698438
14.373485 -9.634025 -180.699804
14.495352 -9.544209 -180.698747
14.617219 -9.454393 -180.697689
14.739086 -9.364577 -180.696632
14.860953 -9.274761 -180.695575
15.083772 -9.198790 -180.692095
15.306591 -9.122818 -180.688615
15.428458 -9.033003 -180.687558
15.449373 -8.929342 -180.688924
15.470288 -8.825682 -180.690290
15.491204 -8.722022 -180.691656
15.613071 -8.632206 -180.690599
15.633986 -8.528546 -180.691965
15.755853 -8.438730 -180.690907
15.776768 -8.335070 -180.692273
15.797683 -8.231410 -180.693639
15.919550 -8.141594 -180.692582
15.940465 -8.037934 -180.693948
16.062332 -7.948118 -180.692891
16.083247 -7.844458 -180.694257
16.104163 -7.740798 -180.695623
16.125078 -7.637138 -180.696989
16.246945 -7.547322 -180.695932
16.267860 -7.443662 -180.697298
16.288775 -7.340002 -180.698664
16.309690 -7.236341 -180.700030
16.431557 -7.146526 -180.698973
16.452472 -7.042865 -180.700339
16.473387 -6.939205 -180.701705
16.494303 -6.835545 -180.703071
16.515218 -6.731885 -180.704437
16.637085 -6.642069 -180.703380
16.658000 -6.538409 -180.704746
16.678915 -6.434749 -180.706112
16.699830 -6.331089 -180.707478
16.720745 -6.227428 -180.708844
16.741660 -6.123768 -180.710210
16.661624 -6.006264 -180.713999
16.682539 -5.902604 -180.715365
16.703454 -5.798943 -180.716731
16.724369 -5.695283 -180.718097
16.745284 -5.591623 -180.719463
16.766199 -5.487963 -180.720829
16.686162 -5.370458 -180.724619
16.707078 -5.266798 -180.725985
16.727993 -5.163138 -180.727351
16.748908 -5.059478 -180.728717
16.769823 -4.955818 -180.730083
16.790738 -4.852158 -180.731449
16.811653 -4.748498 -180.732815
16.832568 -4.644837 -180.734181
16.752532 -4.527333 -180.737970
16.773447 -4.423673 -180.739336
16.794362 -4.320013 -180.740702
16.815277 -4.216352 -180.742068
16.836192 -4.112692 -180.743434
16.857107 -4.009032 -180.744800
16.878022 -3.905372 -180.746166
16.898938 -3.801712 -180.747532
16.818901 -3.684207 -180.751321
16.839816 -3.580547 -180.752687
16.860731 -3.476887 -180.754053
16.780694 -3.359382 -180.757842
16.801609 -3.255722 -180.759208
14.399679 -2.819798 -180.818729
14.319642 -2.702294 -180.822518
14.239605 -2.584789 -180.826308
14.159568 -2.467285 -180.830097
14.180483 -2.363625 -180.831463
14.100447 -2.246120 -180.835252
14.121362 -2.142460 -180.836618
14.041325 -2.024956 -180.840407
14.062240 -1.921295 -180.841773
13.982203 -1.803791 -180.845562
14.003118 -1.700131 -180.846928
13.923082 -1.582626 -180.850717
13.943997 -1.478966 -180.852083
13.863960 -1.361462 -180.855872
13.783923 -1.243957 -180.859662
13.703886 -1.126453 -180.863451
13.724802 -1.022792 -180.864817
13.644765 -0.905288 -180.868606
13.564728 -0.787784 -180.872395
13.484691 -0.670279 -180.876184
13.404654 -0.552775 -180.879973
13.324618 -0.435270 -180.883762
13.345533 -0.331610 -180.885128
13.366448 -0.227950 -180.886494
13.286411 -0.110445 -180.890284
13.307326 -0.006785 -180.891650
13.227289 0.110719 -180.895439
13.248205 0.214380 -180.896805
13.269120 0.318040 -180.898171
13.189083 0.435544 -180.901960
13.209998 0.539204 -180.903326
13.129961 0.656709 -180.907115
13.150876 0.760369 -180.908481
13.070840 0.877873 -180.912270
13.091755 0.981534 -180.913636
13.112670 1.085194 -180.915002
13.133585 1.188854 -180.916368
13.154500 1.292514 -180.917734
13.074463 1.410019 -180.921523
13.095379 1.513679 -180.922889
13.015342 1.631183 -180.926679
13.036257 1.734843 -180.928045
12.956220 1.852348 -180.931834
12.977135 1.956008 -180.933200
12.897098 2.073513 -180.936989
12.918014 2.177173 -180.938355
12.938929 2.280833 -180.939721
12.959844 2.384493 -180.941087
12.980759 2.488153 -180.942453
12.900722 2.605658 -180.946242
12.921637 2.709318 -180.947608
12.942552 2.812978 -180.948974
12.963468 2.916638 -180.950340
12.883431 3.034143 -180.954129
12.904346 3.137803 -180.955495
12.925261 3.241463 -180.956861
12.946176 3.345123 -180.958227
12.967091 3.448783 -180.959593
12.988006 3.552443 -180.960959
12.907970 3.669948 -180.964749
12.928885 3.773608 -180.966115
12.848848 3.891113 -180.969904
12.869763 3.994773 -180.971270
12.789726 4.112277 -180.975059
12.810641 4.215937 -180.976425
12.831557 4.319598 -180.977791
12.852472 4.423258 -180.979157
12.772435 4.540762 -180.982946
12.793350 4.644422 -180.984312
12.814265 4.748083 -180.985678
12.835180 4.851743 -180.987044
12.856095 4.955403 -180.988410
12.877011 5.059063 -180.989776
12.897926 5.162723 -180.991142
12.918841 5.266383 -180.992508
12.939756 5.370043 -180.993874
12.960671 5.473704 -180.995240
12.880634 5.591208 -180.999029
12.901549 5.694868 -181.000395
12.922465 5.798528 -181.001761
12.943380 5.902189 -181.003127
12.863343 6.019693 -181.006917
12.884258 6.123353 -181.008283
12.804221 6.240858 -181.012072
12.825136 6.344518 -181.013438
12.745100 6.462022 -181.017227
12.665063 6.579527 -181.021016
12.685978 6.683187 -181.022382
12.706893 6.786847 -181.023748
12.727808 6.890507 -181.025114
12.748723 6.994167 -181.026480
12.769639 7.097828 -181.027846
12.790554 7.201488 -181.029212
12.811469 7.305148 -181.030578
12.832384 7.408808 -181.031944
12.853299 7.512468 -181.033310
12.268503 7.699194 -181.049215
15.290580 -3.899617 -180.742006
15.256863 -3.799387 -180.743372
15.317495 -3.660671 -180.742315
15.283778 -3.560441 -180.743681
15.155712 -3.498697 -180.747470
15.121995 -3.398467 -180.748836
15.088278 -3.298237 -180.750202
15.054561 -3.198007 -180.751568
15.020844 -3.097778 -180.752934
14.987127 -2.997548 -180.754300
14.859061 -2.935804 -180.758089
14.825344 -2.835574 -180.759455
14.791627 -2.735344 -180.760821
14.663560 -2.673601 -180.764610
14.629843 -2.573371 -180.765976
14.690476 -2.434654 -180.764919
14.656759 -2.334425 -180.766285
14.623042 -2.234195 -180.767651
14.589325 -2.133965 -180.769017
14.461258 -2.072221 -180.772806
14.427541 -1.971991 -180.774172
14.393824 -1.871761 -180.775538
14.360107 -1.771531 -180.776904
14.326390 -1.671301 -180.778270
14.292673 -1.571072 -180.779636
14.258956 -1.470842 -180.781002
14.225239 -1.370612 -180.782368
14.191522 -1.270382 -180.783734
14.157805 -1.170152 -180.785100
14.124088 -1.069922 -180.786466
14.090371 -0.969692 -180.787832
14.056654 -0.869462 -180.789198
14.022937 -0.769232 -180.790564
13.989220 -0.669002 -180.791930
13.861154 -0.607259 -180.795720
13.827437 -0.507029 -180.797086
13.793720 -0.406799 -180.798452
13.760003 -0.306569 -180.799818
13.726286 -0.206339 -180.801184
13.786918 -0.067623 -180.800127
13.753201 0.032607 -180.801493
13.719484 0.132837 -180.802859
13.685767 0.233067 -180.804225
13.652050 0.333297 -180.805591
13.618333 0.433527 -180.806957
13.678966 0.572243 -180.805900
13.645249 0.672473 -180.807266
13.611532 0.772703 -180.808632
13.672164 0.911419 -180.807574
13.638447 1.011649 -180.808940
13.604730 1.111879 -180.810306
13.571013 1.212109 -180.811673
13.537296 1.312339 -180.813039
13.503579 1.412569 -180.814405
13.469862 1.512799 -180.815771
13.436145 1.613029 -180.817137
13.402428 1.713259 -180.818503
13.368711 1.813489 -180.819869
13.334994 1.913719 -180.821235
13.301277 2.013949 -180.822601
13.267560 2.114178 -180.823967
13.139494 2.175922 -180.827756
13.105777 2.276152 -180.829122
13.072060 2.376382 -180.830488
13.132692 2.515098 -180.829431
13.098975 2.615328 -180.830797
13.159607 2.754044 -180.829740
13.125890 2.854274 -180.831106
13.186522 2.992991 -180.830049
13.152805 3.093221 -180.831415
13.119088 3.193450 -180.832781
13.179720 3.332167 -180.831723
13.146003 3.432397 -180.833089
13.112286 3.532627 -180.834455
13.078569 3.632856 -180.835822
13.044852 3.733086 -180.837188
13.011135 3.833316 -180.838554
12.977418 3.933546 -180.839920
13.038050 4.072263 -180.838862
13.004333 4.172492 -180.840228
12.970616 4.272722 -180.841594
12.936899 4.372952 -180.842960
12.997531 4.511669 -180.841903
12.963814 4.611899 -180.843269
13.024446 4.750615 -180.842212
12.990729 4.850845 -180.843578
12.957012 4.951075 -180.844944
12.923295 5.051305 -180.846310
12.889578 5.151535 -180.847676
12.855861 5.251764 -180.849042
12.822144 5.351994 -180.850408
12.788427 5.452224 -180.851774
12.754710 5.552454 -180.853140
12.720993 5.652684 -180.854506
12.687276 5.752914 -180.855872
12.653559 5.853144 -180.857238
12.714191 5.991860 -180.856181
12.680474 6.092090 -180.857547
12.646757 6.192320 -180.858913
12.613040 6.292550 -180.860279
12.579323 6.392780 -180.861645
12.639956 6.531496 -180.860588
12.606239 6.631726 -180.861954
12.666871 6.770443 -180.860897
12.633154 6.870672 -180.862263
12.599437 6.970902 -180.863629
12.565720 7.071132 -180.864995
12.532003 7.171362 -180.866361
12.592635 7.310078 -180.865304
12.558918 7.410308 -180.866670
12.619550 7.549025 -180.865613
12.585833 7.649255 -180.866979
12.552116 7.749485 -180.868345
12.518399 7.849714 -180.869711
12.484682 7.949944 -180.871077
12.450965 8.050174 -180.872443
12.417248 8.150404 -180.873809
12.383531 8.250634 -180.875175
12.349814 8.350864 -180.876541
12.221748 8.412608 -180.880330
12.188031 8.512838 -180.881696
12.059965 8.574581 -180.885486
11.931899 8.636325 -180.889275
11.803832 8.698068 -180.893064
11.581417 8.721325 -180.899276
11.547700 8.821555 -180.900642
11.419634 8.883299 -180.904431
11.291568 8.945042 -180.908220
11.163502 9.006786 -180.912009
11.035436 9.068529 -180.915799
10.907370 9.130273 -180.919588
10.779304 9.192017 -180.923377
10.651237 9.253760 -180.927166
10.523171 9.315504 -180.930955
10.395105 9.377247 -180.934744
10.267039 9.438991 -180.938533
10.138973 9.500734 -180.942323
10.010907 9.562478 -180.946112
9.694143 9.547249 -180.954747
9.566076 9.608992 -180.958536
9.438010 9.670736 -180.962325
14.154586 -0.511935 -180.816457
14.075272 -0.441992 -180.817823
14.058422 -0.291544 -180.816765
13.979108 -0.221601 -180.818132
13.899793 -0.151658 -180.819498
13.820478 -0.081715 -180.820864
13.741163 -0.011771 -180.822230
13.661848 0.058172 -180.823596
13.644999 0.208620 -180.822538
13.565684 0.278563 -180.823904
13.486370 0.348506 -180.825270
13.407055 0.418449 -180.826637
13.390205 0.568897 -180.825579
13.560753 0.960859 -180.817253
13.543904 1.111307 -180.816196
13.527054 1.261755 -180.815139
13.510205 1.412203 -180.814082
13.430890 1.482146 -180.815448
13.414041 1.632594 -180.814391
13.397192 1.783042 -180.813333
13.317877 1.852985 -180.814699
13.301028 2.003433 -180.813642
13.284178 2.153881 -180.812585
13.204864 2.223824 -180.813951
13.188014 2.374272 -180.812894
13.108700 2.444216 -180.814260
13.029385 2.514159 -180.815626
13.012536 2.664607 -180.814569
12.933221 2.734550 -180.815935
13.103768 3.126512 -180.807609
13.086919 3.276960 -180.806551
13.070070 3.427408 -180.805494
13.053220 3.577856 -180.804437
12.973906 3.647799 -180.805803
12.957056 3.798247 -180.804746
12.940207 3.948695 -180.803689
12.923358 4.099143 -180.802632
12.844043 4.169086 -180.803998
12.827194 4.319534 -180.802941
12.810345 4.469982 -180.801884
12.731030 4.539925 -180.803250
12.714180 4.690373 -180.802193
12.697331 4.840821 -180.801136
12.742948 5.071774 -180.797655
12.726098 5.222222 -180.796598
12.709249 5.372670 -180.795541
12.692400 5.523118 -180.794484
12.613085 5.593061 -180.795850
12.596236 5.743509 -180.794793
12.641852 5.974461 -180.791313
12.687468 6.205414 -180.787832
12.608153 6.275357 -180.789198
12.591304 6.425805 -180.788141
12.511989 6.495748 -180.789507
12.557606 6.726701 -180.786027
12.540756 6.877149 -180.784970
12.586373 7.108102 -180.781490
12.569523 7.258550 -180.780433
12.490209 7.328493 -180.781799
12.473359 7.478941 -180.780742
12.456510 7.629389 -180.779684
12.439661 7.779837 -180.778627
12.422812 7.930285 -180.777570
12.343497 8.000228 -180.778936
12.326648 8.150676 -180.777879
12.247333 8.220619 -180.779245
12.168018 8.290562 -180.780611
12.151169 8.441010 -180.779554
12.071854 8.510953 -180.780920
11.992539 8.580896 -180.782286
11.975690 8.731344 -180.781229
11.958841 8.881792 -180.780172
11.879526 8.951735 -180.781538
11.800211 9.021679 -180.782904
11.720896 9.091622 -180.784270
11.579116 9.081060 -180.788059
11.499801 9.151003 -180.789425
11.420486 9.220947 -180.790791
11.278706 9.210385 -180.794580
11.199391 9.280328 -180.795946
11.120077 9.350271 -180.797312
11.040762 9.420214 -180.798678
10.898981 9.409653 -180.802467
10.819667 9.479596 -180.803833
10.740352 9.549539 -180.805199
10.598571 9.538977 -180.808989
10.519257 9.608921 -180.810355
10.439942 9.678864 -180.811721
10.298162 9.668302 -180.815510
10.218847 9.738245 -180.816876
10.139532 9.808188 -180.818242
10.060217 9.878132 -180.819608
9.980902 9.948075 -180.820974
9.839122 9.937513 -180.824763
9.759807 10.007456 -180.826129
9.618027 9.996895 -180.829918
9.476247 9.986333 -180.833707
9.396932 10.056276 -180.835073
9.255151 10.045715 -180.838862
9.113371 10.035153 -180.842652
9.034056 10.105096 -180.844018
8.892276 10.094534 -180.847807
8.812961 10.164478 -180.849173
8.671181 10.153916 -180.852962
8.591866 10.223859 -180.854328
8.450086 10.213298 -180.858117
8.308305 10.202736 -180.861906
8.228991 10.272679 -180.863272
8.149676 10.342622 -180.864638
8.070361 10.412565 -180.866004
7.928581 10.402004 -180.869793
7.849266 10.471947 -180.871159
7.582555 10.300376 -180.879795
7.440774 10.289814 -180.883584
7.361459 10.359757 -180.884950
7.219679 10.349196 -180.888739
7.140364 10.419139 -180.890105
6.998584 10.408577 -180.893894
6.919269 10.478520 -180.895260
6.839954 10.548464 -180.896626
6.760640 10.618407 -180.897992
6.618859 10.607845 -180.901781
6.477079 10.597283 -180.905571
6.397764 10.667227 -180.906937
6.255984 10.656665 -180.910726
6.114204 10.646103 -180.914515
5.972423 10.635542 -180.918304
5.830643 10.624980 -180.922093
5.626397 10.533914 -180.928305
5.484617 10.523352 -180.932095
5.217905 10.351781 -180.940730
5.076125 10.341219 -180.944519
4.934345 10.330658 -180.948308
4.792564 10.320096 -180.952097
4.650784 10.309534 -180.955886
4.509004 10.298973 -180.959676
4.304758 10.207906 -180.965888
4.038046 10.036335 -180.974523
3.896266 10.025773 -180.978312
3.754486 10.015212 -180.982102
3.612705 10.004650 -180.985891
3.470925 9.994089 -180.989680
12.127585 8.475617 -180.783460
12.037769 8.597484 -180.782402
12.003330 9.123158 -180.771653
11.927359 9.345977 -180.768173
11.823699 9.366892 -180.769539
11.733883 9.488759 -180.768482
11.644067 9.610626 -180.767424
11.540407 9.631542 -180.768790
11.436747 9.652457 -180.770156
11.333087 9.673372 -180.771522
11.229426 9.694287 -180.772888
11.125766 9.715202 -180.774255
11.022106 9.736117 -180.775621
10.932290 9.857984 -180.774563
10.828630 9.878899 -180.775929
10.738814 10.000766 -180.774872
10.635154 10.021682 -180.776238
10.531494 10.042597 -180.777604
10.427834 10.063512 -180.778970
10.324174 10.084427 -180.780336
10.220513 10.105342 -180.781702
10.116853 10.126257 -180.783068
10.013193 10.147172 -180.784434
9.895689 10.067136 -180.788224
9.805873 10.189003 -180.787166
9.702213 10.209918 -180.788532
9.598552 10.230833 -180.789899
9.494892 10.251748 -180.791265
9.391232 10.272663 -180.792631
9.287572 10.293578 -180.793997
9.197756 10.415445 -180.792939
9.094096 10.436360 -180.794305
8.990436 10.457276 -180.795671
8.900620 10.579143 -180.794614
8.796960 10.600058 -180.795980
8.693300 10.620973 -180.797346
8.589640 10.641888 -180.798712
8.499824 10.763755 -180.797655
8.396164 10.784670 -180.799021
8.292503 10.805585 -180.800387
8.188843 10.826500 -180.801753
8.099027 10.948367 -180.800696
7.995367 10.969283 -180.802062
7.891707 10.990198 -180.803428
7.788047 11.011113 -180.804794
7.684387 11.032028 -180.806160
7.580727 11.052943 -180.807526
7.477066 11.073858 -180.808892
7.373406 11.094773 -180.810258
7.269746 11.115689 -180.811624
7.166086 11.136604 -180.812990
7.062426 11.157519 -180.814356
6.958766 11.178434 -180.815722
6.855105 11.199349 -180.817088
6.737601 11.119312 -180.820878
6.633941 11.140227 -180.822244
6.530281 11.161143 -180.823610
6.426621 11.182058 -180.824976
6.309116 11.102021 -180.828765
6.205456 11.122936 -180.830131
6.101796 11.143851 -180.831497
5.998136 11.164766 -180.832863
5.894475 11.185681 -180.834229
5.804660 11.307548 -180.833172
5.687155 11.227512 -180.836961
5.583495 11.248427 -180.838327
5.465990 11.168390 -180.842116
5.334642 10.987401 -180.848328
5.217137 10.907365 -180.852117
5.113477 10.928280 -180.853483
5.009817 10.949195 -180.854849
4.892312 10.869158 -180.858639
4.788652 10.890073 -180.860005
4.684992 10.910988 -180.861371
4.581332 10.931903 -180.862737
4.463827 10.851867 -180.866526
4.360167 10.872782 -180.867892
4.242663 10.792745 -180.871681
4.139003 10.813660 -180.873047
4.021498 10.733623 -180.876836
3.917838 10.754538 -180.878202
3.800333 10.674502 -180.881991
3.682829 10.594465 -180.885780
3.551480 10.413476 -180.891993
3.433976 10.333439 -180.895782
3.330315 10.354355 -180.897148
3.226655 10.375270 -180.898514
3.122995 10.396185 -180.899880
3.019335 10.417100 -180.901246
2.915675 10.438015 -180.902612
2.812015 10.458930 -180.903978
2.708355 10.479845 -180.905344
2.590850 10.399809 -180.909133
2.487190 10.420724 -180.910499
2.369685 10.340687 -180.914288
2.266025 10.361602 -180.915654
2.148521 10.281565 -180.919443
2.031016 10.201528 -180.923232
1.927356 10.222444 -180.924599
1.809852 10.142407 -180.928388
1.706191 10.163322 -180.929754
1.574843 9.982333 -180.935966
1.443494 9.801345 -180.942178
1.325989 9.721308 -180.945967
1.208485 9.641271 -180.949756
1.077136 9.460282 -180.955969
0.959632 9.380246 -180.959758
0.842127 9.300209 -180.963547
0.724623 9.220172 -180.967336
0.607118 9.140135 -180.971125
0.475769 8.959146 -180.977338
0.358265 8.879110 -180.981127
0.240760 8.799073 -180.984916
0.123256 8.719036 -180.988705
8.861292 10.951105 -180.839452
8.722575 11.011737 -180.838395
8.622346 10.978020 -180.839761
8.522116 10.944303 -180.841127
8.421886 10.910586 -180.842493
8.321656 10.876869 -180.843859
8.221426 10.843152 -180.845225
8.121196 10.809435 -180.846591
8.020966 10.775718 -180.847957
7.920736 10.742001 -180.849323
7.858993 10.613935 -180.853112
7.758763 10.580218 -180.854478
7.658533 10.546501 -180.855844
7.519816 10.607133 -180.854787
7.304127 10.856464 -180.848884
7.126925 11.011445 -180.845404
6.988208 11.072077 -180.844347
6.849492 11.132709 -180.843289
6.749262 11.098992 -180.844655
6.610546 11.159624 -180.843598
6.510316 11.125907 -180.844964
6.371600 11.186539 -180.843907
6.232883 11.247172 -180.842850
6.132653 11.213455 -180.844216
5.993937 11.274087 -180.843159
5.893707 11.240370 -180.844525
5.793477 11.206653 -180.845891
5.693247 11.172936 -180.847257
5.593017 11.139219 -180.848623
5.492788 11.105502 -180.849989
5.392558 11.071785 -180.851355
5.292328 11.038068 -180.852721
5.153611 11.098700 -180.851664
5.053381 11.064983 -180.853030
4.953152 11.031266 -180.854396
4.852922 10.997549 -180.855762
4.752692 10.963832 -180.857128
4.652462 10.930115 -180.858494
4.552232 10.896398 -180.859860
4.413516 10.957030 -180.858803
4.313286 10.923313 -180.860169
4.174569 10.983945 -180.859112
4.074339 10.950228 -180.860478
3.974109 10.916511 -180.861844
3.835393 10.977143 -180.860787
3.735163 10.943426 -180.862153
3.634933 10.909709 -180.863519
3.534703 10.875992 -180.864885
3.472960 10.747926 -180.868674
3.372730 10.714209 -180.870040
3.234014 10.774841 -180.868983
3.133784 10.741124 -180.870349
3.033554 10.707407 -180.871715
2.894837 10.768039 -180.870658
2.794608 10.734322 -180.872024
2.694378 10.700605 -180.873390
2.594148 10.666888 -180.874756
2.493918 10.633171 -180.876122
2.393688 10.599454 -180.877488
2.293458 10.565737 -180.878854
2.193228 10.532020 -180.880220
2.092998 10.498303 -180.881586
1.992768 10.464586 -180.882952
1.892538 10.430869 -180.884318
1.792308 10.397152 -180.885684
1.692078 10.363435 -180.887050
1.630335 10.235369 -180.890839
1.530105 10.201652 -180.892205
1.429875 10.167935 -180.893571
1.368131 10.039869 -180.897360
1.267902 10.006152 -180.898726
1.167672 9.972435 -180.900092
1.067442 9.938718 -180.901458
1.005698 9.810652 -180.905248
0.905468 9.776935 -180.906614
0.805238 9.743218 -180.907980
0.705008 9.709501 -180.909346
0.604778 9.675784 -180.910712
0.543035 9.547718 -180.914501
0.442805 9.514001 -180.915867
0.381061 9.385935 -180.919656
0.280832 9.352218 -180.921022
0.219088 9.224152 -180.924811
0.118858 9.190435 -180.926177
-0.019858 9.251067 -180.925120
-0.120088 9.217350 -180.926486
-0.220318 9.183633 -180.927852
-0.282062 9.055567 -180.931641
-0.382292 9.021850 -180.933007
-0.444035 8.893783 -180.936796
-0.544265 8.860066 -180.938162
-0.606009 8.732000 -180.941952
-0.667752 8.603934 -180.945741
-0.691009 8.381519 -180.951953
-0.791239 8.347802 -180.953319
-0.891469 8.314085 -180.954685
-0.991699 8.280368 -180.956051
-1.091929 8.246651 -180.957417
-1.192159 8.212934 -180.958783
-1.253902 8.084868 -180.962572
-1.354132 8.051151 -180.963938
-1.415876 7.923085 -180.967727
-1.516106 7.889368 -180.969093
-1.577849 7.761302 -180.972882
-1.678079 7.727585 -180.974248
-1.739823 7.599519 -180.978038
-1.840053 7.565802 -180.979404
-1.901796 7.437735 -180.983193
-1.963540 7.309669 -180.986982
-2.025283 7.181603 -180.990771
-2.087027 7.053537 -180.994560
-2.187257 7.019820 -180.995926
-2.249000 6.891754 -180.999715
-2.310744 6.763688 -181.003504
-2.410974 6.729971 -181.004871
-2.511204 6.696254 -181.006237
-2.611434 6.662537 -181.007603
-2.673177 6.534471 -181.011392
-2.696434 6.312056 -181.017604
-2.758178 6.183989 -181.021393
-2.819922 6.055923 -181.025182
-2.920151 6.022206 -181.026548
-3.020381 5.988489 -181.027914
-3.082125 5.860423 -181.031703
5.268294 11.399104 -180.935320
5.117846 11.382255 -180.934263
4.967399 11.365406 -180.933206
4.816951 11.348557 -180.932149
4.263979 11.644035 -180.918976
4.033027 11.689652 -180.915496
3.882579 11.672803 -180.914439
3.732131 11.655954 -180.913382
3.581683 11.639104 -180.912324
3.511740 11.559790 -180.913690
3.361292 11.542941 -180.912633
3.291349 11.463626 -180.913999
3.221406 11.384311 -180.915365
3.070958 11.367462 -180.914308
3.001015 11.288147 -180.915674
2.850567 11.271298 -180.914617
2.700119 11.254449 -180.913560
2.549672 11.237600 -180.912503
2.479728 11.158285 -180.913869
2.409785 11.078971 -180.915235
2.339842 10.999656 -180.916601
2.269899 10.920341 -180.917967
2.199956 10.841026 -180.919333
2.130013 10.761712 -180.920699
1.979565 10.744863 -180.919642
1.748612 10.790479 -180.916162
1.598164 10.773630 -180.915105
1.528221 10.694315 -180.916471
1.377773 10.677466 -180.915414
1.307830 10.598151 -180.916780
1.237887 10.518837 -180.918146
1.167944 10.439522 -180.919512
0.936991 10.485138 -180.916031
0.786544 10.468289 -180.914974
0.636096 10.451440 -180.913917
0.566153 10.372125 -180.915283
0.496209 10.292811 -180.916649
0.345762 10.275962 -180.915592
0.275818 10.196647 -180.916958
0.125371 10.179798 -180.915901
0.055427 10.100483 -180.917267
-0.095020 10.083634 -180.916210
-0.164964 10.004319 -180.917576
-0.234907 9.925005 -180.918942
-0.304850 9.845690 -180.920308
-0.374793 9.766375 -180.921674
-0.364232 9.624595 -180.925463
-0.434175 9.545280 -180.926829
-0.504118 9.465966 -180.928195
-0.574061 9.386651 -180.929561
-0.724509 9.369802 -180.928504
-0.794452 9.290487 -180.929870
-0.944900 9.273638 -180.928813
-1.095348 9.256789 -180.927756
-1.165291 9.177474 -180.929122
-1.315739 9.160625 -180.928065
-1.385682 9.081310 -180.929431
-1.455625 9.001996 -180.930797
-1.525568 8.922681 -180.932163
-1.595511 8.843366 -180.933529
-1.665454 8.764052 -180.934895
-1.735398 8.684737 -180.936261
-1.805341 8.605422 -180.937627
-1.875284 8.526107 -180.938993
-1.945227 8.446793 -180.940359
-2.015170 8.367478 -180.941725
-2.085113 8.288163 -180.943091
-2.155057 8.208849 -180.944457
-2.144495 8.067069 -180.948246
-2.294943 8.050219 -180.947189
-2.364886 7.970905 -180.948555
-2.434829 7.891590 -180.949921
-2.424268 7.749810 -180.953710
-2.494211 7.670495 -180.955076
-2.564154 7.591180 -180.956442
-2.634097 7.511866 -180.957808
-2.704040 7.432551 -180.959174
-2.773983 7.353236 -180.960540
-2.763422 7.211456 -180.964329
-2.833365 7.132141 -180.965695
-2.903308 7.052827 -180.967061
-2.973251 6.973512 -180.968427
-3.043195 6.894197 -180.969793
-3.113138 6.814883 -180.971159
-3.183081 6.735568 -180.972525
-3.253024 6.656253 -180.973891
-3.322967 6.576939 -180.975257
-3.392910 6.497624 -180.976623
-3.543358 6.480775 -180.975566
-3.613301 6.401460 -180.976932
-3.683244 6.322145 -180.978298
-3.753188 6.242831 -180.979664
-3.823131 6.163516 -180.981030
-3.893074 6.084201 -180.982396
-3.963017 6.004887 -180.983762
-4.032960 5.925572 -180.985128
-4.102903 5.846257 -180.986494
-4.172847 5.766943 -180.987861
-4.242790 5.687628 -180.989227
-4.312733 5.608313 -180.990593
-4.382676 5.528999 -180.991959
-4.452619 5.449684 -180.993325
-4.522562 5.370369 -180.994691
-4.592506 5.291055 -180.996057
-4.662449 5.211740 -180.997423
-4.732392 5.132425 -180.998789
-4.802335 5.053110 -181.000155
-4.872278 4.973796 -181.001521
-4.861717 4.832016 -181.005310
-4.931660 4.752701 -181.006676
-5.001603 4.673386 -181.008042
-4.991041 4.531606 -181.011831
-5.060985 4.452291 -181.013197
-5.130928 4.372977 -181.014563
-5.200871 4.293662 -181.015929
-5.270814 4.214347 -181.017295
-5.340757 4.135033 -181.018661
-5.410700 4.055718 -181.020027
-5.400139 3.913938 -181.023816
-5.470082 3.834623 -181.025182
-5.459520 3.692843 -181.028971
-5.448959 3.551062 -181.032761
-5.518902 3.471748 -181.034127
-5.588845 3.392433 -181.035493
-5.658788 3.313118 -181.036859
-5.728732 3.233804 -181.038225
-5.798675 3.154489 -181.039591
-5.868618 3.075174 -181.040957
-5.938561 2.995860 -181.042323
-5.928000 2.854079 -181.046112
-5.917438 2.712299 -181.049901
-5.906876 2.570519 -181.053690
-5.896315 2.428739 -181.057479
-5.885753 2.286959 -181.061268
-5.955697 2.207644 -181.062634
-5.945135 2.065864 -181.066423
-5.372301 4.884184 -180.977502
-5.494168 4.794368 -180.976445
-5.515083 4.690708 -180.977811
-5.636950 4.600892 -180.976754
-5.657865 4.497232 -180.978120
-5.779732 4.407416 -180.977063
-5.901599 4.317600 -180.976006
-5.922514 4.213940 -180.977372
-5.943429 4.110280 -180.978738
-6.065296 4.020464 -180.977681
-6.086212 3.916804 -180.979047
-6.107127 3.813144 -180.980413
-6.128042 3.709484 -180.981779
-6.148957 3.605824 -180.983145
-6.169872 3.502163 -180.984511
-6.190787 3.398503 -180.985877
-6.211702 3.294843 -180.987243
-6.232618 3.191183 -180.988609
-6.253533 3.087523 -180.989975
-6.274448 2.983863 -180.991341
-6.295363 2.880203 -180.992707
-6.417230 2.790387 -180.991650
-6.438145 2.686727 -180.993016
-6.560012 2.596911 -180.991959
-6.580927 2.493251 -180.993325
-6.601842 2.389590 -180.994691
-6.622758 2.285930 -180.996057
-6.643673 2.182270 -180.997423
-6.664588 2.078610 -180.998789
-6.685503 1.974950 -181.000155
-6.605466 1.857445 -181.003944
-6.626381 1.753785 -181.005310
-6.647296 1.650125 -181.006676
-6.567260 1.532620 -181.010465
-6.588175 1.428960 -181.011831
-6.609090 1.325300 -181.013197
-6.630005 1.221640 -181.014563
-6.549968 1.104136 -181.018352
-6.570883 1.000475 -181.019718
-6.490847 0.882971 -181.023507
-6.511762 0.779311 -181.024873
-6.532677 0.675651 -181.026239
-6.452640 0.558146 -181.030028
-6.473555 0.454486 -181.031394
-6.494470 0.350826 -181.032761
-6.414434 0.233321 -181.036550
-6.435349 0.129661 -181.037916
-6.355312 0.012157 -181.041705
-6.376227 -0.091504 -181.043071
-6.397142 -0.195164 -181.044437
-6.418057 -0.298824 -181.045803
-6.338021 -0.416328 -181.049592
-6.257984 -0.533833 -181.053381
-6.177947 -0.651337 -181.057170
-6.373857 3.547452 -180.988512
-6.528839 3.370250 -180.985032
-6.872518 3.116074 -180.976706
-6.933150 2.977358 -180.975649
-6.993782 2.838642 -180.974591
-7.054414 2.699925 -180.973534
-7.020697 2.599696 -180.974900
-7.081330 2.460979 -180.973843
-7.047613 2.360749 -180.975209
-7.108245 2.222033 -180.974152
-7.074528 2.121803 -180.975518
-7.135160 1.983087 -180.974461
-7.195792 1.844370 -180.973404
-7.256424 1.705654 -180.972347
-7.222707 1.605424 -180.973713
-7.188990 1.505194 -180.975079
-7.249622 1.366478 -180.974022
-7.215905 1.266248 -180.975388
-7.276537 1.127532 -180.974331
-7.337169 0.988816 -180.973274
-7.303452 0.888586 -180.974640
-7.269735 0.788356 -180.976006
-7.236018 0.688126 -180.977372
-7.296650 0.549409 -180.976315
-7.262933 0.449180 -180.977681
-7.229216 0.348950 -180.979047
-7.195499 0.248720 -180.980413
-7.256132 0.110003 -180.979356
-7.222415 0.009773 -180.980722
-7.188698 -0.090456 -180.982088
-7.154981 -0.190686 -180.983454
-7.121264 -0.290916 -180.984820
-7.087547 -0.391146 -180.986186
-7.053830 -0.491376 -180.987552
-7.020113 -0.591606 -180.988918
-6.986396 -0.691836 -180.990284
-6.952679 -0.792066 -180.991650
-6.824612 -0.853809 -180.995439
-6.790895 -0.954039 -180.996805
-6.757178 -1.054269 -180.998171
-6.723461 -1.154499 -180.999537
-6.689744 -1.254729 -181.000903
-6.656027 -1.354959 -181.002269
-6.622310 -1.455189 -181.003635
-6.494244 -1.516933 -181.007424
-6.460527 -1.617162 -181.008790
-6.426810 -1.717392 -181.010156
-6.393093 -1.817622 -181.011522
-6.359376 -1.917852 -181.012888
-6.325659 -2.018082 -181.014254
-6.291942 -2.118312 -181.015620
-6.258225 -2.218542 -181.016986
-6.224508 -2.318772 -181.018352
-6.190791 -2.419002 -181.019718
-6.062725 -2.480745 -181.023507
-6.029008 -2.580975 -181.024873
-5.995291 -2.681205 -181.026239
-5.961574 -2.781435 -181.027605
-5.927857 -2.881665 -181.028971
-5.894140 -2.981895 -181.030337
-5.766074 -3.043639 -181.034127
-5.732357 -3.143868 -181.035493
-5.698640 -3.244098 -181.036859
-5.664923 -3.344328 -181.038225
-5.631206 -3.444558 -181.039591
-5.597489 -3.544788 -181.040957
-5.563772 -3.645018 -181.042323
-5.530055 -3.745248 -181.043689
-5.496338 -3.845478 -181.045055
-5.368272 -3.907222 -181.048844
-5.334555 -4.007451 -181.050210
-5.300838 -4.107681 -181.051576
-5.267121 -4.207911 -181.052942
-5.233404 -4.308141 -181.054308
-5.105338 -4.369885 -181.058097
-5.071621 -4.470115 -181.059463
-5.037904 -4.570345 -181.060829
-5.004187 -4.670575 -181.062195
-4.970470 -4.770804 -181.063561
-4.936753 -4.871034 -181.064927
-4.903036 -4.971264 -181.066293
-4.869319 -5.071494 -181.067659
-4.835602 -5.171724 -181.069025
-4.801885 -5.271954 -181.070391
-4.768168 -5.372184 -181.071757
-4.640102 -5.433928 -181.075546
-4.606385 -5.534157 -181.076912
-4.572668 -5.634387 -181.078278
-4.538951 -5.734617 -181.079644
-4.505234 -5.834847 -181.081010
-4.471517 -5.935077 -181.082376
-4.343451 -5.996821 -181.086166
-4.309734 -6.097051 -181.087532
-4.276017 -6.197281 -181.088898
-4.147951 -6.259024 -181.092687
-4.114234 -6.359254 -181.094053
-3.986167 -6.420998 -181.097842
-3.952450 -6.521227 -181.099208
-3.918733 -6.621457 -181.100574
-3.790667 -6.683201 -181.104363
-3.756950 -6.783431 -181.105729
-3.723233 -6.883661 -181.107095
-3.689516 -6.983891 -181.108461
-3.561450 -7.045634 -181.112250
-3.527733 -7.145864 -181.113616
-3.494016 -7.246094 -181.114982
-3.365950 -7.307838 -181.118771
-3.332233 -7.408068 -181.120137
-3.298516 -7.508297 -181.121503
-3.264799 -7.608527 -181.122869
-3.136733 -7.670271 -181.126659
-3.103016 -7.770501 -181.128025
-3.069299 -7.870731 -181.129391
-3.035582 -7.970961 -181.130757
-2.907516 -8.032704 -181.134546
-2.873799 -8.132934 -181.135912
-2.840082 -8.233164 -181.137278
-2.806365 -8.333394 -181.138644
-2.772648 -8.433624 -181.140010
-2.738931 -8.533854 -181.141376
-2.610865 -8.595597 -181.145165
-2.577148 -8.695827 -181.146531
-2.543431 -8.796057 -181.147897
-2.509714 -8.896287 -181.149263
-2.475997 -8.996517 -181.150629
-2.442280 -9.096747 -181.151995
-2.314214 -9.158491 -181.155784
-2.280497 -9.258721 -181.157150
-2.246780 -9.358950 -181.158516
-2.118714 -9.420694 -181.162305
-2.084997 -9.520924 -181.163671
-2.051280 -9.621154 -181.165037
-2.017563 -9.721384 -181.166403
-1.889496 -9.783127 -181.170193
-1.855779 -9.883357 -181.171559
-1.727713 -9.945101 -181.175348
-1.599647 -10.006844 -181.179137
-1.471581 -10.068588 -181.182926
-1.343515 -10.130331 -181.186715
-1.309798 -10.230561 -181.188081
-1.276081 -10.330791 -181.189447
-1.148015 -10.392535 -181.193236
-1.019949 -10.454278 -181.197025
-0.986232 -10.554508 -181.198391
-0.858166 -10.616252 -181.202181
-0.824449 -10.716482 -181.203547
-0.696383 -10.778225 -181.207336
-0.568316 -10.839969 -181.211125
-0.440250 -10.901712 -181.214914
-0.312184 -10.963456 -181.218703
-0.184118 -11.025199 -181.222492
-0.056052 -11.086943 -181.226281
0.072014 -11.148687 -181.230071
0.105731 -11.248916 -181.231437
0.139448 -11.349146 -181.232803
0.267514 -11.410890 -181.236592
0.395580 -11.472634 -181.240381
0.523646 -11.534377 -181.244170
0.746062 -11.557634 -181.250382
0.968477 -11.580891 -181.256595
1.096543 -11.642635 -181.260384
1.224609 -11.704378 -181.264173
1.635723 -11.650663 -181.275231
-5.755025 -3.640998 -180.993455
-5.675710 -3.710942 -180.994821
-5.658861 -3.861389 -180.993764
-5.579546 -3.931333 -180.995130
-5.500231 -4.001276 -180.996496
-5.420917 -4.071219 -180.997862
-5.341602 -4.141162 -180.999228
-5.324753 -4.291610 -180.998171
-5.307904 -4.442058 -180.997114
-5.228589 -4.512001 -180.998480
-5.149274 -4.581944 -180.999846
-5.069960 -4.651887 -181.001212
-5.053110 -4.802335 -181.000155
-4.973796 -4.872278 -181.001521
-4.894481 -4.942221 -181.002887
-4.877632 -5.092669 -181.001830
-4.860783 -5.243117 -181.000772
-4.843934 -5.393565 -180.999715
-4.764619 -5.463508 -181.001081
-4.747770 -5.613956 -181.000024
-4.668455 -5.683899 -181.001390
-4.651606 -5.834347 -181.000333
-4.572291 -5.904290 -181.001699
-4.555442 -6.054738 -181.000642
-4.476127 -6.124681 -181.002008
-4.459278 -6.275129 -181.000951
-4.379964 -6.345072 -181.002317
-4.300649 -6.415015 -181.003683
-4.221334 -6.484958 -181.005049
-4.204485 -6.635406 -181.003992
-4.125170 -6.705349 -181.005358
-4.045856 -6.775292 -181.006724
-3.966541 -6.845236 -181.008090
-3.949692 -6.995683 -181.007033
-3.870377 -7.065627 -181.008399
-3.791063 -7.135570 -181.009765
-3.711748 -7.205513 -181.011131
-3.632433 -7.275456 -181.012497
-3.615584 -7.425904 -181.011440
-3.536269 -7.495847 -181.012806
-3.519420 -7.646295 -181.011749
-3.440106 -7.716238 -181.013115
-3.360791 -7.786181 -181.014481
-3.281476 -7.856124 -181.015847
-3.264627 -8.006572 -181.014790
-3.185312 -8.076515 -181.016156
-3.105998 -8.146459 -181.017522
-3.026683 -8.216402 -181.018888
-2.947368 -8.286345 -181.020254
-2.868054 -8.356288 -181.021620
-2.851204 -8.506736 -181.020563
-2.771890 -8.576679 -181.021929
-2.692575 -8.646622 -181.023295
-2.675726 -8.797070 -181.022238
-2.658877 -8.947518 -181.021180
-2.579562 -9.017461 -181.022546
-2.562713 -9.167909 -181.021489
-2.483398 -9.237852 -181.022855
-2.404084 -9.307795 -181.024221
-2.387234 -9.458243 -181.023164
-2.307920 -9.528186 -181.024530
-2.228605 -9.598129 -181.025896
-2.149290 -9.668072 -181.027262
-2.069976 -9.738016 -181.028628
-1.990661 -9.807959 -181.029994
-1.973812 -9.958407 -181.028937
-1.894497 -10.028350 -181.030303
-1.815182 -10.098293 -181.031669
-1.798333 -10.248741 -181.030612
-1.719019 -10.318684 -181.031978
-1.639704 -10.388627 -181.033344
-1.560389 -10.458570 -181.034710
-1.543540 -10.609018 -181.033653
-1.464225 -10.678961 -181.035019
-1.384911 -10.748904 -181.036385
-1.305596 -10.818848 -181.037751
-1.226281 -10.888791 -181.039117
-1.146967 -10.958734 -181.040483
-1.067652 -11.028677 -181.041849
-0.988337 -11.098620 -181.043215
-0.909023 -11.168563 -181.044581
-0.829708 -11.238506 -181.045947
-0.750393 -11.308450 -181.047313
-0.671079 -11.378393 -181.048679
-0.591764 -11.448336 -181.050045
-0.512449 -11.518279 -181.051411
-0.433135 -11.588222 -181.052777
-0.291354 -11.577661 -181.056566
-0.212040 -11.647604 -181.057933
-0.132725 -11.717547 -181.059299
-0.053410 -11.787490 -181.060665
0.025904 -11.857433 -181.062031
0.042754 -12.007881 -181.060973
0.122068 -12.077824 -181.062339
0.201383 -12.147768 -181.063705
0.280698 -12.217711 -181.065071
0.360012 -12.287654 -181.066438
0.439327 -12.357597 -181.067804
0.581107 -12.347035 -181.071593
0.660422 -12.416979 -181.072959
0.739737 -12.486922 -181.074325
0.819051 -12.556865 -181.075691
0.898366 -12.626808 -181.077057
0.977681 -12.696751 -181.078423
1.056995 -12.766694 -181.079789
1.136310 -12.836638 -181.081155
1.215625 -12.906581 -181.082521
1.294939 -12.976524 -181.083887
1.374254 -13.046467 -181.085253
1.516034 -13.035906 -181.089042
1.657815 -13.025344 -181.092831
1.737129 -13.095287 -181.094197
1.878909 -13.084726 -181.097986
1.958224 -13.154669 -181.099352
2.037539 -13.224612 -181.100718
2.116854 -13.294555 -181.102084
2.196168 -13.364498 -181.103450
2.275483 -13.434441 -181.104816
2.354798 -13.504385 -181.106182
2.434112 -13.574328 -181.107548
2.513427 -13.644271 -181.108914
2.592742 -13.714214 -181.110280
2.734522 -13.703653 -181.114070
2.813837 -13.773596 -181.115436
2.955617 -13.763034 -181.119225
3.097397 -13.752473 -181.123014
3.176712 -13.822416 -181.124380
3.318492 -13.811854 -181.128169
3.397807 -13.881797 -181.129535
3.539587 -13.871236 -181.133324
3.618902 -13.941179 -181.134690
3.760682 -13.930618 -181.138479
3.839996 -14.000561 -181.139845
3.981777 -13.989999 -181.143634
4.123557 -13.979438 -181.147424
4.202872 -14.049381 -181.148790
4.282186 -14.119324 -181.150156
4.361501 -14.189267 -181.151522
4.440816 -14.259210 -181.152888
4.520130 -14.329153 -181.154254
-0.469364 -11.242834 -180.928127
-0.393392 -11.465653 -180.924647
-0.289732 -11.486568 -180.926013
-0.186072 -11.507483 -180.927379
-0.096256 -11.629350 -180.926322
-0.006440 -11.751217 -180.925264
0.083375 -11.873084 -180.924207
0.173191 -11.994951 -180.923150
0.263007 -12.116818 -180.922093
0.366667 -12.137734 -180.923459
0.470327 -12.158649 -180.924825
0.560143 -12.280516 -180.923768
0.663803 -12.301431 -180.925134
0.753619 -12.423298 -180.924077
0.843435 -12.545165 -180.923020
0.933251 -12.667032 -180.921963
1.036911 -12.687947 -180.923329
1.126727 -12.809814 -180.922272
1.230387 -12.830729 -180.923638
1.334047 -12.851644 -180.925004
1.437707 -12.872560 -180.926370
1.541367 -12.893475 -180.927736
1.631183 -13.015342 -180.926679
1.734843 -13.036257 -180.928045
1.824659 -13.158124 -180.926988
1.928319 -13.179039 -180.928354
2.031980 -13.199954 -180.929720
2.135640 -13.220869 -180.931086
2.225456 -13.342736 -180.930028
2.329116 -13.363651 -180.931394
2.432776 -13.384567 -180.932761
2.522592 -13.506434 -180.931703
2.626252 -13.527349 -180.933069
2.729912 -13.548264 -180.934435
2.833572 -13.569179 -180.935801
2.923388 -13.691046 -180.934744
3.027048 -13.711961 -180.936110
3.130708 -13.732876 -180.937476
3.220524 -13.854743 -180.936419
3.324184 -13.875659 -180.937785
3.427845 -13.896574 -180.939151
3.531505 -13.917489 -180.940517
3.635165 -13.938404 -180.941883
3.724981 -14.060271 -180.940826
3.828641 -14.081186 -180.942192
3.932301 -14.102101 -180.943558
4.035961 -14.123016 -180.944924
4.125777 -14.244883 -180.943867
4.229437 -14.265799 -180.945233
4.333097 -14.286714 -180.946599
4.436757 -14.307629 -180.947965
4.540418 -14.328544 -180.949331
4.644078 -14.349459 -180.950697
4.747738 -14.370374 -180.952063
4.851398 -14.391289 -180.953429
4.955058 -14.412204 -180.954795
5.058718 -14.433120 -180.956161
5.162379 -14.454035 -180.957527
5.266039 -14.474950 -180.958893
5.369699 -14.495865 -180.960259
5.473359 -14.516780 -180.961625
5.577019 -14.537695 -180.962991
5.694524 -14.457658 -180.966781
5.798184 -14.478574 -180.968147
5.915688 -14.398537 -180.971936
6.019348 -14.419452 -180.973302
6.136853 -14.339415 -180.977091
6.254357 -14.259378 -180.980880
6.371862 -14.179342 -180.984669
6.489366 -14.099305 -180.988458
6.606871 -14.019268 -180.992247
6.710531 -14.040183 -180.993613
6.828036 -13.960146 -180.997403
6.945540 -13.880110 -181.001192
7.063045 -13.800073 -181.004981
7.166705 -13.820988 -181.006347
7.284209 -13.740951 -181.010136
7.401714 -13.660914 -181.013925
7.505374 -13.681830 -181.015291
7.622878 -13.601793 -181.019080
7.781916 -13.218900 -181.030139
7.899420 -13.138863 -181.033928
8.016925 -13.058827 -181.037717
8.120585 -13.079742 -181.039083
8.238089 -12.999705 -181.042872
8.355594 -12.919668 -181.046661
8.486943 -12.738680 -181.052874
8.701357 -11.951979 -181.073625
8.805018 -11.972894 -181.074991
8.908678 -11.993810 -181.076357
9.026182 -11.913773 -181.080146
9.143687 -11.833736 -181.083935
9.275036 -11.652747 -181.090147
9.392540 -11.572711 -181.093936
9.510045 -11.492674 -181.097725
9.613705 -11.513589 -181.099092
9.731209 -11.433552 -181.102881
9.834869 -11.454467 -181.104247
9.952374 -11.374430 -181.108036
10.069878 -11.294394 -181.111825
10.187383 -11.214357 -181.115614
10.291043 -11.235272 -181.116980
10.408547 -11.155235 -181.120769
10.512208 -11.176150 -181.122135
10.643556 -10.995162 -181.128348
10.761061 -10.915125 -181.132137
10.878565 -10.835088 -181.135926
10.982226 -10.856003 -181.137292
11.085886 -10.876918 -181.138658
11.203390 -10.796882 -181.142447
11.320895 -10.716845 -181.146236
11.438399 -10.636808 -181.150025
11.555904 -10.556771 -181.153814
11.659564 -10.577686 -181.155180
11.777068 -10.497650 -181.158970
11.894573 -10.417613 -181.162759
-0.289686 -11.286521 -180.867844
-0.150970 -11.347153 -180.866787
-0.012254 -11.407785 -180.865729
0.126463 -11.468417 -180.864672
0.265179 -11.529049 -180.863615
0.480868 -11.778379 -180.857712
0.658071 -11.933361 -180.854232
0.796787 -11.993993 -180.853175
0.935503 -12.054625 -180.852117
1.074220 -12.115257 -180.851060
1.212936 -12.175889 -180.850003
1.621057 -12.896965 -180.831984
1.759773 -12.957597 -180.830927
1.860003 -12.923880 -180.832293
1.998719 -12.984512 -180.831236
2.098949 -12.950795 -180.832602
2.237666 -13.011427 -180.831545
2.337895 -12.977710 -180.832911
2.476612 -13.038343 -180.831854
2.615328 -13.098975 -180.830797
2.754044 -13.159607 -180.829740
2.854274 -13.125890 -180.831106
3.031477 -13.280871 -180.827625
3.247166 -13.530201 -180.821722
3.424369 -13.685183 -180.818242
3.563085 -13.745815 -180.817185
3.701801 -13.806447 -180.816128
3.840518 -13.867079 -180.815071
3.940747 -13.833362 -180.816437
4.079464 -13.893994 -180.815379
4.179694 -13.860277 -180.816745
4.318410 -13.920909 -180.815688
4.495613 -14.075890 -180.812208
4.634329 -14.136522 -180.811151
4.773045 -14.197155 -180.810094
4.873275 -14.163438 -180.811460
5.011992 -14.224070 -180.810403
5.150708 -14.284702 -180.809346
5.250938 -14.250985 -180.810712
5.351168 -14.217268 -180.812078
5.489884 -14.277900 -180.811021
5.590114 -14.244183 -180.812387
5.690344 -14.210466 -180.813753
5.829060 -14.271098 -180.812696
5.929290 -14.237381 -180.814062
6.068006 -14.298013 -180.813004
6.168236 -14.264296 -180.814370
6.306953 -14.324928 -180.813313
6.407182 -14.291211 -180.814679
6.507412 -14.257494 -180.816045
6.569156 -14.129428 -180.819835
6.669386 -14.095711 -180.821201
6.769616 -14.061994 -180.822567
6.831359 -13.933928 -180.826356
6.931589 -13.900211 -180.827722
7.031819 -13.866494 -180.829088
7.132049 -13.832777 -180.830454
7.232279 -13.799060 -180.831820
7.332509 -13.765343 -180.833186
7.432739 -13.731626 -180.834552
7.494482 -13.603560 -180.838341
7.594712 -13.569843 -180.839707
7.694942 -13.536126 -180.841073
7.756686 -13.408060 -180.844862
7.856916 -13.374343 -180.846228
7.918659 -13.246277 -180.850017
8.018889 -13.212560 -180.851383
8.119119 -13.178843 -180.852749
8.219349 -13.145126 -180.854115
8.319579 -13.111409 -180.855481
8.419809 -13.077692 -180.856847
8.520039 -13.043975 -180.858213
8.620269 -13.010258 -180.859579
8.720499 -12.976541 -180.860945
8.782242 -12.848475 -180.864735
8.882472 -12.814758 -180.866101
8.944216 -12.686691 -180.869890
9.044446 -12.652974 -180.871256
9.106189 -12.524908 -180.875045
9.167933 -12.396842 -180.878834
9.229676 -12.268776 -180.882623
9.329906 -12.235059 -180.883989
9.391650 -12.106993 -180.887778
9.491880 -12.073276 -180.889144
9.553623 -11.945210 -180.892933
9.653853 -11.911493 -180.894299
9.715597 -11.783427 -180.898089
9.815827 -11.749710 -180.899455
9.877570 -11.621644 -180.903244
9.977800 -11.587927 -180.904610
10.078030 -11.554210 -180.905976
10.178260 -11.520493 -180.907342
10.278490 -11.486776 -180.908708
10.378720 -11.453059 -180.910074
10.478950 -11.419342 -180.911440
10.540693 -11.291276 -180.915229
10.640923 -11.257559 -180.916595
10.741153 -11.223842 -180.917961
10.841383 -11.190125 -180.919327
10.980099 -11.250757 -180.918270
11.080329 -11.217040 -180.919636
11.219045 -11.277672 -180.918579
11.319275 -11.243955 -180.919945
11.419505 -11.210238 -180.921311
11.519735 -11.176521 -180.922677
11.581479 -11.048455 -180.926466
11.681709 -11.014738 -180.927832
11.743452 -10.886672 -180.931621
11.843682 -10.852955 -180.932987
11.943912 -10.819238 -180.934353
12.044142 -10.785521 -180.935719
12.144372 -10.751804 -180.937085
12.244602 -10.718087 -180.938451
12.344832 -10.684370 -180.939817
12.406575 -10.556303 -180.943606
12.506805 -10.522586 -180.944972
12.568549 -10.394520 -180.948762
12.668779 -10.360803 -180.950128
12.769009 -10.327086 -180.951494
12.869239 -10.293369 -180.952860
12.969469 -10.259652 -180.954226
13.069698 -10.225935 -180.955592
13.169928 -10.192218 -180.956958
13.270158 -10.158501 -180.958324
13.370388 -10.124784 -180.959690
13.432132 -9.996718 -180.963479
13.532362 -9.963001 -180.964845
13.632592 -9.929284 -180.966211
13.694335 -9.801218 -180.970000
13.756079 -9.673152 -180.973789
13.817822 -9.545086 -180.977578
13.918052 -9.511369 -180.978944
13.979796 -9.383303 -180.982733
14.080026 -9.349586 -180.984099
14.180256 -9.315869 -180.985465
14.280485 -9.282152 -180.986831
14.342229 -9.154086 -180.990621
14.442459 -9.120369 -180.991987
14.504202 -8.992303 -180.995776
14.565946 -8.864236 -180.999565
