ply
format ascii 1.0
element vertex 1514
property float x
property float y
property float z
element face 0
property list uchar uint vertex_indices
end_header
10.386256 -11.790346 -179.769601
10.456199 -11.711031 -179.770967
10.526143 -11.631716 -179.772333
10.596086 -11.552402 -179.773699
10.666029 -11.473087 -179.775065
10.735972 -11.393772 -179.776431
10.805915 -11.314458 -179.777797
10.956363 -11.297609 -179.776740
11.106811 -11.280759 -179.775683
11.176754 -11.201445 -179.777049
11.246697 -11.122130 -179.778415
11.316640 -11.042815 -179.779781
11.386584 -10.963501 -179.781147
11.537031 -10.946652 -179.780090
11.687479 -10.929802 -179.779033
11.757422 -10.850488 -179.780399
11.907870 -10.833639 -179.779341
11.977813 -10.754324 -179.780707
12.128261 -10.737475 -179.779650
12.198204 -10.658160 -179.781016
12.348652 -10.641311 -179.779959
12.418595 -10.561996 -179.781325
12.569043 -10.545147 -179.780268
12.638986 -10.465832 -179.781634
12.789434 -10.448983 -179.780577
12.859377 -10.369669 -179.781943
12.929320 -10.290354 -179.783309
12.999264 -10.211039 -179.784675
13.149711 -10.194190 -179.783618
13.219655 -10.114875 -179.784984
13.289598 -10.035561 -179.786350
13.440046 -10.018711 -179.785293
13.509989 -9.939397 -179.786659
13.579932 -9.860082 -179.788025
13.730380 -9.843233 -179.786968
13.800323 -9.763918 -179.788334
13.950771 -9.747069 -179.787277
14.101219 -9.730220 -179.786220
14.171162 -9.650905 -179.787586
14.241105 -9.571591 -179.788952
14.311048 -9.492276 -179.790318
14.380991 -9.412961 -179.791684
14.450934 -9.333647 -179.793050
14.520878 -9.254332 -179.794416
14.590821 -9.175017 -179.795782
14.660764 -9.095703 -179.797148
14.730707 -9.016388 -179.798514
14.800650 -8.937073 -179.799880
14.870593 -8.857758 -179.801246
14.940537 -8.778444 -179.802612
15.010480 -8.699129 -179.803978
15.080423 -8.619814 -179.805344
15.150366 -8.540500 -179.806710
15.220309 -8.461185 -179.808076
15.290252 -8.381870 -179.809442
15.360195 -8.302556 -179.810808
15.430139 -8.223241 -179.812174
15.500082 -8.143926 -179.813540
15.570025 -8.064612 -179.814906
15.639968 -7.985297 -179.816272
15.790416 -7.968448 -179.815215
15.860359 -7.889133 -179.816581
15.930302 -7.809818 -179.817947
16.000245 -7.730504 -179.819313
16.070189 -7.651189 -179.820679
16.140132 -7.571874 -179.822045
16.210075 -7.492560 -179.823411
16.199513 -7.350779 -179.827200
16.269456 -7.271465 -179.828566
16.339400 -7.192150 -179.829932
16.409343 -7.112835 -179.831298
16.398781 -6.971055 -179.835087
16.468724 -6.891740 -179.836453
16.458163 -6.749960 -179.840243
16.528106 -6.670646 -179.841609
16.517545 -6.528865 -179.845398
16.506983 -6.387085 -179.849187
16.496421 -6.245305 -179.852976
16.485860 -6.103525 -179.856765
16.475298 -5.961744 -179.860554
16.545242 -5.882430 -179.861920
16.534680 -5.740649 -179.865709
16.524119 -5.598869 -179.869499
16.513557 -5.457089 -179.873288
16.502995 -5.315309 -179.877077
16.492434 -5.173529 -179.880866
16.481872 -5.031748 -179.884655
16.551816 -4.952434 -179.886021
16.541254 -4.810653 -179.889810
7.308820 -14.311198 -179.770369
7.531639 -14.235226 -179.766889
7.653506 -14.145411 -179.765832
7.775373 -14.055595 -179.764775
7.998192 -13.979623 -179.761294
8.120059 -13.889807 -179.760237
8.140974 -13.786147 -179.761603
8.161890 -13.682487 -179.762969
8.283757 -13.592671 -179.761912
8.506576 -13.516700 -179.758432
8.628443 -13.426884 -179.757375
8.750310 -13.337068 -179.756318
8.872177 -13.247252 -179.755261
8.893092 -13.143592 -179.756627
9.014959 -13.053776 -179.755570
9.035874 -12.950116 -179.756936
9.157741 -12.860300 -179.755878
9.178656 -12.756640 -179.757245
9.300523 -12.666824 -179.756187
9.422390 -12.577008 -179.755130
9.443305 -12.473348 -179.756496
9.464221 -12.369688 -179.757862
9.586088 -12.279872 -179.756805
10.010810 -12.231589 -179.748479
10.132677 -12.141774 -179.747422
10.254544 -12.051958 -179.746365
10.376411 -11.962142 -179.745307
10.498279 -11.872326 -179.744250
10.519194 -11.768666 -179.745616
10.641061 -11.678850 -179.744559
10.762928 -11.589034 -179.743502
10.783843 -11.485374 -179.744868
11.006662 -11.409403 -179.741388
11.128529 -11.319587 -179.740331
11.351348 -11.243615 -179.736851
11.473215 -11.153799 -179.735793
11.595082 -11.063984 -179.734736
11.716949 -10.974168 -179.733679
11.838816 -10.884352 -179.732622
11.960683 -10.794536 -179.731565
11.981598 -10.690876 -179.732931
12.103465 -10.601060 -179.731874
12.427236 -10.538933 -179.725971
12.549103 -10.449117 -179.724913
12.670970 -10.359301 -179.723856
12.792837 -10.269485 -179.722799
12.813752 -10.165825 -179.724165
13.036571 -10.089854 -179.720685
13.360342 -10.027727 -179.714782
13.583161 -9.951755 -179.711301
13.805980 -9.875784 -179.707821
13.826895 -9.772123 -179.709187
13.948762 -9.682308 -179.708130
14.070629 -9.592492 -179.707073
14.293448 -9.516520 -179.703593
14.415315 -9.426704 -179.702536
14.537182 -9.336889 -179.701479
14.659049 -9.247073 -179.700421
14.679965 -9.143413 -179.701787
14.801832 -9.053597 -179.700730
14.822747 -8.949937 -179.702096
14.944614 -8.860121 -179.701039
14.965529 -8.756461 -179.702405
14.986444 -8.652800 -179.703771
15.007359 -8.549140 -179.705137
15.129226 -8.459324 -179.704080
15.251093 -8.369509 -179.703023
15.473912 -8.293537 -179.699543
15.595779 -8.203721 -179.698486
15.717646 -8.113905 -179.697429
15.738561 -8.010245 -179.698795
15.860428 -7.920429 -179.697738
15.982295 -7.830614 -179.696680
16.003211 -7.726953 -179.698046
16.024126 -7.623293 -179.699412
16.045041 -7.519633 -179.700778
16.166908 -7.429817 -179.699721
16.288775 -7.340002 -179.698664
16.309690 -7.236341 -179.700030
16.431557 -7.146526 -179.698973
16.452472 -7.042865 -179.700339
16.473387 -6.939205 -179.701705
16.494303 -6.835545 -179.703071
16.616170 -6.745729 -179.702014
16.637085 -6.642069 -179.703380
16.658000 -6.538409 -179.704746
16.678915 -6.434749 -179.706112
16.699830 -6.331089 -179.707478
16.720745 -6.227428 -179.708844
16.741660 -6.123768 -179.710210
16.762576 -6.020108 -179.711576
16.682539 -5.902604 -179.715365
16.703454 -5.798943 -179.716731
16.724369 -5.695283 -179.718097
16.745284 -5.591623 -179.719463
16.766199 -5.487963 -179.720829
16.787114 -5.384303 -179.722195
16.707078 -5.266798 -179.725985
16.727993 -5.163138 -179.727351
16.748908 -5.059478 -179.728717
16.769823 -4.955818 -179.730083
16.790738 -4.852158 -179.731449
16.811653 -4.748498 -179.732815
16.832568 -4.644837 -179.734181
16.853484 -4.541177 -179.735547
16.874399 -4.437517 -179.736913
16.794362 -4.320013 -179.740702
16.815277 -4.216352 -179.742068
16.836192 -4.112692 -179.743434
16.857107 -4.009032 -179.744800
16.878022 -3.905372 -179.746166
16.898938 -3.801712 -179.747532
16.818901 -3.684207 -179.751321
16.839816 -3.580547 -179.752687
16.860731 -3.476887 -179.754053
14.054993 -2.985586 -179.823267
14.075908 -2.881925 -179.824633
14.096823 -2.778265 -179.825999
14.016786 -2.660761 -179.829788
14.037701 -2.557101 -179.831154
13.957664 -2.439596 -179.834943
13.877628 -2.322092 -179.838732
13.898543 -2.218432 -179.840098
13.919458 -2.114771 -179.841464
13.839421 -1.997267 -179.845253
13.759384 -1.879762 -179.849042
13.679348 -1.762258 -179.852832
13.599311 -1.644753 -179.856621
13.519274 -1.527249 -179.860410
13.439237 -1.409744 -179.864199
13.460152 -1.306084 -179.865565
13.380116 -1.188580 -179.869354
13.401031 -1.084920 -179.870720
13.421946 -0.981259 -179.872086
13.341909 -0.863755 -179.875875
13.261872 -0.746251 -179.879664
13.282787 -0.642590 -179.881030
13.202751 -0.525086 -179.884820
13.122714 -0.407581 -179.888609
13.042677 -0.290077 -179.892398
13.063592 -0.186417 -179.893764
12.983555 -0.068912 -179.897553
13.004471 0.034748 -179.898919
13.025386 0.138408 -179.900285
13.046301 0.242068 -179.901651
13.067216 0.345728 -179.903017
13.088131 0.449389 -179.904383
13.008094 0.566893 -179.908172
13.029009 0.670553 -179.909538
12.948973 0.788058 -179.913327
12.969888 0.891718 -179.914693
12.889851 1.009222 -179.918483
12.910766 1.112882 -179.919849
12.931681 1.216543 -179.921215
12.952596 1.320203 -179.922581
12.872560 1.437707 -179.926370
12.893475 1.541367 -179.927736
12.914390 1.645028 -179.929102
12.834353 1.762532 -179.932891
12.855268 1.866192 -179.934257
12.876183 1.969852 -179.935623
12.796147 2.087357 -179.939412
12.817062 2.191017 -179.940778
12.837977 2.294677 -179.942144
12.757940 2.412182 -179.945933
12.778855 2.515842 -179.947299
12.799770 2.619502 -179.948665
12.719733 2.737006 -179.952454
12.740649 2.840667 -179.953820
12.761564 2.944327 -179.955186
12.782479 3.047987 -179.956552
12.803394 3.151647 -179.957918
12.723357 3.269152 -179.961708
12.744272 3.372812 -179.963074
12.765187 3.476472 -179.964440
12.685151 3.593976 -179.968229
12.706066 3.697637 -179.969595
12.726981 3.801297 -179.970961
12.747896 3.904957 -179.972327
12.768811 4.008617 -179.973693
12.789726 4.112277 -179.975059
12.709690 4.229782 -179.978848
12.629653 4.347286 -179.982637
12.650568 4.450946 -179.984003
12.570531 4.568451 -179.987792
12.490494 4.685955 -179.991581
12.511409 4.789615 -179.992947
12.431373 4.907120 -179.996737
12.452288 5.010780 -179.998103
12.473203 5.114440 -179.999469
12.595070 5.204256 -179.998412
12.615985 5.307916 -179.999778
12.636900 5.411576 -180.001144
12.657815 5.515237 -180.002510
12.577779 5.632741 -180.006299
12.497742 5.750246 -180.010088
12.518657 5.853906 -180.011454
12.539572 5.957566 -180.012820
12.560487 6.061226 -180.014186
12.682354 6.151042 -180.013129
12.703269 6.254702 -180.014495
12.623233 6.372207 -180.018284
12.644148 6.475867 -180.019650
12.564111 6.593371 -180.023439
12.484074 6.710876 -180.027228
12.303086 6.842224 -180.033441
12.223049 6.959729 -180.037230
12.042060 7.091078 -180.043442
11.962023 7.208582 -180.047231
11.982938 7.312242 -180.048597
12.003854 7.415903 -180.049963
11.923817 7.533407 -180.053752
11.843780 7.650912 -180.057541
15.095080 -3.637414 -179.748527
15.061363 -3.537184 -179.749893
15.027646 -3.436954 -179.751259
14.993929 -3.336724 -179.752625
14.960212 -3.236494 -179.753991
14.832145 -3.174750 -179.757780
14.798428 -3.074520 -179.759146
14.764711 -2.974290 -179.760512
14.636645 -2.912547 -179.764301
14.602928 -2.812317 -179.765667
14.474862 -2.750573 -179.769456
14.441145 -2.650344 -179.770822
14.407428 -2.550114 -179.772188
14.373711 -2.449884 -179.773554
14.339994 -2.349654 -179.774920
14.306277 -2.249424 -179.776286
14.366909 -2.110708 -179.775229
14.333192 -2.010478 -179.776595
14.299475 -1.910248 -179.777961
14.265758 -1.810018 -179.779327
14.232041 -1.709788 -179.780693
14.198324 -1.609558 -179.782059
14.164607 -1.509328 -179.783425
14.130890 -1.409098 -179.784791
14.097173 -1.308868 -179.786158
14.063456 -1.208638 -179.787524
14.029739 -1.108408 -179.788890
13.996022 -1.008178 -179.790256
13.867956 -0.946435 -179.794045
13.834239 -0.846205 -179.795411
13.800522 -0.745975 -179.796777
13.766805 -0.645745 -179.798143
13.733088 -0.545515 -179.799509
13.699371 -0.445285 -179.800875
13.571305 -0.383542 -179.804664
13.631937 -0.244825 -179.803607
13.598220 -0.144595 -179.804973
13.564503 -0.044366 -179.806339
13.530786 0.055864 -179.807705
13.591418 0.194581 -179.806648
13.557701 0.294811 -179.808014
13.523984 0.395041 -179.809380
13.490267 0.495270 -179.810746
13.456550 0.595500 -179.812112
13.422833 0.695730 -179.813478
13.389116 0.795960 -179.814844
13.449748 0.934677 -179.813787
13.416031 1.034906 -179.815153
13.382314 1.135136 -179.816519
13.348597 1.235366 -179.817885
13.314880 1.335596 -179.819251
13.281163 1.435826 -179.820617
13.247446 1.536056 -179.821983
13.213729 1.636286 -179.823349
13.180012 1.736516 -179.824715
13.146295 1.836746 -179.826081
13.112578 1.936976 -179.827447
13.078861 2.037206 -179.828813
13.045144 2.137436 -179.830179
13.011427 2.237666 -179.831545
12.977710 2.337895 -179.832911
12.943993 2.438125 -179.834277
12.910276 2.538355 -179.835643
12.970909 2.677072 -179.834586
12.937192 2.777302 -179.835952
12.903475 2.877531 -179.837318
12.869758 2.977761 -179.838684
12.930390 3.116478 -179.837627
12.896673 3.216708 -179.838993
12.862956 3.316938 -179.840359
12.829239 3.417167 -179.841725
12.889871 3.555884 -179.840668
12.856154 3.656114 -179.842034
12.916786 3.794830 -179.840977
12.883069 3.895060 -179.842343
12.849352 3.995290 -179.843709
12.815635 4.095520 -179.845075
12.876267 4.234236 -179.844018
12.842550 4.334466 -179.845384
12.808833 4.434696 -179.846750
12.775116 4.534926 -179.848116
12.835748 4.673642 -179.847059
12.802031 4.773872 -179.848425
12.768314 4.874102 -179.849791
12.734597 4.974332 -179.851157
12.700880 5.074562 -179.852523
12.667163 5.174792 -179.853889
12.633446 5.275022 -179.855255
12.599729 5.375252 -179.856621
12.566012 5.475481 -179.857987
12.626644 5.614198 -179.856930
12.592927 5.714428 -179.858296
12.559210 5.814658 -179.859662
12.525493 5.914888 -179.861028
12.491776 6.015117 -179.862394
12.552408 6.153834 -179.861337
12.518691 6.254064 -179.862703
12.484974 6.354294 -179.864069
12.451257 6.454524 -179.865435
12.417540 6.554753 -179.866801
12.478172 6.693470 -179.865743
12.444455 6.793700 -179.867109
12.505088 6.932416 -179.866052
12.471371 7.032646 -179.867418
12.437654 7.132876 -179.868784
12.403937 7.233106 -179.870150
12.370220 7.333336 -179.871516
12.430852 7.472052 -179.870459
12.397135 7.572282 -179.871825
12.363418 7.672512 -179.873191
12.329701 7.772742 -179.874557
12.295984 7.872972 -179.875923
12.167918 7.934715 -179.879713
12.134201 8.034945 -179.881079
12.100484 8.135175 -179.882445
11.972417 8.196919 -179.886234
11.750002 8.220176 -179.892446
11.621936 8.281919 -179.896235
11.588219 8.382149 -179.897601
11.460153 8.443893 -179.901390
11.426436 8.544123 -179.902756
11.298370 8.605866 -179.906545
11.170304 8.667610 -179.910335
11.042238 8.729353 -179.914124
10.914172 8.791097 -179.917913
10.786105 8.852840 -179.921702
10.752388 8.953070 -179.923068
10.624322 9.014814 -179.926857
10.496256 9.076557 -179.930646
10.273841 9.099815 -179.936859
10.145775 9.161558 -179.940648
10.017709 9.223302 -179.944437
9.889643 9.285045 -179.948226
9.478529 9.231330 -179.959284
9.350463 9.293073 -179.963074
9.316746 9.393303 -179.964440
9.188680 9.455047 -179.968229
8.966265 9.478304 -179.974441
8.838199 9.540047 -179.978230
8.710133 9.601791 -179.982019
8.204670 9.509589 -179.995501
8.076604 9.571333 -179.999290
7.948538 9.633076 -180.003079
7.631773 9.617847 -180.011715
7.503707 9.679590 -180.015504
7.375641 9.741334 -180.019293
7.341924 9.841564 -180.020659
13.712396 -0.393172 -179.826767
13.695547 -0.242724 -179.825710
13.616232 -0.172781 -179.827076
13.599383 -0.022333 -179.826019
13.582534 0.128115 -179.824962
13.503219 0.198058 -179.826328
13.486370 0.348506 -179.825270
13.469520 0.498954 -179.824213
13.452671 0.649402 -179.823156
13.435822 0.799850 -179.822099
13.418972 0.950298 -179.821042
13.402123 1.100746 -179.819985
13.322808 1.170689 -179.821351
13.305959 1.321137 -179.820294
13.226644 1.391080 -179.821660
13.147330 1.461023 -179.823026
13.130480 1.611471 -179.821969
13.113631 1.761919 -179.820912
13.221713 2.073377 -179.815008
13.142398 2.143320 -179.816374
13.125549 2.293768 -179.815317
13.108700 2.444216 -179.814260
13.029385 2.514159 -179.815626
13.012536 2.664607 -179.814569
12.995686 2.815055 -179.813512
12.978837 2.965503 -179.812455
12.961988 3.115951 -179.811398
12.945139 3.266398 -179.810341
12.990755 3.497351 -179.806860
12.973906 3.647799 -179.805803
12.957056 3.798247 -179.804746
12.940207 3.948695 -179.803689
12.860892 4.018638 -179.805055
12.781577 4.088581 -179.806421
12.764728 4.239029 -179.805364
12.747879 4.389477 -179.804307
12.668564 4.459420 -179.805673
12.651715 4.609868 -179.804616
12.634866 4.760316 -179.803559
12.555551 4.830259 -179.804925
12.538702 4.980707 -179.803868
12.521852 5.131155 -179.802810
12.505003 5.281603 -179.801753
12.488154 5.432051 -179.800696
12.471305 5.582499 -179.799639
12.391990 5.652442 -179.801005
12.375141 5.802890 -179.799948
12.420757 6.033843 -179.796468
12.466373 6.264796 -179.792988
12.449524 6.415244 -179.791930
12.432675 6.565692 -179.790873
12.415825 6.716140 -179.789816
12.398976 6.866588 -179.788759
12.382127 7.017035 -179.787702
12.365278 7.167483 -179.786645
12.348428 7.317931 -179.785588
12.331579 7.468379 -179.784531
12.314730 7.618827 -179.783474
12.235415 7.688770 -179.784840
12.218566 7.839218 -179.783783
12.139251 7.909162 -179.785149
12.122402 8.059609 -179.784091
12.043087 8.129553 -179.785457
11.963772 8.199496 -179.786823
11.946923 8.349944 -179.785766
11.867608 8.419887 -179.787132
11.788293 8.489830 -179.788498
11.771444 8.640278 -179.787441
11.692129 8.710221 -179.788807
11.612815 8.780164 -179.790173
11.533500 8.850107 -179.791539
11.391719 8.839546 -179.795328
11.312405 8.909489 -179.796694
11.233090 8.979432 -179.798060
11.153775 9.049375 -179.799427
11.074460 9.119318 -179.800793
10.932680 9.108757 -179.804582
10.853365 9.178700 -179.805948
10.711585 9.168138 -179.809737
10.632270 9.238082 -179.811103
10.490490 9.227520 -179.814892
10.411175 9.297463 -179.816258
10.331860 9.367406 -179.817624
10.252545 9.437349 -179.818990
10.173230 9.507293 -179.820356
10.031450 9.496731 -179.824145
9.952135 9.566674 -179.825511
9.810355 9.556112 -179.829300
9.668575 9.545551 -179.833089
9.526794 9.534989 -179.836879
9.447480 9.604932 -179.838245
9.368165 9.674876 -179.839611
9.288850 9.744819 -179.840977
9.147070 9.734257 -179.844766
9.067755 9.804200 -179.846132
8.988440 9.874143 -179.847498
8.909125 9.944087 -179.848864
8.767345 9.933525 -179.852653
8.688030 10.003468 -179.854019
8.608715 10.073411 -179.855385
8.466935 10.062850 -179.859174
8.387620 10.132793 -179.860540
8.245840 10.122231 -179.864329
8.104060 10.111670 -179.868118
8.024745 10.181613 -179.869484
7.882964 10.171051 -179.873274
7.803650 10.240994 -179.874640
7.661869 10.230433 -179.878429
7.520089 10.219871 -179.882218
7.315843 10.128805 -179.888430
7.236528 10.198748 -179.889796
7.094748 10.188186 -179.893585
7.015433 10.258129 -179.894951
6.936118 10.328072 -179.896317
6.794338 10.317511 -179.900107
6.652558 10.306949 -179.903896
6.573243 10.376892 -179.905262
6.431463 10.366331 -179.909051
6.352148 10.436274 -179.910417
6.210368 10.425712 -179.914206
6.131053 10.495655 -179.915572
5.989272 10.485094 -179.919361
5.785027 10.394027 -179.925573
5.643246 10.383466 -179.929363
5.501466 10.372904 -179.933152
5.359686 10.362342 -179.936941
5.155440 10.271276 -179.943153
4.888728 10.099705 -179.951788
4.809414 10.169648 -179.953154
4.667633 10.159086 -179.956944
4.525853 10.148525 -179.960733
4.384073 10.137963 -179.964522
4.179827 10.046897 -179.970734
3.975581 9.955830 -179.976946
12.010080 8.395580 -179.787249
11.934109 8.618399 -179.783768
11.858137 8.841218 -179.780288
11.796010 9.164989 -179.774385
11.692350 9.185904 -179.775751
11.588690 9.206819 -179.777117
11.485030 9.227734 -179.778483
11.381369 9.248649 -179.779849
11.277709 9.269564 -179.781215
11.174049 9.290479 -179.782581
11.084233 9.412346 -179.781524
10.980573 9.433261 -179.782890
10.876913 9.454177 -179.784256
10.773253 9.475092 -179.785622
10.669593 9.496007 -179.786988
10.565932 9.516922 -179.788354
10.476117 9.638789 -179.787297
10.372456 9.659704 -179.788663
10.268796 9.680619 -179.790029
10.165136 9.701534 -179.791395
10.061476 9.722450 -179.792761
9.957816 9.743365 -179.794127
9.854156 9.764280 -179.795493
9.750495 9.785195 -179.796859
9.660680 9.907062 -179.795802
9.557019 9.927977 -179.797168
9.467204 10.049844 -179.796111
9.377388 10.171711 -179.795054
9.273728 10.192626 -179.796420
9.170068 10.213541 -179.797786
9.066407 10.234457 -179.799152
8.962747 10.255372 -179.800518
8.859087 10.276287 -179.801884
8.755427 10.297202 -179.803250
8.665611 10.419069 -179.802193
8.561951 10.439984 -179.803559
8.458291 10.460899 -179.804925
8.368475 10.582766 -179.803868
8.264815 10.603681 -179.805234
8.161155 10.624597 -179.806600
8.057494 10.645512 -179.807966
7.953834 10.666427 -179.809332
7.850174 10.687342 -179.810698
7.732670 10.607305 -179.814487
7.629009 10.628220 -179.815853
7.511505 10.548184 -179.819642
7.421689 10.670051 -179.818585
7.318029 10.690966 -179.819951
7.214369 10.711881 -179.821317
7.110709 10.732796 -179.822683
7.020893 10.854663 -179.821626
6.931077 10.976530 -179.820569
6.827417 10.997445 -179.821935
6.723757 11.018360 -179.823301
6.620096 11.039276 -179.824667
6.516436 11.060191 -179.826033
6.398932 10.980154 -179.829822
6.281427 10.900117 -179.833611
6.177767 10.921032 -179.834977
6.060263 10.840995 -179.838766
5.956603 10.861911 -179.840132
5.866787 10.983778 -179.839075
5.763127 11.004693 -179.840441
5.659466 11.025608 -179.841807
5.541962 10.945571 -179.845596
5.410613 10.764582 -179.851809
5.293109 10.684546 -179.855598
5.189448 10.705461 -179.856964
5.085788 10.726376 -179.858330
4.982128 10.747291 -179.859696
4.878468 10.768206 -179.861062
4.774808 10.789121 -179.862428
4.657303 10.709084 -179.866217
4.553643 10.730000 -179.867583
4.449983 10.750915 -179.868949
4.332479 10.670878 -179.872738
4.228818 10.691793 -179.874104
4.111314 10.611756 -179.877893
3.993809 10.531720 -179.881682
3.876305 10.451683 -179.885471
3.758800 10.371646 -179.889261
3.641296 10.291609 -179.893050
3.537636 10.312524 -179.894416
3.420131 10.232488 -179.898205
3.302627 10.152451 -179.901994
3.198967 10.173366 -179.903360
3.095306 10.194281 -179.904726
2.991646 10.215196 -179.906092
2.887986 10.236111 -179.907458
2.784326 10.257026 -179.908824
2.680666 10.277942 -179.910190
2.563161 10.197905 -179.913979
2.459501 10.218820 -179.915345
2.328152 10.037831 -179.921558
2.196804 9.856842 -179.927770
2.093143 9.877758 -179.929136
1.989483 9.898673 -179.930502
1.885823 9.919588 -179.931868
1.768319 9.839551 -179.935657
1.650814 9.759514 -179.939446
1.533310 9.679478 -179.943235
1.415805 9.599441 -179.947024
1.298301 9.519404 -179.950814
1.180796 9.439367 -179.954603
1.049447 9.258378 -179.960815
0.931943 9.178342 -179.964604
0.828283 9.199257 -179.965970
0.710778 9.119220 -179.969759
0.593274 9.039183 -179.973548
0.475769 8.959146 -179.977338
0.358265 8.879110 -179.981127
0.240760 8.799073 -179.984916
0.137100 8.819988 -179.986282
0.005751 8.638999 -179.992494
9.647075 10.142482 -179.858219
9.508359 10.203114 -179.857162
9.369643 10.263746 -179.856105
9.269413 10.230029 -179.857471
9.169183 10.196312 -179.858837
9.030466 10.256945 -179.857780
8.891750 10.317577 -179.856723
8.753034 10.378209 -179.855666
8.652804 10.344492 -179.857032
8.552574 10.310775 -179.858398
8.413858 10.371407 -179.857341
8.313628 10.337690 -179.858707
8.213398 10.303973 -179.860073
8.074682 10.364605 -179.859016
7.974452 10.330888 -179.860382
7.835735 10.391520 -179.859325
7.543074 10.829549 -179.848575
7.442844 10.795832 -179.849941
7.304127 10.856464 -179.848884
7.165411 10.917096 -179.847827
7.065181 10.883379 -179.849193
6.964951 10.849662 -179.850559
6.826235 10.910294 -179.849502
6.687519 10.970926 -179.848445
6.548802 11.031558 -179.847388
6.448572 10.997841 -179.848754
6.309856 11.058473 -179.847696
6.209626 11.024756 -179.849062
6.109396 10.991039 -179.850428
6.009166 10.957322 -179.851794
5.908936 10.923605 -179.853160
5.808706 10.889888 -179.854527
5.708477 10.856171 -179.855893
5.569760 10.916803 -179.854835
5.469530 10.883086 -179.856201
5.330814 10.943719 -179.855144
5.192098 11.004351 -179.854087
5.091868 10.970634 -179.855453
4.991638 10.936917 -179.856819
4.852922 10.997549 -179.855762
4.752692 10.963832 -179.857128
4.652462 10.930115 -179.858494
4.552232 10.896398 -179.859860
4.413516 10.957030 -179.858803
4.313286 10.923313 -179.860169
4.213056 10.889596 -179.861535
4.112826 10.855879 -179.862901
4.012596 10.822162 -179.864267
3.912366 10.788445 -179.865633
3.850622 10.660379 -179.869422
3.750392 10.626662 -179.870788
3.650163 10.592945 -179.872154
3.511446 10.653577 -179.871097
3.411216 10.619860 -179.872463
3.310986 10.586143 -179.873829
3.210756 10.552426 -179.875195
3.072040 10.613058 -179.874138
2.971810 10.579341 -179.875504
2.871580 10.545624 -179.876870
2.771350 10.511907 -179.878236
2.632634 10.572539 -179.877179
2.532404 10.538822 -179.878545
2.432174 10.505105 -179.879911
2.331944 10.471388 -179.881277
2.231714 10.437671 -179.882643
2.169971 10.309605 -179.886432
2.069741 10.275888 -179.887798
1.969511 10.242171 -179.889164
1.869281 10.208454 -179.890530
1.769051 10.174737 -179.891896
1.707308 10.046671 -179.895686
1.607078 10.012954 -179.897052
1.506848 9.979237 -179.898418
1.406618 9.945520 -179.899784
1.306388 9.911803 -179.901150
1.244644 9.783737 -179.904939
1.182901 9.655671 -179.908728
1.082671 9.621954 -179.910094
0.982441 9.588237 -179.911460
0.843725 9.648869 -179.910403
0.743495 9.615152 -179.911769
0.681751 9.487086 -179.915558
0.581521 9.453369 -179.916924
0.481291 9.419652 -179.918290
0.381061 9.385935 -179.919656
0.319318 9.257869 -179.923445
0.257574 9.129802 -179.927234
0.157344 9.096085 -179.928600
0.057115 9.062368 -179.929966
-0.043115 9.028651 -179.931332
-0.104859 8.900585 -179.935121
-0.205089 8.866868 -179.936487
-0.305319 8.833151 -179.937853
-0.405549 8.799434 -179.939220
-0.505779 8.765717 -179.940586
-0.606009 8.732000 -179.941952
-0.667752 8.603934 -179.945741
-0.729496 8.475868 -179.949530
-0.752753 8.253453 -179.955742
2.640738 11.033354 -179.918715
2.570795 10.954039 -179.920081
2.420347 10.937190 -179.919024
2.269899 10.920341 -179.917967
2.119451 10.903492 -179.916910
1.969003 10.886643 -179.915853
1.818555 10.869794 -179.914796
1.748612 10.790479 -179.916162
1.678669 10.711164 -179.917528
1.528221 10.694315 -179.916471
1.458278 10.615001 -179.917837
1.307830 10.598151 -179.916780
1.157382 10.581302 -179.915722
1.006935 10.564453 -179.914665
0.936991 10.485138 -179.916031
0.867048 10.405824 -179.917397
0.797105 10.326509 -179.918763
0.646657 10.309660 -179.917706
0.576714 10.230345 -179.919072
0.506771 10.151031 -179.920438
0.436828 10.071716 -179.921804
0.286380 10.054867 -179.920747
0.216437 9.975552 -179.922113
0.065989 9.958703 -179.921056
-0.084459 9.941854 -179.919999
-0.154402 9.862539 -179.921365
-0.224345 9.783224 -179.922731
-0.294288 9.703910 -179.924097
-0.364232 9.624595 -179.925463
-0.434175 9.545280 -179.926829
-0.504118 9.465966 -179.928195
-0.574061 9.386651 -179.929561
-0.644004 9.307336 -179.930927
-0.713947 9.228022 -179.932293
-0.864395 9.211172 -179.931236
-0.934338 9.131858 -179.932602
-1.004281 9.052543 -179.933968
-1.154729 9.035694 -179.932911
-1.224672 8.956379 -179.934277
-1.294616 8.877065 -179.935643
-1.445063 8.860215 -179.934586
-1.515007 8.780901 -179.935952
-1.584950 8.701586 -179.937318
-1.654893 8.622271 -179.938684
-1.724836 8.542957 -179.940050
-1.714275 8.401176 -179.943839
-1.784218 8.321862 -179.945205
-1.854161 8.242547 -179.946571
-1.924104 8.163232 -179.947937
-1.994047 8.083918 -179.949303
-1.983486 7.942137 -179.953092
-2.053429 7.862823 -179.954458
-2.123372 7.783508 -179.955824
-2.193315 7.704193 -179.957190
-2.343763 7.687344 -179.956133
-2.413706 7.608030 -179.957499
-2.483649 7.528715 -179.958865
-2.473088 7.386935 -179.962654
-2.543031 7.307620 -179.964020
-2.612974 7.228305 -179.965386
-2.763422 7.211456 -179.964329
-2.833365 7.132141 -179.965695
-2.903308 7.052827 -179.967061
-2.973251 6.973512 -179.968427
-3.043195 6.894197 -179.969793
-3.113138 6.814883 -179.971159
-3.183081 6.735568 -179.972525
-3.253024 6.656253 -179.973891
-3.322967 6.576939 -179.975257
-3.392910 6.497624 -179.976623
-3.462853 6.418309 -179.977989
-3.452292 6.276529 -179.981779
-3.522235 6.197214 -179.983145
-3.592178 6.117900 -179.984511
-3.662121 6.038585 -179.985877
-3.732065 5.959270 -179.987243
-3.882512 5.942421 -179.986186
-3.952456 5.863106 -179.987552
-4.022399 5.783792 -179.988918
-4.092342 5.704477 -179.990284
-4.162285 5.625162 -179.991650
-4.232228 5.545848 -179.993016
-4.302171 5.466533 -179.994382
-4.372115 5.387218 -179.995748
-4.442058 5.307904 -179.997114
-4.512001 5.228589 -179.998480
-4.581944 5.149274 -179.999846
-4.571382 5.007494 -180.003635
-4.641326 4.928179 -180.005001
-4.711269 4.848865 -180.006367
-4.781212 4.769550 -180.007733
-4.851155 4.690235 -180.009099
-4.921098 4.610921 -180.010465
-4.991041 4.531606 -180.011831
-5.060985 4.452291 -180.013197
-5.130928 4.372977 -180.014563
-5.120366 4.231196 -180.018352
-5.109805 4.089416 -180.022141
-5.179748 4.010101 -180.023507
-5.249691 3.930787 -180.024873
-5.319634 3.851472 -180.026239
-5.309073 3.709692 -180.030028
-5.379016 3.630377 -180.031394
-5.448959 3.551062 -180.032761
-5.438397 3.409282 -180.036550
-5.427836 3.267502 -180.040339
-5.191312 4.752835 -179.983714
-5.313179 4.663019 -179.982657
-5.435046 4.573204 -179.981600
-5.455961 4.469543 -179.982966
-5.577828 4.379728 -179.981909
-5.598743 4.276067 -179.983275
-5.619659 4.172407 -179.984641
-5.741526 4.082591 -179.983584
-5.762441 3.978931 -179.984950
-5.884308 3.889115 -179.983893
-5.905223 3.785455 -179.985259
-5.825186 3.667951 -179.989048
-5.846101 3.564291 -179.990414
-5.867016 3.460631 -179.991780
-5.988883 3.370815 -179.990723
-6.009799 3.267155 -179.992089
-6.131666 3.177339 -179.991032
-6.152581 3.073679 -179.992398
-6.173496 2.970018 -179.993764
-6.295363 2.880203 -179.992707
-6.316278 2.776542 -179.994073
-6.337193 2.672882 -179.995439
-6.358108 2.569222 -179.996805
-6.379023 2.465562 -179.998171
-6.399939 2.361902 -179.999537
-6.521806 2.272086 -179.998480
-6.542721 2.168426 -179.999846
-6.462684 2.050921 -180.003635
-6.483599 1.947261 -180.005001
-6.504514 1.843601 -180.006367
-6.525429 1.739941 -180.007733
-6.546344 1.636281 -180.009099
-6.466308 1.518776 -180.012888
-6.487223 1.415116 -180.014254
-6.508138 1.311456 -180.015620
-6.428101 1.193951 -180.019409
-6.449016 1.090291 -180.020775
-6.469931 0.986631 -180.022141
-6.490847 0.882971 -180.023507
-6.410810 0.765466 -180.027296
-6.431725 0.661806 -180.028662
-6.452640 0.558146 -180.030028
-6.372603 0.440642 -180.033818
-6.393518 0.336981 -180.035184
-6.414434 0.233321 -180.036550
-6.334397 0.115817 -180.040339
-6.355312 0.012157 -180.041705
-6.275275 -0.105348 -180.045494
-6.296190 -0.209008 -180.046860
-6.216153 -0.326513 -180.050649
-6.643301 2.753641 -179.984593
-6.703933 2.614925 -179.983536
-6.670216 2.514695 -179.984902
-6.730848 2.375978 -179.983845
-6.697131 2.275749 -179.985211
-7.229509 1.944600 -179.972038
-7.290141 1.805884 -179.970981
-7.256424 1.705654 -179.972347
-7.222707 1.605424 -179.973713
-7.188990 1.505194 -179.975079
-7.249622 1.366478 -179.974022
-7.215905 1.266248 -179.975388
-7.182188 1.166018 -179.976754
-7.148471 1.065788 -179.978120
-7.114754 0.965558 -179.979486
-7.175386 0.826842 -179.978429
-7.141669 0.726612 -179.979795
-7.107952 0.626382 -179.981161
-7.074235 0.526152 -179.982527
-7.040518 0.425922 -179.983893
-7.006801 0.325692 -179.985259
-6.973084 0.225463 -179.986625
-7.033716 0.086746 -179.985568
-6.999999 -0.013484 -179.986934
-6.966282 -0.113714 -179.988300
-7.026914 -0.252430 -179.987243
-6.993197 -0.352660 -179.988609
-6.959480 -0.452890 -179.989975
-6.925763 -0.553120 -179.991341
-6.797697 -0.614863 -179.995130
-6.763980 -0.715093 -179.996496
-6.730263 -0.815323 -179.997862
-6.696546 -0.915553 -179.999228
-6.662829 -1.015783 -180.000594
-6.629112 -1.116013 -180.001960
-6.595395 -1.216243 -180.003326
-6.561678 -1.316473 -180.004692
-6.527961 -1.416703 -180.006058
-6.494244 -1.516933 -180.007424
-6.460527 -1.617162 -180.008790
-6.426810 -1.717392 -180.010156
-6.393093 -1.817622 -180.011522
-6.359376 -1.917852 -180.012888
-6.325659 -2.018082 -180.014254
-6.291942 -2.118312 -180.015620
-6.258225 -2.218542 -180.016986
-6.224508 -2.318772 -180.018352
-6.190791 -2.419002 -180.019718
-6.062725 -2.480745 -180.023507
-6.029008 -2.580975 -180.024873
-5.995291 -2.681205 -180.026239
-5.961574 -2.781435 -180.027605
-5.927857 -2.881665 -180.028971
-5.894140 -2.981895 -180.030337
-5.766074 -3.043639 -180.034127
-5.732357 -3.143868 -180.035493
-5.698640 -3.244098 -180.036859
-5.664923 -3.344328 -180.038225
-5.631206 -3.444558 -180.039591
-5.597489 -3.544788 -180.040957
-5.563772 -3.645018 -180.042323
-5.530055 -3.745248 -180.043689
-5.401989 -3.806992 -180.047478
-5.368272 -3.907222 -180.048844
-5.334555 -4.007451 -180.050210
-5.300838 -4.107681 -180.051576
-5.267121 -4.207911 -180.052942
-5.233404 -4.308141 -180.054308
-5.105338 -4.369885 -180.058097
-5.071621 -4.470115 -180.059463
-5.037904 -4.570345 -180.060829
-5.004187 -4.670575 -180.062195
-4.970470 -4.770804 -180.063561
-4.936753 -4.871034 -180.064927
-4.808687 -4.932778 -180.068716
-4.774970 -5.033008 -180.070082
-4.741253 -5.133238 -180.071448
-4.707536 -5.233468 -180.072814
-4.673819 -5.333698 -180.074180
-4.545753 -5.395441 -180.077969
-4.512036 -5.495671 -180.079335
-4.478319 -5.595901 -180.080701
-4.350253 -5.657645 -180.084491
-4.316536 -5.757874 -180.085857
-4.188469 -5.819618 -180.089646
-4.154752 -5.919848 -180.091012
-4.026686 -5.981591 -180.094801
-3.992969 -6.081821 -180.096167
-3.864903 -6.143565 -180.099956
-3.831186 -6.243795 -180.101322
-3.797469 -6.344025 -180.102688
-3.763752 -6.444255 -180.104054
-3.730035 -6.544485 -180.105420
-3.696318 -6.644715 -180.106786
-3.662601 -6.744944 -180.108152
-3.628884 -6.845174 -180.109518
-3.500818 -6.906918 -180.113307
-3.467101 -7.007148 -180.114673
-3.433384 -7.107378 -180.116039
-3.399667 -7.207608 -180.117405
-3.365950 -7.307838 -180.118771
-3.332233 -7.408068 -180.120137
-3.204167 -7.469811 -180.123927
-3.170450 -7.570041 -180.125293
-3.042384 -7.631785 -180.129082
-3.008667 -7.732014 -180.130448
-2.974950 -7.832244 -180.131814
-2.941233 -7.932474 -180.133180
-2.813167 -7.994218 -180.136969
-2.779450 -8.094448 -180.138335
-2.745733 -8.194678 -180.139701
-2.712016 -8.294908 -180.141067
-2.583950 -8.356651 -180.144856
-2.550233 -8.456881 -180.146222
-2.516516 -8.557111 -180.147588
-2.482799 -8.657341 -180.148954
-2.449082 -8.757571 -180.150320
-2.415365 -8.857801 -180.151686
-2.381648 -8.958031 -180.153052
-2.347931 -9.058261 -180.154418
-2.314214 -9.158491 -180.155784
-2.186148 -9.220234 -180.159573
-2.152431 -9.320464 -180.160939
-2.024364 -9.382208 -180.164728
-1.990647 -9.482438 -180.166095
-1.956930 -9.582667 -180.167461
-1.828864 -9.644411 -180.171250
-1.795147 -9.744641 -180.172616
-1.761430 -9.844871 -180.173982
-1.727713 -9.945101 -180.175348
-1.599647 -10.006844 -180.179137
-1.565930 -10.107074 -180.180503
-1.437864 -10.168818 -180.184292
-1.309798 -10.230561 -180.188081
-1.276081 -10.330791 -180.189447
-1.148015 -10.392535 -180.193236
-1.114298 -10.492765 -180.194602
-0.986232 -10.554508 -180.198391
-0.763817 -10.577765 -180.204604
-0.635750 -10.639509 -180.208393
-0.224637 -10.585793 -180.219451
-0.096571 -10.647537 -180.223241
-0.062854 -10.747767 -180.224607
-0.029137 -10.847997 -180.225973
0.004580 -10.948227 -180.227339
0.038297 -11.048457 -180.228705
0.072014 -11.148687 -180.230071
0.200080 -11.210430 -180.233860
0.328146 -11.272174 -180.237649
0.456212 -11.333917 -180.241438
-6.892141 -1.146754 -179.988691
-6.875292 -1.297202 -179.987634
-6.858443 -1.447650 -179.986577
-6.779128 -1.517593 -179.987943
-6.699814 -1.587536 -179.989309
-6.620499 -1.657479 -179.990675
-6.603650 -1.807927 -179.989618
-6.524335 -1.877870 -179.990984
-6.507486 -2.028318 -179.989927
-6.490637 -2.178766 -179.988869
-6.473788 -2.329214 -179.987812
-6.394473 -2.399157 -179.989178
-6.377624 -2.549605 -179.988121
-6.298309 -2.619548 -179.989487
-6.218995 -2.689491 -179.990853
-6.139680 -2.759434 -179.992219
-6.060365 -2.829378 -179.993585
-5.981050 -2.899321 -179.994951
-5.901736 -2.969264 -179.996317
-5.884887 -3.119712 -179.995260
-5.868037 -3.270160 -179.994203
-5.851188 -3.420607 -179.993146
-5.771874 -3.490551 -179.994512
-5.755025 -3.640998 -179.993455
-5.675710 -3.710942 -179.994821
-5.596395 -3.780885 -179.996187
-5.579546 -3.931333 -179.995130
-5.500231 -4.001276 -179.996496
-5.483382 -4.151724 -179.995439
-5.466533 -4.302171 -179.994382
-5.387218 -4.372115 -179.995748
-5.370369 -4.522562 -179.994691
-5.291055 -4.592506 -179.996057
-5.274205 -4.742953 -179.994999
-5.194891 -4.812897 -179.996366
-5.115576 -4.882840 -179.997732
-5.036261 -4.952783 -179.999098
-5.019412 -5.103231 -179.998040
-4.940097 -5.173174 -179.999406
-4.860783 -5.243117 -180.000772
-4.843934 -5.393565 -179.999715
-4.764619 -5.463508 -180.001081
-4.685304 -5.533451 -180.002447
-4.605990 -5.603394 -180.003813
-4.526675 -5.673337 -180.005179
-4.447360 -5.743281 -180.006545
-4.430511 -5.893728 -180.005488
-4.413662 -6.044176 -180.004431
-4.396813 -6.194624 -180.003374
-4.317498 -6.264567 -180.004740
-4.238183 -6.334510 -180.006106
-4.158869 -6.404454 -180.007472
-4.079554 -6.474397 -180.008838
-4.062705 -6.624845 -180.007781
-3.983390 -6.694788 -180.009147
-3.966541 -6.845236 -180.008090
-3.887226 -6.915179 -180.009456
-3.807912 -6.985122 -180.010822
-3.791063 -7.135570 -180.009765
-3.711748 -7.205513 -180.011131
-3.632433 -7.275456 -180.012497
-3.553118 -7.345399 -180.013863
-3.536269 -7.495847 -180.012806
-3.456955 -7.565790 -180.014172
-3.440106 -7.716238 -180.013115
-3.360791 -7.786181 -180.014481
-3.281476 -7.856124 -180.015847
-3.202161 -7.926068 -180.017213
-3.122847 -7.996011 -180.018579
-3.043532 -8.065954 -180.019945
-2.964217 -8.135897 -180.021311
-2.947368 -8.286345 -180.020254
-2.868054 -8.356288 -180.021620
-2.788739 -8.426231 -180.022986
-2.771890 -8.576679 -180.021929
-2.692575 -8.646622 -180.023295
-2.613260 -8.716565 -180.024661
-2.596411 -8.867013 -180.023604
-2.517097 -8.936956 -180.024970
-2.437782 -9.006899 -180.026336
-2.420933 -9.157347 -180.025279
-2.341618 -9.227290 -180.026645
-2.262303 -9.297234 -180.028011
-2.245454 -9.447681 -180.026953
-2.166140 -9.517625 -180.028319
-2.086825 -9.587568 -180.029685
-2.007510 -9.657511 -180.031051
-1.928195 -9.727454 -180.032417
-1.848881 -9.797397 -180.033784
-1.707101 -9.786836 -180.037573
-1.627786 -9.856779 -180.038939
-1.610937 -10.007227 -180.037882
-1.531622 -10.077170 -180.039248
-1.452307 -10.147113 -180.040614
-1.435458 -10.297561 -180.039556
-1.356144 -10.367504 -180.040923
-1.276829 -10.437447 -180.042289
-1.197514 -10.507390 -180.043655
-1.118199 -10.577334 -180.045021
-1.038885 -10.647277 -180.046387
-0.959570 -10.717220 -180.047753
-0.942721 -10.867668 -180.046695
-0.863406 -10.937611 -180.048061
-0.784092 -11.007554 -180.049428
-0.767242 -11.158002 -180.048370
-0.687928 -11.227945 -180.049736
-0.608613 -11.297888 -180.051102
-0.529298 -11.367831 -180.052468
-0.449984 -11.437774 -180.053834
-0.308203 -11.427213 -180.057624
-0.228889 -11.497156 -180.058990
-0.149574 -11.567099 -180.060356
-0.070259 -11.637042 -180.061722
0.009055 -11.706986 -180.063088
0.088370 -11.776929 -180.064454
0.167685 -11.846872 -180.065820
0.246999 -11.916815 -180.067186
0.326314 -11.986758 -180.068552
0.405629 -12.056701 -180.069918
0.484943 -12.126644 -180.071284
0.564258 -12.196588 -180.072650
0.706038 -12.186026 -180.076439
0.847819 -12.175465 -180.080228
0.927133 -12.245408 -180.081594
1.006448 -12.315351 -180.082960
1.085763 -12.385294 -180.084326
1.165077 -12.455237 -180.085692
1.244392 -12.525180 -180.087058
1.323707 -12.595124 -180.088424
1.403021 -12.665067 -180.089790
1.482336 -12.735010 -180.091156
1.561651 -12.804953 -180.092522
1.703431 -12.794391 -180.096311
1.782746 -12.864335 -180.097677
1.862060 -12.934278 -180.099043
1.941375 -13.004221 -180.100409
2.020690 -13.074164 -180.101775
2.162470 -13.063603 -180.105565
2.241785 -13.133546 -180.106931
2.321099 -13.203489 -180.108297
2.400414 -13.273432 -180.109663
2.479729 -13.343375 -180.111029
2.559043 -13.413318 -180.112395
2.700824 -13.402757 -180.116184
2.780138 -13.472700 -180.117550
2.859453 -13.542643 -180.118916
3.001233 -13.532082 -180.122705
3.080548 -13.602025 -180.124071
3.159863 -13.671968 -180.125437
3.239177 -13.741911 -180.126803
3.380957 -13.731350 -180.130592
3.522738 -13.720788 -180.134381
3.664518 -13.710227 -180.138170
3.806298 -13.699665 -180.141960
3.948078 -13.689103 -180.145749
4.027393 -13.759047 -180.147115
4.169173 -13.748485 -180.150904
4.310954 -13.737924 -180.154693
4.515199 -13.646857 -180.160905
-3.281343 -7.666859 -179.956051
-3.191528 -7.788726 -179.954994
-3.101712 -7.910594 -179.953937
-2.998052 -7.931509 -179.955303
-2.935924 -8.255280 -179.949399
-2.846109 -8.377147 -179.948342
-2.756293 -8.499014 -179.947285
-2.652633 -8.519929 -179.948651
-2.548972 -8.540844 -179.950017
-2.445312 -8.561759 -179.951383
-2.355496 -8.683626 -179.950326
-2.279525 -8.906445 -179.946846
-2.203553 -9.129264 -179.943366
-2.127582 -9.352083 -179.939885
-2.037766 -9.473950 -179.938828
-1.947950 -9.595817 -179.937771
-1.858134 -9.717684 -179.936714
-1.768319 -9.839551 -179.935657
-1.678503 -9.961418 -179.934600
-1.588687 -10.083285 -179.933543
-1.498871 -10.205152 -179.932486
-1.395211 -10.226067 -179.933852
-1.305395 -10.347934 -179.932795
-1.201735 -10.368850 -179.934161
-1.111919 -10.490717 -179.933104
-1.022103 -10.612584 -179.932046
-0.932287 -10.734451 -179.930989
-0.842472 -10.856318 -179.929932
-0.752656 -10.978185 -179.928875
-0.648996 -10.999100 -179.930241
-0.559180 -11.120967 -179.929184
-0.455520 -11.141882 -179.930550
-0.365704 -11.263749 -179.929493
-0.262044 -11.284664 -179.930859
-0.172228 -11.406531 -179.929802
-0.068568 -11.427446 -179.931168
0.035092 -11.448362 -179.932534
0.111064 -11.671181 -179.929054
0.200880 -11.793048 -179.927997
0.290696 -11.914915 -179.926939
0.394356 -11.935830 -179.928305
0.498016 -11.956745 -179.929671
0.601676 -11.977660 -179.931037
0.691492 -12.099527 -179.929980
0.781308 -12.221394 -179.928923
0.884968 -12.242309 -179.930289
0.974784 -12.364176 -179.929232
1.078444 -12.385091 -179.930598
1.168260 -12.506958 -179.929541
1.271920 -12.527874 -179.930907
1.375580 -12.548789 -179.932273
1.465396 -12.670656 -179.931216
1.569056 -12.691571 -179.932582
1.672716 -12.712486 -179.933948
1.762532 -12.834353 -179.932891
1.866192 -12.855268 -179.934257
1.956008 -12.977135 -179.933200
2.059668 -12.998050 -179.934566
2.163328 -13.018965 -179.935932
2.253144 -13.140833 -179.934875
2.356804 -13.161748 -179.936241
2.460465 -13.182663 -179.937607
2.564125 -13.203578 -179.938973
2.653941 -13.325445 -179.937916
2.757601 -13.346360 -179.939282
2.847417 -13.468227 -179.938225
2.951077 -13.489142 -179.939591
3.040893 -13.611009 -179.938533
3.144553 -13.631924 -179.939899
3.248213 -13.652840 -179.941266
3.338029 -13.774707 -179.940208
3.441689 -13.795622 -179.941574
3.545349 -13.816537 -179.942940
3.649009 -13.837452 -179.944306
3.738825 -13.959319 -179.943249
3.842485 -13.980234 -179.944615
3.946145 -14.001149 -179.945981
4.049805 -14.022064 -179.947347
4.139621 -14.143931 -179.946290
4.243281 -14.164847 -179.947656
4.360786 -14.084810 -179.951445
4.464446 -14.105725 -179.952811
4.568106 -14.126640 -179.954177
4.671766 -14.147555 -179.955543
4.775427 -14.168470 -179.956910
4.879087 -14.189385 -179.958276
4.982747 -14.210301 -179.959642
5.100251 -14.130264 -179.963431
5.203912 -14.151179 -179.964797
5.307572 -14.172094 -179.966163
5.411232 -14.193009 -179.967529
5.514892 -14.213924 -179.968895
5.618552 -14.234839 -179.970261
5.722212 -14.255755 -179.971627
5.839717 -14.175718 -179.975416
5.957221 -14.095681 -179.979205
6.074726 -14.015644 -179.982994
6.178386 -14.036559 -179.984360
6.295890 -13.956523 -179.988149
6.399551 -13.977438 -179.989515
6.517055 -13.897401 -179.993305
6.620715 -13.918316 -179.994671
6.738220 -13.838279 -179.998460
6.841880 -13.859194 -179.999826
6.959384 -13.779158 -180.003615
7.076889 -13.699121 -180.007404
7.208238 -13.518132 -180.013616
7.339586 -13.337144 -180.019828
7.457091 -13.257107 -180.023618
7.588440 -13.076118 -180.029830
7.705944 -12.996081 -180.033619
7.823449 -12.916044 -180.037408
7.954798 -12.735056 -180.043620
8.113835 -12.352163 -180.054679
8.231340 -12.272126 -180.058468
8.335000 -12.293042 -180.059834
8.452504 -12.213005 -180.063623
8.583853 -12.032016 -180.069836
8.701357 -11.951979 -180.073625
8.818862 -11.871943 -180.077414
8.950211 -11.690954 -180.083626
9.095404 -11.409013 -180.092261
9.212908 -11.328976 -180.096051
9.316569 -11.349892 -180.097417
9.434073 -11.269855 -180.101206
9.537733 -11.290770 -180.102572
9.641393 -11.311685 -180.103938
9.758898 -11.231648 -180.107727
9.876402 -11.151612 -180.111516
10.007751 -10.970623 -180.117728
10.139100 -10.789634 -180.123941
10.242760 -10.810549 -180.125307
10.346420 -10.831464 -180.126673
10.463925 -10.751428 -180.130462
10.567585 -10.772343 -180.131828
10.671245 -10.793258 -180.133194
10.774905 -10.814173 -180.134560
10.878565 -10.835088 -180.135926
10.996070 -10.755051 -180.139715
11.113574 -10.675015 -180.143504
11.217235 -10.695930 -180.144870
11.348583 -10.514941 -180.151082
11.493777 -10.233000 -180.159718
11.611281 -10.152964 -180.163507
11.811851 -9.467215 -180.181835
11.929356 -9.387179 -180.185624
12.046860 -9.307142 -180.189413
12.178209 -9.126153 -180.195625
12.309558 -8.945164 -180.201838
12.427063 -8.865128 -180.205627
1.074220 -12.115257 -179.851060
1.251422 -12.270238 -179.847580
1.390139 -12.330870 -179.846523
1.605828 -12.580201 -179.840620
1.783030 -12.735182 -179.837139
1.921747 -12.795814 -179.836082
2.060463 -12.856446 -179.835025
2.160693 -12.822729 -179.836391
2.299409 -12.883361 -179.835334
2.438125 -12.943993 -179.834277
2.576842 -13.004626 -179.833220
2.754044 -13.159607 -179.829740
2.892761 -13.220239 -179.828683
3.031477 -13.280871 -179.827625
3.170193 -13.341503 -179.826568
3.308910 -13.402135 -179.825511
3.447626 -13.462767 -179.824454
3.586342 -13.523399 -179.823397
3.725058 -13.584032 -179.822340
3.863775 -13.644664 -179.821283
4.002491 -13.705296 -179.820226
4.141207 -13.765928 -179.819169
4.279924 -13.826560 -179.818111
4.418640 -13.887192 -179.817054
4.557356 -13.947824 -179.815997
4.657586 -13.914107 -179.817363
4.796302 -13.974739 -179.816306
4.896532 -13.941022 -179.817672
4.996762 -13.907305 -179.819038
5.135479 -13.967937 -179.817981
5.235709 -13.934220 -179.819347
5.374425 -13.994853 -179.818290
5.474655 -13.961136 -179.819656
5.613371 -14.021768 -179.818599
5.713601 -13.988051 -179.819965
5.813831 -13.954334 -179.821331
5.952547 -14.014966 -179.820274
6.052777 -13.981249 -179.821640
6.153007 -13.947532 -179.823006
6.253237 -13.913815 -179.824372
6.353467 -13.880098 -179.825738
6.453697 -13.846381 -179.827104
6.553927 -13.812664 -179.828470
6.654157 -13.778947 -179.829836
6.754387 -13.745230 -179.831202
6.816130 -13.617164 -179.834991
6.916360 -13.583447 -179.836357
7.016590 -13.549730 -179.837723
7.116820 -13.516013 -179.839089
7.217050 -13.482296 -179.840455
7.317280 -13.448579 -179.841821
7.417510 -13.414862 -179.843187
7.479253 -13.286796 -179.846976
7.579483 -13.253079 -179.848342
7.679713 -13.219362 -179.849708
7.779943 -13.185645 -179.851074
7.880173 -13.151928 -179.852440
7.980403 -13.118211 -179.853806
8.080633 -13.084494 -179.855172
8.142376 -12.956427 -179.858962
8.242606 -12.922710 -179.860328
8.342836 -12.888993 -179.861694
8.404580 -12.760927 -179.865483
8.466323 -12.632861 -179.869272
8.566553 -12.599144 -179.870638
8.628297 -12.471078 -179.874427
8.728527 -12.437361 -179.875793
8.790270 -12.309295 -179.879582
8.813527 -12.086880 -179.885794
8.875271 -11.958814 -179.889584
8.975501 -11.925097 -179.890950
9.075731 -11.891380 -179.892316
9.175961 -11.857663 -179.893682
9.276191 -11.823946 -179.895048
9.376420 -11.790229 -179.896414
9.438164 -11.662163 -179.900203
9.538394 -11.628446 -179.901569
9.638624 -11.594729 -179.902935
9.700367 -11.466662 -179.906724
9.800597 -11.432945 -179.908090
9.900827 -11.399228 -179.909456
10.001057 -11.365511 -179.910822
10.101287 -11.331794 -179.912188
10.201517 -11.298077 -179.913554
10.301747 -11.264360 -179.914920
10.401977 -11.230643 -179.916286
10.502207 -11.196926 -179.917652
10.563950 -11.068860 -179.921441
10.664180 -11.035143 -179.922807
10.764410 -11.001426 -179.924173
10.864640 -10.967709 -179.925539
10.964870 -10.933992 -179.926905
11.065100 -10.900275 -179.928271
11.165330 -10.866558 -179.929637
11.265560 -10.832841 -179.931003
11.365790 -10.799124 -179.932369
11.466020 -10.765407 -179.933735
11.566250 -10.731690 -179.935101
11.666480 -10.697973 -179.936467
11.766709 -10.664256 -179.937833
11.828453 -10.536190 -179.941623
11.928683 -10.502473 -179.942989
12.028913 -10.468756 -179.944355
