ply
format ascii 1.0
element vertex 1517
property float x
property float y
property float z
element face 0
property list uchar uint vertex_indices
end_header
8.283974 -13.098010 -178.756510
8.353917 -13.018695 -178.757876
8.423860 -12.939381 -178.759242
8.493803 -12.860066 -178.760608
8.563747 -12.780751 -178.761974
8.714194 -12.763902 -178.760917
8.784138 -12.684588 -178.762283
8.854081 -12.605273 -178.763649
8.924024 -12.525958 -178.765015
8.993967 -12.446643 -178.766381
9.063910 -12.367329 -178.767747
9.214358 -12.350480 -178.766690
9.284301 -12.271165 -178.768056
9.354244 -12.191850 -178.769422
9.424188 -12.112536 -178.770788
9.494131 -12.033221 -178.772154
9.564074 -11.953906 -178.773520
9.634017 -11.874592 -178.774886
9.703960 -11.795277 -178.776252
9.773903 -11.715962 -178.777618
9.924351 -11.699113 -178.776561
10.074799 -11.682264 -178.775504
10.144742 -11.602949 -178.776870
10.214685 -11.523634 -178.778236
10.365133 -11.506785 -178.777179
10.435076 -11.427471 -178.778545
10.505020 -11.348156 -178.779911
10.574963 -11.268841 -178.781277
10.725411 -11.251992 -178.780220
10.795354 -11.172677 -178.781586
10.945802 -11.155828 -178.780529
11.015745 -11.076514 -178.781895
11.085688 -10.997199 -178.783261
11.155631 -10.917884 -178.784627
11.306079 -10.901035 -178.783570
11.376022 -10.821720 -178.784936
11.526470 -10.804871 -178.783879
11.596413 -10.725557 -178.785245
11.746861 -10.708707 -178.784188
11.816804 -10.629393 -178.785554
11.886747 -10.550078 -178.786920
12.037195 -10.533229 -178.785863
12.107138 -10.453914 -178.787229
12.177081 -10.374600 -178.788595
12.327529 -10.357750 -178.787538
12.397472 -10.278436 -178.788904
12.467415 -10.199121 -178.790270
12.617863 -10.182272 -178.789212
12.687806 -10.102957 -178.790578
12.918759 -10.148574 -178.787098
12.988702 -10.069259 -178.788464
13.139150 -10.052410 -178.787407
13.209093 -9.973095 -178.788773
13.279036 -9.893780 -178.790139
13.348979 -9.814466 -178.791505
13.499427 -9.797617 -178.790448
13.569370 -9.718302 -178.791814
13.639314 -9.638987 -178.793180
13.789761 -9.622138 -178.792123
13.859705 -9.542823 -178.793489
13.929648 -9.463509 -178.794855
13.999591 -9.384194 -178.796221
14.150039 -9.367345 -178.795164
14.219982 -9.288030 -178.796530
14.289925 -9.208715 -178.797896
14.359868 -9.129401 -178.799262
14.429811 -9.050086 -178.800628
14.499755 -8.970771 -178.801994
14.569698 -8.891457 -178.803360
14.639641 -8.812142 -178.804726
14.709584 -8.732827 -178.806092
14.779527 -8.653513 -178.807458
14.849470 -8.574198 -178.808824
14.919413 -8.494883 -178.810190
14.989357 -8.415569 -178.811556
15.059300 -8.336254 -178.812922
15.129243 -8.256939 -178.814288
15.199186 -8.177625 -178.815654
15.349634 -8.160775 -178.814597
15.419577 -8.081461 -178.815963
15.489520 -8.002146 -178.817329
15.559463 -7.922831 -178.818695
15.629407 -7.843517 -178.820061
15.779854 -7.826668 -178.819004
15.849798 -7.747353 -178.820370
15.919741 -7.668038 -178.821736
15.989684 -7.588723 -178.823102
15.979122 -7.446943 -178.826891
16.049066 -7.367629 -178.828257
16.119009 -7.288314 -178.829623
16.108447 -7.146534 -178.833412
16.178390 -7.067219 -178.834778
16.167829 -6.925439 -178.838568
16.237772 -6.846124 -178.839934
16.227210 -6.704344 -178.843723
16.216649 -6.562564 -178.847512
16.286592 -6.483249 -178.848878
16.356535 -6.403934 -178.850244
16.345974 -6.262154 -178.854033
16.415917 -6.182839 -178.855399
16.405355 -6.041059 -178.859188
16.394794 -5.899279 -178.862977
16.384232 -5.757499 -178.866766
16.212661 -5.490787 -178.875402
16.041090 -5.224076 -178.884037
16.030529 -5.082296 -178.887826
16.100472 -5.002981 -178.889192
7.211492 -13.765208 -178.782045
7.333359 -13.675393 -178.780988
7.455226 -13.585577 -178.779931
8.182805 -13.578827 -178.764335
8.304672 -13.489011 -178.763278
8.426539 -13.399195 -178.762221
8.447454 -13.295535 -178.763587
8.569321 -13.205719 -178.762530
8.691188 -13.115903 -178.761473
8.813055 -13.026088 -178.760416
8.934922 -12.936272 -178.759359
9.056789 -12.846456 -178.758302
9.077704 -12.742796 -178.759668
9.199571 -12.652980 -178.758611
9.220486 -12.549320 -178.759977
9.342353 -12.459504 -178.758919
9.565172 -12.383532 -178.755439
9.586088 -12.279872 -178.756805
9.707955 -12.190056 -178.755748
9.829822 -12.100241 -178.754691
10.052641 -12.024269 -178.751211
10.073556 -11.920609 -178.752577
10.195423 -11.830793 -178.751520
10.216338 -11.727133 -178.752886
10.237253 -11.623473 -178.754252
10.359120 -11.533657 -178.753195
10.380035 -11.429997 -178.754561
10.501902 -11.340181 -178.753504
10.724721 -11.264209 -178.750023
10.846588 -11.174394 -178.748966
10.968455 -11.084578 -178.747909
10.989370 -10.980918 -178.749275
11.111237 -10.891102 -178.748218
11.132153 -10.787442 -178.749584
11.556875 -10.739159 -178.741257
11.678742 -10.649343 -178.740200
11.800609 -10.559527 -178.739143
12.023428 -10.483556 -178.735663
12.145295 -10.393740 -178.734606
12.267163 -10.303924 -178.733549
12.489981 -10.227952 -178.730069
12.611849 -10.138137 -178.729011
12.733716 -10.048321 -178.727954
12.956535 -9.972349 -178.724474
13.078402 -9.882533 -178.723417
13.200269 -9.792718 -178.722360
13.322136 -9.702902 -178.721303
13.444003 -9.613086 -178.720246
13.565870 -9.523270 -178.719189
13.687737 -9.433454 -178.718132
13.809604 -9.343638 -178.717074
14.032423 -9.267667 -178.713594
14.154290 -9.177851 -178.712537
14.276157 -9.088035 -178.711480
14.398024 -8.998219 -178.710423
14.519891 -8.908404 -178.709366
14.540806 -8.804743 -178.710732
14.662673 -8.714928 -178.709675
14.683588 -8.611267 -178.711041
14.805455 -8.521452 -178.709984
14.927322 -8.431636 -178.708926
15.352045 -8.383353 -178.700600
15.574864 -8.307381 -178.697120
15.595779 -8.203721 -178.698486
15.717646 -8.113905 -178.697429
15.738561 -8.010245 -178.698795
15.860428 -7.920429 -178.697738
15.881344 -7.816769 -178.699104
16.003211 -7.726953 -178.698046
16.024126 -7.623293 -178.699412
16.045041 -7.519633 -178.700778
16.166908 -7.429817 -178.699721
16.187823 -7.326157 -178.701087
16.208738 -7.222497 -178.702453
16.229653 -7.118837 -178.703819
16.351520 -7.029021 -178.702762
16.372436 -6.925361 -178.704128
16.393351 -6.821701 -178.705494
16.414266 -6.718041 -178.706860
16.435181 -6.614380 -178.708226
16.456096 -6.510720 -178.709592
16.477011 -6.407060 -178.710958
16.497926 -6.303400 -178.712324
16.518841 -6.199740 -178.713690
16.539757 -6.096080 -178.715056
16.560672 -5.992419 -178.716422
16.581587 -5.888759 -178.717788
16.602502 -5.785099 -178.719155
16.522465 -5.667595 -178.722944
16.543380 -5.563934 -178.724310
16.564295 -5.460274 -178.725676
16.484259 -5.342770 -178.729465
16.505174 -5.239110 -178.730831
16.526089 -5.135450 -178.732197
16.547004 -5.031789 -178.733563
16.567919 -4.928129 -178.734929
16.588834 -4.824469 -178.736295
16.609749 -4.720809 -178.737661
16.630665 -4.617149 -178.739027
16.651580 -4.513489 -178.740393
16.571543 -4.395984 -178.744182
16.188650 -4.236947 -178.755241
16.209566 -4.133286 -178.756607
16.230481 -4.029626 -178.757973
16.251396 -3.925966 -178.759339
16.171359 -3.808462 -178.763128
14.072284 -3.414071 -178.815379
14.093199 -3.310410 -178.816745
14.114114 -3.206750 -178.818111
14.034077 -3.089246 -178.821901
14.054993 -2.985586 -178.823267
13.974956 -2.868081 -178.827056
13.995871 -2.764421 -178.828422
13.915834 -2.646917 -178.832211
13.936749 -2.543256 -178.833577
13.856712 -2.425752 -178.837366
13.877628 -2.322092 -178.838732
13.797591 -2.204587 -178.842521
13.717554 -2.087083 -178.846310
13.738469 -1.983423 -178.847676
13.658432 -1.865918 -178.851466
13.578396 -1.748414 -178.855255
13.498359 -1.630909 -178.859044
13.418322 -1.513405 -178.862833
13.439237 -1.409744 -178.864199
13.359200 -1.292240 -178.867988
13.279164 -1.174735 -178.871777
13.300079 -1.071075 -178.873143
13.220042 -0.953571 -178.876932
13.240957 -0.849911 -178.878298
13.160920 -0.732406 -178.882088
12.979932 -0.601057 -178.888300
12.899895 -0.483553 -178.892089
12.920810 -0.379893 -178.893455
12.941725 -0.276233 -178.894821
12.962640 -0.172572 -178.896187
12.983555 -0.068912 -178.897553
13.004471 0.034748 -178.898919
13.025386 0.138408 -178.900285
12.945349 0.255913 -178.904074
12.966264 0.359573 -178.905440
12.987179 0.463233 -178.906806
12.907142 0.580737 -178.910595
12.827106 0.698242 -178.914384
12.848021 0.801902 -178.915751
12.767984 0.919406 -178.919540
12.788899 1.023067 -178.920906
12.809814 1.126727 -178.922272
12.729777 1.244231 -178.926061
12.750693 1.347891 -178.927427
12.670656 1.465396 -178.931216
12.691571 1.569056 -178.932582
12.712486 1.672716 -178.933948
12.733401 1.776376 -178.935314
12.754316 1.880037 -178.936680
12.674279 1.997541 -178.940469
12.594243 2.115046 -178.944258
12.514206 2.232550 -178.948047
12.535121 2.336210 -178.949413
12.556036 2.439870 -178.950779
12.576951 2.543531 -178.952146
12.597866 2.647191 -178.953512
12.618782 2.750851 -178.954878
12.639697 2.854511 -178.956244
12.660612 2.958171 -178.957610
12.580575 3.075676 -178.961399
12.601490 3.179336 -178.962765
12.622405 3.282996 -178.964131
12.643320 3.386656 -178.965497
12.563284 3.504161 -178.969286
12.584199 3.607821 -178.970652
12.504162 3.725325 -178.974441
12.525077 3.828985 -178.975807
12.545992 3.932646 -178.977173
12.465955 4.050150 -178.980962
12.486871 4.153810 -178.982328
12.507786 4.257470 -178.983694
12.528701 4.361131 -178.985060
12.549616 4.464791 -178.986426
12.469579 4.582295 -178.990215
12.490494 4.685955 -178.991581
12.511409 4.789615 -178.992947
12.431373 4.907120 -178.996737
12.452288 5.010780 -178.998103
12.473203 5.114440 -178.999469
12.494118 5.218100 -179.000835
12.515033 5.321761 -179.002201
12.535948 5.425421 -179.003567
12.556863 5.529081 -179.004933
12.476827 5.646585 -179.008722
12.497742 5.750246 -179.010088
12.417705 5.867750 -179.013877
12.438620 5.971410 -179.015243
12.459535 6.075070 -179.016609
12.480450 6.178731 -179.017975
12.501366 6.282391 -179.019341
12.522281 6.386051 -179.020707
12.442244 6.503555 -179.024496
12.463159 6.607216 -179.025862
12.383122 6.724720 -179.029651
11.798326 6.911446 -179.045556
11.718289 7.028951 -179.049345
11.739204 7.132611 -179.050711
10.952504 7.347026 -179.071462
15.250061 -3.460211 -178.745047
15.121995 -3.398467 -178.748836
15.182627 -3.259751 -178.747779
14.960212 -3.236494 -178.753991
14.737796 -3.213237 -178.760203
14.609730 -3.151493 -178.763992
14.576013 -3.051263 -178.765358
14.447947 -2.989520 -178.769147
14.414230 -2.889290 -178.770514
14.380513 -2.789060 -178.771880
14.346796 -2.688830 -178.773246
14.313079 -2.588600 -178.774612
14.279362 -2.488370 -178.775978
14.245645 -2.388140 -178.777344
14.211928 -2.287910 -178.778710
14.178211 -2.187680 -178.780076
14.144494 -2.087450 -178.781442
14.110777 -1.987220 -178.782808
14.077060 -1.886990 -178.784174
14.043343 -1.786761 -178.785540
14.009626 -1.686531 -178.786906
13.975909 -1.586301 -178.788272
13.942192 -1.486071 -178.789638
13.908475 -1.385841 -178.791004
13.874758 -1.285611 -178.792370
13.841041 -1.185381 -178.793736
13.807324 -1.085151 -178.795102
13.773607 -0.984921 -178.796468
13.739890 -0.884691 -178.797834
13.706173 -0.784461 -178.799200
13.672456 -0.684231 -178.800566
13.638739 -0.584002 -178.801932
13.605022 -0.483772 -178.803298
13.571305 -0.383542 -178.804664
13.537588 -0.283312 -178.806030
13.503871 -0.183082 -178.807396
13.470154 -0.082852 -178.808762
13.436437 0.017378 -178.810128
13.402720 0.117608 -178.811494
13.369003 0.217838 -178.812860
13.335286 0.318068 -178.814226
13.395918 0.456784 -178.813169
13.362201 0.557014 -178.814535
13.328484 0.657244 -178.815901
13.294767 0.757474 -178.817267
13.261050 0.857704 -178.818633
13.321682 0.996420 -178.817576
13.287965 1.096650 -178.818942
13.254248 1.196880 -178.820308
13.220531 1.297110 -178.821674
13.186814 1.397340 -178.823040
13.153097 1.497570 -178.824406
13.119380 1.597800 -178.825772
12.991314 1.659543 -178.829561
12.957597 1.759773 -178.830927
12.923880 1.860003 -178.832293
12.890163 1.960233 -178.833659
12.950795 2.098949 -178.832602
12.917078 2.199179 -178.833968
12.883361 2.299409 -178.835334
12.943993 2.438125 -178.834277
12.910276 2.538355 -178.835643
12.876559 2.638585 -178.837009
12.842842 2.738815 -178.838375
12.903475 2.877531 -178.837318
12.869758 2.977761 -178.838684
12.836041 3.077991 -178.840050
12.802324 3.178221 -178.841416
12.768607 3.278451 -178.842782
12.734890 3.378681 -178.844148
12.795522 3.517397 -178.843091
12.761805 3.617627 -178.844457
12.728088 3.717857 -178.845823
12.694371 3.818087 -178.847189
12.660654 3.918317 -178.848555
12.626937 4.018547 -178.849921
12.593220 4.118777 -178.851287
12.653852 4.257493 -178.850230
12.620135 4.357723 -178.851596
12.586418 4.457953 -178.852962
12.552701 4.558183 -178.854328
12.518984 4.658413 -178.855694
12.579616 4.797129 -178.854637
12.545899 4.897359 -178.856003
12.512182 4.997589 -178.857369
12.572814 5.136305 -178.856312
12.539097 5.236535 -178.857678
12.505380 5.336765 -178.859044
12.471663 5.436995 -178.860410
12.437946 5.537225 -178.861776
12.404229 5.637455 -178.863142
12.370512 5.737685 -178.864508
12.336795 5.837915 -178.865874
12.397427 5.976631 -178.864817
12.363710 6.076861 -178.866183
12.329993 6.177091 -178.867549
12.296276 6.277321 -178.868915
12.262559 6.377551 -178.870281
12.228842 6.477781 -178.871647
12.195125 6.578011 -178.873013
12.255757 6.716727 -178.871956
12.222040 6.816957 -178.873322
12.188323 6.917187 -178.874688
12.154606 7.017417 -178.876054
12.120889 7.117647 -178.877420
12.087172 7.217877 -178.878786
12.053455 7.318106 -178.880152
12.019738 7.418336 -178.881518
11.986021 7.518566 -178.882884
11.952304 7.618796 -178.884250
11.918587 7.719026 -178.885616
11.884870 7.819256 -178.886982
11.851153 7.919486 -178.888348
11.723087 7.981230 -178.892137
11.689370 8.081459 -178.893503
11.561304 8.143203 -178.897292
11.527587 8.243433 -178.898658
11.399521 8.305176 -178.902447
11.271455 8.366920 -178.906237
11.143389 8.428664 -178.910026
11.015323 8.490407 -178.913815
10.887256 8.552151 -178.917604
10.853539 8.652381 -178.918970
10.725473 8.714124 -178.922759
10.597407 8.775868 -178.926548
10.469341 8.837611 -178.930337
10.341275 8.899355 -178.934127
10.118860 8.922612 -178.940339
9.990794 8.984355 -178.944128
9.862728 9.046099 -178.947917
9.734661 9.107843 -178.951706
9.512246 9.131100 -178.957918
9.384180 9.192843 -178.961708
9.161765 9.216100 -178.967920
9.033699 9.277844 -178.971709
8.905633 9.339588 -178.975498
8.777567 9.401331 -178.979287
8.177755 9.270643 -178.995192
8.144038 9.370873 -178.996558
8.015972 9.432616 -179.000347
7.887906 9.494360 -179.004136
7.193745 9.325185 -179.022464
7.160028 9.425415 -179.023830
7.031962 9.487159 -179.027619
6.998245 9.587388 -179.028985
16.974166 -4.625435 -178.784063
16.894851 -4.555492 -178.785429
16.878001 -4.405044 -178.784372
16.798687 -4.335101 -178.785738
16.719372 -4.265157 -178.787104
16.640057 -4.195214 -178.788470
16.560742 -4.125271 -178.789836
16.543893 -3.974823 -178.788779
16.464578 -3.904880 -178.790145
16.822522 -3.271403 -178.774549
16.805673 -3.120955 -178.773492
16.726358 -3.051012 -178.774858
16.647043 -2.981069 -178.776224
16.567729 -2.911126 -178.777590
16.488414 -2.841183 -178.778956
16.346633 -2.851744 -178.782745
16.142388 -2.942811 -178.788958
16.063073 -2.872868 -178.790324
15.983758 -2.802924 -178.791690
15.904443 -2.732981 -178.793056
15.825128 -2.663038 -178.794422
15.745814 -2.593095 -178.795788
15.604033 -2.603657 -178.799577
15.524719 -2.533713 -178.800943
15.382938 -2.544275 -178.804732
15.241158 -2.554837 -178.808521
15.099378 -2.565398 -178.812310
14.957597 -2.575960 -178.816100
14.878282 -2.506017 -178.817466
14.798968 -2.436074 -178.818832
14.719653 -2.366130 -178.820198
14.640338 -2.296187 -178.821564
14.561023 -2.226244 -178.822930
14.544174 -2.075796 -178.821873
14.464859 -2.005853 -178.823239
14.385544 -1.935910 -178.824605
14.306230 -1.865967 -178.825971
14.226915 -1.796024 -178.827337
14.272531 -1.565071 -178.823856
14.318147 -1.334118 -178.820376
14.238833 -1.264175 -178.821742
14.221983 -1.113727 -178.820685
14.142669 -1.043784 -178.822051
14.063354 -0.973841 -178.823417
13.984039 -0.903897 -178.824783
13.904724 -0.833954 -178.826149
13.825409 -0.764011 -178.827515
13.746095 -0.694068 -178.828881
13.604314 -0.704630 -178.832670
13.462534 -0.715191 -178.836459
13.320754 -0.725753 -178.840249
13.178973 -0.736315 -178.844038
13.486370 0.348506 -178.825270
13.531986 0.579459 -178.821790
13.515137 0.729907 -178.820733
13.435822 0.799850 -178.822099
13.418972 0.950298 -178.821042
13.339658 1.020241 -178.822408
13.322808 1.170689 -178.821351
13.243494 1.240632 -178.822717
13.164179 1.310575 -178.824083
13.147330 1.461023 -178.823026
13.068015 1.530966 -178.824392
13.051166 1.681414 -178.823335
13.034316 1.831862 -178.822278
12.955002 1.901805 -178.823644
12.938152 2.052253 -178.822587
12.858837 2.122196 -178.823953
12.841988 2.272644 -178.822896
12.825139 2.423092 -178.821838
12.870755 2.654045 -178.818358
12.853906 2.804493 -178.817301
12.837057 2.954941 -178.816244
12.820207 3.105389 -178.815187
12.803358 3.255837 -178.814130
12.786509 3.406285 -178.813073
12.707194 3.476228 -178.814439
12.690345 3.626676 -178.813382
12.611030 3.696619 -178.814748
12.531715 3.766562 -178.816114
12.514866 3.917010 -178.815056
12.435551 3.986953 -178.816422
12.606099 4.378916 -178.808096
12.589249 4.529364 -178.807039
12.509935 4.599307 -178.808405
12.493085 4.749755 -178.807348
12.476236 4.900203 -178.806291
12.459387 5.050651 -178.805234
12.505003 5.281603 -178.801753
12.488154 5.432051 -178.800696
12.471305 5.582499 -178.799639
12.391990 5.652442 -178.801005
12.375141 5.802890 -178.799948
12.295826 5.872833 -178.801314
12.278977 6.023281 -178.800257
12.199662 6.093225 -178.801623
12.182812 6.243672 -178.800566
12.228429 6.474625 -178.797086
12.211580 6.625073 -178.796029
12.194730 6.775521 -178.794971
12.177881 6.925969 -178.793914
12.223497 7.156922 -178.790434
12.144182 7.226865 -178.791800
12.127333 7.377313 -178.790743
12.048018 7.447256 -178.792109
12.031169 7.597704 -178.791052
11.951854 7.667647 -178.792418
11.935005 7.818095 -178.791361
11.918156 7.968543 -178.790304
11.901307 8.118991 -178.789247
11.821992 8.188934 -178.790613
11.805143 8.339382 -178.789555
11.725828 8.409325 -178.790922
11.646513 8.479268 -178.792288
11.567198 8.549212 -178.793654
11.425418 8.538650 -178.797443
11.346103 8.608593 -178.798809
11.266788 8.678536 -178.800175
11.187474 8.748479 -178.801541
11.045693 8.737918 -178.805330
10.966378 8.807861 -178.806696
10.887064 8.877804 -178.808062
10.807749 8.947747 -178.809428
10.728434 9.017690 -178.810794
10.649119 9.087634 -178.812160
10.569804 9.157577 -178.813526
10.428024 9.147015 -178.817315
10.348709 9.216958 -178.818681
10.269395 9.286901 -178.820047
10.190080 9.356845 -178.821413
10.110765 9.426788 -178.822779
9.968985 9.416226 -178.826568
9.889670 9.486169 -178.827934
9.810355 9.556112 -178.829300
9.668575 9.545551 -178.833089
9.589260 9.615494 -178.834455
9.447480 9.604932 -178.838245
9.368165 9.674876 -178.839611
9.226384 9.664314 -178.843400
9.147070 9.734257 -178.844766
9.005289 9.723695 -178.848555
8.925975 9.793639 -178.849921
8.784194 9.783077 -178.853710
8.704879 9.853020 -178.855076
8.563099 9.842459 -178.858865
8.421319 9.831897 -178.862654
8.279538 9.821335 -178.866444
8.137758 9.810774 -178.870233
8.058443 9.880717 -178.871599
7.916663 9.870155 -178.875388
7.837348 9.940098 -178.876754
7.695568 9.929537 -178.880543
7.616253 9.999480 -178.881909
7.474473 9.988918 -178.885698
7.395158 10.058861 -178.887064
7.315843 10.128805 -178.888430
7.174063 10.118243 -178.892219
7.094748 10.188186 -178.893585
6.952968 10.177624 -178.897374
6.811187 10.167063 -178.901164
6.669407 10.156501 -178.904953
6.527627 10.145940 -178.908742
6.448312 10.215883 -178.910108
6.306532 10.205321 -178.913897
6.227217 10.275264 -178.915263
6.085436 10.264703 -178.919052
5.881191 10.173636 -178.925264
5.676945 10.082570 -178.931477
5.535164 10.072008 -178.935266
5.393384 10.061447 -178.939055
5.251604 10.050885 -178.942844
5.047358 9.959819 -178.949056
4.905578 9.949257 -178.952846
4.763797 9.938695 -178.956635
4.622017 9.928134 -178.960424
4.480237 9.917572 -178.964213
4.151060 9.665496 -178.975271
3.946814 9.574430 -178.981484
3.805033 9.563868 -178.985273
3.663253 9.553306 -178.989062
3.521473 9.542745 -178.992851
3.442158 9.612688 -178.994217
11.788916 8.336458 -178.792404
11.699100 8.458325 -178.791347
11.609284 8.580192 -178.790290
11.519468 8.702059 -178.789233
11.429652 8.823926 -178.788175
11.339836 8.945793 -178.787118
11.250021 9.067660 -178.786061
11.160205 9.189527 -178.785004
11.056545 9.210443 -178.786370
10.952884 9.231358 -178.787736
10.849224 9.252273 -178.789102
10.745564 9.273188 -178.790468
10.641904 9.294103 -178.791834
10.538244 9.315018 -178.793200
10.448428 9.436885 -178.792143
10.344768 9.457800 -178.793509
10.254952 9.579667 -178.792452
10.151292 9.600583 -178.793818
10.047632 9.621498 -178.795184
9.943971 9.642413 -178.796550
9.854156 9.764280 -178.795493
9.736651 9.684243 -178.799282
9.632991 9.705158 -178.800648
9.529331 9.726073 -178.802014
9.425671 9.746988 -178.803380
9.322011 9.767904 -178.804746
9.218350 9.788819 -178.806112
9.128535 9.910686 -178.805055
9.024874 9.931601 -178.806421
8.935059 10.053468 -178.805364
8.831398 10.074383 -178.806730
8.741583 10.196250 -178.805673
8.637922 10.217165 -178.807039
8.534262 10.238080 -178.808405
8.430602 10.258995 -178.809771
8.326942 10.279911 -178.811137
8.209437 10.199874 -178.814926
8.105777 10.220789 -178.816292
8.002117 10.241704 -178.817658
7.898457 10.262619 -178.819024
7.794797 10.283534 -178.820390
7.691137 10.304449 -178.821756
7.601321 10.426317 -178.820699
7.497661 10.447232 -178.822065
7.394000 10.468147 -178.823431
7.290340 10.489062 -178.824797
7.186680 10.509977 -178.826163
7.083020 10.530892 -178.827529
6.979360 10.551807 -178.828895
6.861855 10.471771 -178.832684
6.758195 10.492686 -178.834050
6.654535 10.513601 -178.835416
6.550875 10.534516 -178.836782
6.447215 10.555431 -178.838148
6.343555 10.576346 -178.839514
6.226050 10.496309 -178.843304
6.122390 10.517225 -178.844670
6.018730 10.538140 -178.846036
5.915070 10.559055 -178.847402
5.811409 10.579970 -178.848768
5.707749 10.600885 -178.850134
5.604089 10.621800 -178.851500
5.500429 10.642715 -178.852866
5.396769 10.663630 -178.854232
5.279264 10.583594 -178.858021
5.161760 10.503557 -178.861810
5.058100 10.524472 -178.863176
4.954439 10.545387 -178.864542
4.836935 10.465350 -178.868331
4.733275 10.486266 -178.869697
4.629615 10.507181 -178.871063
4.525955 10.528096 -178.872429
4.408450 10.448059 -178.876218
4.304790 10.468974 -178.877584
4.187285 10.388937 -178.881373
4.083625 10.409852 -178.882739
3.966121 10.329816 -178.886529
3.862461 10.350731 -178.887895
3.758800 10.371646 -178.889261
3.641296 10.291609 -178.893050
3.537636 10.312524 -178.894416
3.433976 10.333439 -178.895782
3.316471 10.253403 -178.899571
3.212811 10.274318 -178.900937
3.095306 10.194281 -178.904726
2.977802 10.114244 -178.908515
2.860298 10.034207 -178.912304
2.756637 10.055123 -178.913670
2.625289 9.874134 -178.919883
2.507784 9.794097 -178.923672
2.390280 9.714060 -178.927461
2.272775 9.634024 -178.931250
2.155271 9.553987 -178.935039
2.037766 9.473950 -178.938828
1.906417 9.292961 -178.945041
9.485102 9.980699 -178.863375
9.307899 10.135680 -178.859894
9.207669 10.101963 -178.861260
9.107439 10.068246 -178.862626
9.007209 10.034529 -178.863992
8.868493 10.095161 -178.862935
8.768263 10.061444 -178.864301
8.629547 10.122077 -178.863244
8.490831 10.182709 -178.862187
8.352114 10.243341 -178.861130
8.251884 10.209624 -178.862496
8.113168 10.270256 -178.861439
7.935965 10.425237 -178.857959
7.797249 10.485869 -178.856901
7.658533 10.546501 -178.855844
7.519816 10.607133 -178.854787
7.419586 10.573416 -178.856153
7.319357 10.539699 -178.857519
7.180640 10.600332 -178.856462
7.041924 10.660964 -178.855405
6.941694 10.627247 -178.856771
6.841464 10.593530 -178.858137
6.702748 10.654162 -178.857080
6.602518 10.620445 -178.858446
6.463802 10.681077 -178.857389
6.325085 10.741709 -178.856332
6.186369 10.802341 -178.855275
6.047653 10.862973 -178.854218
5.947423 10.829256 -178.855584
5.847193 10.795539 -178.856950
5.746963 10.761822 -178.858316
5.608247 10.822454 -178.857259
5.508017 10.788737 -178.858625
5.407787 10.755020 -178.859991
5.307557 10.721303 -178.861357
5.168841 10.781935 -178.860299
5.068611 10.748218 -178.861665
4.968381 10.714501 -178.863032
4.868151 10.680784 -178.864398
4.729435 10.741417 -178.863340
4.629205 10.707700 -178.864706
4.528975 10.673983 -178.866072
4.428745 10.640266 -178.867438
4.290028 10.700898 -178.866381
4.189799 10.667181 -178.867747
4.089569 10.633464 -178.869113
3.989339 10.599747 -178.870479
3.889109 10.566030 -178.871845
3.788879 10.532313 -178.873211
3.688649 10.498596 -178.874577
3.588419 10.464879 -178.875943
3.488189 10.431162 -178.877309
3.387959 10.397445 -178.878676
3.249243 10.458077 -178.877618
3.149013 10.424360 -178.878984
3.048783 10.390643 -178.880350
2.910067 10.451275 -178.879293
2.848323 10.323209 -178.883082
2.748093 10.289492 -178.884448
2.647863 10.255775 -178.885814
2.547633 10.222058 -178.887181
2.447403 10.188341 -178.888547
2.347174 10.154624 -178.889913
2.246944 10.120907 -178.891279
2.146714 10.087190 -178.892645
2.046484 10.053473 -178.894011
1.946254 10.019756 -178.895377
1.846024 9.986039 -178.896743
1.745794 9.952322 -178.898109
1.645564 9.918605 -178.899475
1.545334 9.884888 -178.900841
1.445104 9.851171 -178.902207
1.383361 9.723105 -178.905996
1.321617 9.595039 -178.909785
1.221387 9.561322 -178.911151
1.121157 9.527605 -178.912517
1.020927 9.493888 -178.913883
0.920697 9.460171 -178.915249
0.781981 9.520803 -178.914192
0.681751 9.487086 -178.915558
0.620008 9.359020 -178.919347
0.519778 9.325303 -178.920713
0.419548 9.291586 -178.922079
0.319318 9.257869 -178.923445
0.257574 9.129802 -178.927234
0.157344 9.096085 -178.928600
0.057115 9.062368 -178.929966
-0.004629 8.934302 -178.933755
-0.104859 8.900585 -178.935121
-0.205089 8.866868 -178.936487
-0.266832 8.738802 -178.940277
-0.367062 8.705085 -178.941643
-0.428806 8.577019 -178.945432
-0.490549 8.448953 -178.949221
4.886894 11.427872 -178.930783
4.736446 11.411022 -178.929726
4.585998 11.394173 -178.928668
4.435550 11.377324 -178.927611
4.285102 11.360475 -178.926554
4.134655 11.343626 -178.925497
4.064711 11.264311 -178.926863
3.914264 11.247462 -178.925806
3.844320 11.168147 -178.927172
3.693873 11.151298 -178.926115
3.623929 11.071983 -178.927481
3.473482 11.055134 -178.926424
3.403538 10.975820 -178.927790
3.253091 10.958970 -178.926733
3.102643 10.942121 -178.925676
2.952195 10.925272 -178.924619
2.882252 10.845958 -178.925985
2.812309 10.766643 -178.927351
2.742365 10.687328 -178.928717
2.672422 10.608013 -178.930083
2.521975 10.591164 -178.929026
2.291022 10.636781 -178.925545
2.060069 10.682397 -178.922065
1.909622 10.665548 -178.921008
1.839678 10.586233 -178.922374
1.689231 10.569384 -178.921317
1.619287 10.490069 -178.922683
1.468840 10.473220 -178.921626
1.398896 10.393906 -178.922992
1.328953 10.314591 -178.924358
1.178505 10.297742 -178.923301
1.108562 10.218427 -178.924667
0.877610 10.264044 -178.921186
0.727162 10.247194 -178.920129
0.657219 10.167880 -178.921495
0.506771 10.151031 -178.920438
0.436828 10.071716 -178.921804
0.366885 9.992401 -178.923170
0.296941 9.913086 -178.924536
0.146494 9.896237 -178.923479
0.076550 9.816923 -178.924845
0.006607 9.737608 -178.926211
-0.143841 9.720759 -178.925154
-0.213784 9.641444 -178.926520
-0.283727 9.562129 -178.927886
-0.353670 9.482815 -178.929252
-0.423613 9.403500 -178.930618
-0.493556 9.324185 -178.931984
-0.563499 9.244871 -178.933350
-0.633443 9.165556 -178.934716
-0.783890 9.148707 -178.933659
-0.853834 9.069392 -178.935025
-0.923777 8.990077 -178.936391
-1.074225 8.973228 -178.935334
-1.144168 8.893914 -178.936700
-1.214111 8.814599 -178.938066
-1.284054 8.735284 -178.939432
-1.353997 8.655970 -178.940798
-1.423940 8.576655 -178.942164
-1.493884 8.497340 -178.943530
-1.563827 8.418026 -178.944896
-1.633770 8.338711 -178.946262
-1.703713 8.259396 -178.947628
-1.773656 8.180081 -178.948994
-1.843599 8.100767 -178.950360
-1.913543 8.021452 -178.951726
-1.983486 7.942137 -178.953092
-2.053429 7.862823 -178.954458
-2.123372 7.783508 -178.955824
-2.193315 7.704193 -178.957190
-2.263258 7.624879 -178.958556
-2.333201 7.545564 -178.959922
-2.403145 7.466249 -178.961288
-2.473088 7.386935 -178.962654
-2.543031 7.307620 -178.964020
-2.612974 7.228305 -178.965386
-2.682917 7.148991 -178.966752
-2.752860 7.069676 -178.968118
-2.822804 6.990361 -178.969484
-2.892747 6.911047 -178.970850
-2.962690 6.831732 -178.972217
-3.032633 6.752417 -178.973583
-3.102576 6.673102 -178.974949
-3.172519 6.593788 -178.976315
-3.242462 6.514473 -178.977681
-3.312406 6.435158 -178.979047
-3.301844 6.293378 -178.982836
-3.371787 6.214063 -178.984202
-3.441730 6.134749 -178.985568
-3.511674 6.055434 -178.986934
-3.501112 5.913654 -178.990723
-3.571055 5.834339 -178.992089
-3.640998 5.755025 -178.993455
-3.710942 5.675710 -178.994821
-3.780885 5.596395 -178.996187
-3.850828 5.517080 -178.997553
-3.920771 5.437766 -178.998919
-4.071219 5.420917 -178.997862
-4.141162 5.341602 -178.999228
-4.211105 5.262287 -179.000594
-4.200544 5.120507 -179.004383
-4.270487 5.041192 -179.005749
-4.340430 4.961878 -179.007115
-4.410373 4.882563 -179.008481
-4.399812 4.740783 -179.012270
-4.469755 4.661468 -179.013636
-4.539698 4.582153 -179.015002
-4.609641 4.502839 -179.016368
-4.679584 4.423524 -179.017734
-4.749527 4.344209 -179.019100
-4.819471 4.264895 -179.020466
-4.808909 4.123114 -179.024256
-4.878852 4.043800 -179.025622
-4.948795 3.964485 -179.026988
-4.938234 3.822705 -179.030777
-5.008177 3.743390 -179.032143
-4.997615 3.601610 -179.035932
-5.067559 3.522295 -179.037298
-5.137502 3.442981 -179.038664
-5.207445 3.363666 -179.040030
-5.277388 3.284351 -179.041396
-5.266827 3.142571 -179.045185
-5.336770 3.063256 -179.046551
-5.487218 3.046407 -179.045494
-5.557161 2.967092 -179.046860
-5.627104 2.887778 -179.048226
-5.616542 2.745997 -179.052015
-5.686485 2.666683 -179.053381
-5.675924 2.524903 -179.057170
-5.343344 2.133260 -179.070652
-5.332782 1.991480 -179.074441
-2.565735 7.482093 -178.992562
-2.687602 7.392278 -178.991505
-2.708517 7.288617 -178.992871
-2.729432 7.184957 -178.994237
-3.255107 7.150519 -178.983488
-3.376974 7.060703 -178.982431
-3.498841 6.970887 -178.981373
-3.519756 6.867227 -178.982739
-3.641623 6.777411 -178.981682
-3.662538 6.673751 -178.983048
-3.683454 6.570091 -178.984414
-3.805321 6.480275 -178.983357
-3.826236 6.376615 -178.984723
-3.847151 6.272955 -178.986089
-3.969018 6.183139 -178.985032
-3.989933 6.079479 -178.986398
-4.010848 5.975818 -178.987764
-4.031763 5.872158 -178.989130
-4.153630 5.782342 -178.988073
-4.174545 5.678682 -178.989439
-4.195461 5.575022 -178.990805
-4.216376 5.471362 -178.992171
-4.338243 5.381546 -178.991114
-4.359158 5.277886 -178.992480
-4.279121 5.160381 -178.996269
-4.300036 5.056721 -178.997635
-4.724759 5.008438 -178.989309
-4.846626 4.918623 -178.988252
-4.968493 4.828807 -178.987195
-5.090360 4.738991 -178.986137
-5.111275 4.635331 -178.987503
-5.132190 4.531671 -178.988869
-5.153106 4.428010 -178.990235
-5.274973 4.338195 -178.989178
-5.396840 4.248379 -178.988121
-5.417755 4.144719 -178.989487
-5.539622 4.054903 -178.988430
-5.661489 3.965087 -178.987373
-5.682404 3.861427 -178.988739
-5.703319 3.757767 -178.990105
-5.825186 3.667951 -178.989048
-5.846101 3.564291 -178.990414
-5.867016 3.460631 -178.991780
-5.988883 3.370815 -178.990723
-6.009799 3.267155 -178.992089
-6.030714 3.163494 -178.993455
-6.152581 3.073679 -178.992398
-6.173496 2.970018 -178.993764
-6.194411 2.866358 -178.995130
-6.215326 2.762698 -178.996496
-6.236241 2.659038 -178.997862
-6.257156 2.555378 -178.999228
-6.278072 2.451718 -179.000594
-6.298987 2.348057 -179.001960
-6.319902 2.244397 -179.003326
-6.340817 2.140737 -179.004692
-6.361732 2.037077 -179.006058
-6.281695 1.919572 -179.009847
-6.302610 1.815912 -179.011213
-6.222574 1.698408 -179.015002
-6.243489 1.594748 -179.016368
-6.264404 1.491087 -179.017734
-6.285319 1.387427 -179.019100
-6.306234 1.283767 -179.020466
-6.327149 1.180107 -179.021832
-6.348064 1.076447 -179.023198
-6.368980 0.972787 -179.024564
-6.389895 0.869127 -179.025930
-6.410810 0.765466 -179.027296
-6.330773 0.647962 -179.031086
-6.351688 0.544302 -179.032452
-6.372603 0.440642 -179.033818
-6.393518 0.336981 -179.035184
-6.313482 0.219477 -179.038973
-6.334397 0.115817 -179.040339
-6.254360 -0.001688 -179.044128
-6.275275 -0.105348 -179.045494
-6.195238 -0.222852 -179.049283
-6.115202 -0.340357 -179.053072
-6.035165 -0.457861 -179.056861
-6.056080 -0.561522 -179.058227
-5.976043 -0.679026 -179.062017
-5.896006 -0.796530 -179.065806
-5.815970 -0.914035 -179.069595
-5.735933 -1.031539 -179.073384
-5.756848 -1.135200 -179.074750
-5.676811 -1.252704 -179.078539
-5.697726 -1.356364 -179.079905
-6.575867 2.553181 -178.987325
-6.636499 2.414465 -178.986268
-6.697131 2.275749 -178.985211
-6.757763 2.137032 -178.984154
-6.724046 2.036802 -178.985520
-6.784678 1.898086 -178.984463
-6.750961 1.797856 -178.985829
-6.811594 1.659140 -178.984771
-6.872226 1.520424 -178.983714
-6.838509 1.420194 -178.985080
-6.899141 1.281477 -178.984023
-6.865424 1.181247 -178.985389
-6.831707 1.081017 -178.986755
-6.797990 0.980788 -178.988121
-6.858622 0.842071 -178.987064
-6.824905 0.741841 -178.988430
-6.885537 0.603125 -178.987373
-6.851820 0.502895 -178.988739
-6.818103 0.402665 -178.990105
-6.878735 0.263949 -178.989048
-6.845018 0.163719 -178.990414
-6.811301 0.063489 -178.991780
-6.777584 -0.036741 -178.993146
-6.838216 -0.175457 -178.992089
-6.804499 -0.275687 -178.993455
-6.770782 -0.375917 -178.994821
-6.737065 -0.476147 -178.996187
-6.703348 -0.576377 -178.997553
-6.669631 -0.676607 -178.998919
-6.635914 -0.776837 -179.000285
-6.602197 -0.877067 -179.001651
-6.568480 -0.977297 -179.003017
-6.534763 -1.077526 -179.004383
-6.501046 -1.177756 -179.005749
-6.467329 -1.277986 -179.007115
-6.433612 -1.378216 -179.008481
-6.399895 -1.478446 -179.009847
-6.366178 -1.578676 -179.011213
-6.332461 -1.678906 -179.012579
-6.298744 -1.779136 -179.013945
-6.265027 -1.879366 -179.015311
-6.231310 -1.979596 -179.016677
-6.197593 -2.079826 -179.018043
-6.163876 -2.180056 -179.019409
-6.130159 -2.280286 -179.020775
-6.096442 -2.380515 -179.022141
-6.062725 -2.480745 -179.023507
-6.029008 -2.580975 -179.024873
-5.900942 -2.642719 -179.028662
-5.867225 -2.742949 -179.030028
-5.833508 -2.843179 -179.031394
-5.799791 -2.943409 -179.032761
-5.766074 -3.043639 -179.034127
-5.732357 -3.143868 -179.035493
-5.698640 -3.244098 -179.036859
-5.664923 -3.344328 -179.038225
-5.631206 -3.444558 -179.039591
-5.503140 -3.506302 -179.043380
-5.469423 -3.606532 -179.044746
-5.435706 -3.706762 -179.046112
-5.401989 -3.806992 -179.047478
-5.273923 -3.868735 -179.051267
-5.240206 -3.968965 -179.052633
-5.206489 -4.069195 -179.053999
-5.172772 -4.169425 -179.055365
-5.139055 -4.269655 -179.056731
-5.105338 -4.369885 -179.058097
-4.977272 -4.431628 -179.061886
-4.943555 -4.531858 -179.063252
-4.909838 -4.632088 -179.064618
-4.781772 -4.693832 -179.068407
-4.748055 -4.794062 -179.069773
-4.714338 -4.894292 -179.071139
-4.586272 -4.956035 -179.074928
-4.552555 -5.056265 -179.076294
-4.518838 -5.156495 -179.077661
-4.485121 -5.256725 -179.079027
-4.451404 -5.356955 -179.080393
-4.417687 -5.457185 -179.081759
-4.383970 -5.557415 -179.083125
-4.255903 -5.619158 -179.086914
-4.222186 -5.719388 -179.088280
-4.094120 -5.781132 -179.092069
-4.060403 -5.881362 -179.093435
-4.026686 -5.981591 -179.094801
-3.992969 -6.081821 -179.096167
-3.864903 -6.143565 -179.099956
-3.831186 -6.243795 -179.101322
-3.797469 -6.344025 -179.102688
-3.763752 -6.444255 -179.104054
-3.730035 -6.544485 -179.105420
-3.601969 -6.606228 -179.109209
-3.568252 -6.706458 -179.110575
-3.534535 -6.806688 -179.111941
-3.500818 -6.906918 -179.113307
-3.372752 -6.968661 -179.117096
-3.339035 -7.068891 -179.118462
-3.305318 -7.169121 -179.119828
-3.271601 -7.269351 -179.121195
-3.237884 -7.369581 -179.122561
-3.109818 -7.431325 -179.126350
-3.076101 -7.531555 -179.127716
-3.042384 -7.631785 -179.129082
-3.008667 -7.732014 -179.130448
-2.974950 -7.832244 -179.131814
-2.846884 -7.893988 -179.135603
-2.813167 -7.994218 -179.136969
-2.779450 -8.094448 -179.138335
-2.745733 -8.194678 -179.139701
-2.617667 -8.256421 -179.143490
-2.583950 -8.356651 -179.144856
-2.550233 -8.456881 -179.146222
-2.422167 -8.518625 -179.150011
-2.388450 -8.618855 -179.151377
-2.354733 -8.719085 -179.152743
-2.226666 -8.780828 -179.156532
-2.192949 -8.881058 -179.157898
-2.159232 -8.981288 -179.159264
-2.031166 -9.043031 -179.163054
-1.997449 -9.143261 -179.164420
-6.702689 0.991200 -179.014858
-6.623374 0.921257 -179.016224
-6.606525 0.770809 -179.015167
-6.714607 0.459352 -179.009263
-6.760223 0.228399 -179.005783
-6.868305 -0.083058 -178.999880
-6.851456 -0.233506 -178.998823
-6.834607 -0.383954 -178.997766
-6.755292 -0.453897 -178.999132
-6.675977 -0.523840 -179.000498
-6.659128 -0.674288 -178.999441
-6.579814 -0.744231 -179.000807
-6.562964 -0.894679 -178.999749
-6.546115 -1.045127 -178.998692
-6.529266 -1.195574 -178.997635
-6.512417 -1.346022 -178.996578
-6.495568 -1.496470 -178.995521
-6.478719 -1.646918 -178.994464
-6.649266 -2.038880 -178.986137
-6.632417 -2.189328 -178.985080
-6.553102 -2.259271 -178.986446
-6.536253 -2.409719 -178.985389
-6.456939 -2.479662 -178.986755
-6.440089 -2.630110 -178.985698
-6.360775 -2.700053 -178.987064
-6.343926 -2.850501 -178.986007
-6.264611 -2.920444 -178.987373
-6.185296 -2.990387 -178.988739
-6.105982 -3.060330 -178.990105
-6.089132 -3.210778 -178.989048
-6.009818 -3.280721 -178.990414
-5.992969 -3.431169 -178.989357
-5.976119 -3.581617 -178.988300
-5.896805 -3.651560 -178.989666
-5.817490 -3.721503 -178.991032
-5.800641 -3.871951 -178.989975
-5.721326 -3.941894 -178.991341
-5.642012 -4.011837 -178.992707
-5.625162 -4.162285 -178.991650
-5.545848 -4.232228 -178.993016
-5.466533 -4.302171 -178.994382
-5.387218 -4.372115 -178.995748
-5.370369 -4.522562 -178.994691
-5.291055 -4.592506 -178.996057
-5.274205 -4.742953 -178.994999
-5.194891 -4.812897 -178.996366
-5.115576 -4.882840 -178.997732
-5.036261 -4.952783 -178.999098
-5.019412 -5.103231 -178.998040
-4.940097 -5.173174 -178.999406
-4.860783 -5.243117 -179.000772
-4.781468 -5.313060 -179.002138
-4.764619 -5.463508 -179.001081
-4.685304 -5.533451 -179.002447
-4.605990 -5.603394 -179.003813
-4.526675 -5.673337 -179.005179
-4.447360 -5.743281 -179.006545
-4.368046 -5.813224 -179.007911
-4.351196 -5.963672 -179.006854
-4.271882 -6.033615 -179.008220
-4.192567 -6.103558 -179.009586
-4.175718 -6.254006 -179.008529
-4.096403 -6.323949 -179.009895
-4.079554 -6.474397 -179.008838
-4.000239 -6.544340 -179.010204
-3.920925 -6.614283 -179.011570
-3.904076 -6.764731 -179.010513
-3.824761 -6.834674 -179.011879
-3.807912 -6.985122 -179.010822
-3.728597 -7.055065 -179.012188
-3.711748 -7.205513 -179.011131
-3.632433 -7.275456 -179.012497
-3.553118 -7.345399 -179.013863
-3.473804 -7.415342 -179.015229
-3.394489 -7.485286 -179.016595
-3.377640 -7.635733 -179.015538
-3.298325 -7.705677 -179.016904
-3.219011 -7.775620 -179.018270
-3.139696 -7.845563 -179.019636
-3.122847 -7.996011 -179.018579
-3.043532 -8.065954 -179.019945
-2.964217 -8.135897 -179.021311
-2.884903 -8.205840 -179.022677
-2.805588 -8.275783 -179.024043
-2.726273 -8.345726 -179.025409
-2.709424 -8.496174 -179.024352
-2.630110 -8.566117 -179.025718
-2.550795 -8.636061 -179.027084
-2.471480 -8.706004 -179.028450
-2.454631 -8.856452 -179.027393
-2.375316 -8.926395 -179.028759
-2.296002 -8.996338 -179.030125
-2.216687 -9.066281 -179.031491
-2.137372 -9.136224 -179.032857
-2.058058 -9.206167 -179.034223
-1.978743 -9.276111 -179.035589
-1.899428 -9.346054 -179.036955
-1.820114 -9.415997 -179.038321
-1.740799 -9.485940 -179.039687
-1.661484 -9.555883 -179.041053
-1.644635 -9.706331 -179.039996
-1.565320 -9.776274 -179.041362
-1.548471 -9.926722 -179.040305
-1.469156 -9.996665 -179.041671
-1.452307 -10.147113 -179.040614
-1.372993 -10.217056 -179.041980
-1.293678 -10.286999 -179.043346
-1.214363 -10.356943 -179.044712
-1.135049 -10.426886 -179.046078
-1.055734 -10.496829 -179.047444
-0.976419 -10.566772 -179.048810
-0.897105 -10.636715 -179.050176
-0.817790 -10.706658 -179.051542
-0.738475 -10.776601 -179.052908
-0.659160 -10.846545 -179.054274
-0.579846 -10.916488 -179.055640
-0.562997 -11.066936 -179.054583
-0.483682 -11.136879 -179.055949
-0.404367 -11.206822 -179.057315
-0.325053 -11.276765 -179.058681
-0.245738 -11.346708 -179.060047
-0.166423 -11.416651 -179.061413
-0.087109 -11.486595 -179.062779
-0.007794 -11.556538 -179.064145
0.071521 -11.626481 -179.065511
0.150836 -11.696424 -179.066877
0.230150 -11.766367 -179.068243
0.309465 -11.836310 -179.069609
0.388780 -11.906253 -179.070975
0.468094 -11.976197 -179.072341
0.547409 -12.046140 -179.073707
0.626724 -12.116083 -179.075073
0.768504 -12.105521 -179.078862
0.847819 -12.175465 -179.080228
0.927133 -12.245408 -179.081594
1.068913 -12.234846 -179.085383
1.148228 -12.304789 -179.086749
1.227543 -12.374733 -179.088115
1.369323 -12.364171 -179.091904
1.448638 -12.434114 -179.093270
1.527952 -12.504057 -179.094636
1.607267 -12.574000 -179.096002
1.686582 -12.643944 -179.097368
1.765896 -12.713887 -179.098734
1.907677 -12.703325 -179.102524
1.986991 -12.773268 -179.103890
2.066306 -12.843212 -179.105256
2.145621 -12.913155 -179.106622
2.287401 -12.902593 -179.110411
2.366716 -12.972536 -179.111777
2.446030 -13.042480 -179.113143
2.525345 -13.112423 -179.114509
2.604660 -13.182366 -179.115875
2.683974 -13.252309 -179.117241
2.763289 -13.322252 -179.118607
2.905069 -13.311691 -179.122396
3.046850 -13.301129 -179.126185
3.126164 -13.371072 -179.127551
3.267944 -13.360511 -179.131340
3.472190 -13.269445 -179.137553
3.676436 -13.178378 -179.143765
3.755751 -13.248321 -179.145131
3.835065 -13.318265 -179.146497
3.914380 -13.388208 -179.147863
3.993695 -13.458151 -179.149229
4.135475 -13.447589 -179.153018
4.214790 -13.517533 -179.154384
4.356570 -13.506971 -179.158173
4.498350 -13.496410 -179.161962
4.702596 -13.405343 -179.168175
4.844376 -13.394782 -179.171964
4.986156 -13.384220 -179.175753
-3.688890 -6.754668 -178.968606
-3.599074 -6.876536 -178.967549
-3.509258 -6.998403 -178.966492
-3.405598 -7.019318 -178.967858
-3.301938 -7.040233 -178.969224
-3.212122 -7.162100 -178.968167
-3.136150 -7.384919 -178.964686
-3.060179 -7.607738 -178.961206
-2.970363 -7.729605 -178.960149
-2.880547 -7.851472 -178.959092
-2.776887 -7.872387 -178.960458
-2.687071 -7.994254 -178.959401
-2.624944 -8.318025 -178.953497
-2.535128 -8.439892 -178.952440
-2.431468 -8.460807 -178.953806
-2.341652 -8.582674 -178.952749
-2.237992 -8.603589 -178.954115
-2.217398 -9.230216 -178.940943
-2.127582 -9.352083 -178.939885
-2.023922 -9.372998 -178.941251
-1.920262 -9.393913 -178.942617
-1.830446 -9.515780 -178.941560
-1.726786 -9.536695 -178.942926
-1.623125 -9.557610 -178.944292
-1.533310 -9.679478 -178.943235
-1.471182 -10.003248 -178.937332
-1.381367 -10.125115 -178.936275
-1.277706 -10.146031 -178.937641
-1.187891 -10.267898 -178.936584
-1.084230 -10.288813 -178.937950
-0.994415 -10.410680 -178.936893
-0.904599 -10.532547 -178.935836
-0.814783 -10.654414 -178.934778
-0.724967 -10.776281 -178.933721
-0.635151 -10.898148 -178.932664
-0.531491 -10.919063 -178.934030
-0.441675 -11.040930 -178.932973
-0.338015 -11.061845 -178.934339
-0.234355 -11.082760 -178.935705
-0.144539 -11.204627 -178.934648
-0.040879 -11.225543 -178.936014
0.048937 -11.347410 -178.934957
0.138753 -11.469277 -178.933900
0.242413 -11.490192 -178.935266
0.332229 -11.612059 -178.934209
0.422044 -11.733926 -178.933152
0.511860 -11.855793 -178.932095
0.615520 -11.876708 -178.933461
0.705336 -11.998575 -178.932403
0.808996 -12.019490 -178.933769
0.898812 -12.141357 -178.932712
1.002472 -12.162272 -178.934078
1.106133 -12.183188 -178.935444
1.195948 -12.305055 -178.934387
1.299609 -12.325970 -178.935753
1.389424 -12.447837 -178.934696
1.493085 -12.468752 -178.936062
1.582900 -12.590619 -178.935005
1.686561 -12.611534 -178.936371
1.790221 -12.632449 -178.937737
1.880037 -12.754316 -178.936680
1.983697 -12.775231 -178.938046
2.073513 -12.897098 -178.936989
2.177173 -12.918014 -178.938355
2.280833 -12.938929 -178.939721
2.384493 -12.959844 -178.941087
2.474309 -13.081711 -178.940030
2.577969 -13.102626 -178.941396
2.681629 -13.123541 -178.942762
2.785289 -13.144456 -178.944128
2.888950 -13.165371 -178.945494
2.978765 -13.287238 -178.944437
3.082426 -13.308154 -178.945803
3.186086 -13.329069 -178.947169
3.289746 -13.349984 -178.948535
3.379562 -13.471851 -178.947478
3.469377 -13.593718 -178.946421
3.573038 -13.614633 -178.947787
3.662853 -13.736500 -178.946730
3.766514 -13.757415 -178.948096
3.870174 -13.778330 -178.949462
3.973834 -13.799245 -178.950828
4.063650 -13.921113 -178.949771
4.167310 -13.942028 -178.951137
4.270970 -13.962943 -178.952503
4.374630 -13.983858 -178.953869
4.478290 -14.004773 -178.955235
4.581951 -14.025688 -178.956601
4.685611 -14.046603 -178.957967
4.789271 -14.067518 -178.959333
4.906775 -13.987482 -178.963122
5.010436 -14.008397 -178.964488
5.114096 -14.029312 -178.965854
5.231600 -13.949275 -178.969643
5.335260 -13.970190 -178.971009
5.438921 -13.991105 -178.972375
5.542581 -14.012021 -178.973741
5.646241 -14.032936 -178.975107
5.763745 -13.952899 -178.978896
5.881250 -13.872862 -178.982685
5.984910 -13.893777 -178.984051
6.102414 -13.813740 -178.987840
6.219919 -13.733704 -178.991630
6.323579 -13.754619 -178.992996
6.441084 -13.674582 -178.996785
6.558588 -13.594545 -179.000574
6.676093 -13.514508 -179.004363
6.793597 -13.434472 -179.008152
6.911102 -13.354435 -179.011941
7.042450 -13.173446 -179.018154
7.173799 -12.992458 -179.024366
7.291304 -12.912421 -179.028155
7.408808 -12.832384 -179.031944
7.526313 -12.752347 -179.035733
7.643817 -12.672310 -179.039522
1.413396 -12.108455 -178.852735
1.513626 -12.074738 -178.854101
1.652342 -12.135370 -178.853044
1.829545 -12.290352 -178.849564
2.006747 -12.445333 -178.846084
2.183950 -12.600314 -178.842603
2.361153 -12.755295 -178.839123
2.499869 -12.815927 -178.838066
2.638585 -12.876559 -178.837009
2.777302 -12.937192 -178.835952
2.916018 -12.997824 -178.834895
3.054734 -13.058456 -178.833838
3.193450 -13.119088 -178.832781
3.293680 -13.085371 -178.834147
3.432397 -13.146003 -178.833089
3.532627 -13.112286 -178.834455
3.671343 -13.172918 -178.833398
3.848546 -13.327899 -178.829918
3.987262 -13.388531 -178.828861
4.125978 -13.449164 -178.827804
4.264694 -13.509796 -178.826747
4.403411 -13.570428 -178.825690
4.542127 -13.631060 -178.824633
4.642357 -13.597343 -178.825999
4.781073 -13.657975 -178.824942
4.881303 -13.624258 -178.826308
5.020019 -13.684890 -178.825250
5.158736 -13.745522 -178.824193
5.297452 -13.806154 -178.823136
5.397682 -13.772437 -178.824502
5.536398 -13.833069 -178.823445
5.636628 -13.799352 -178.824811
5.736858 -13.765635 -178.826177
5.837088 -13.731918 -178.827543
5.937318 -13.698201 -178.828909
6.037548 -13.664484 -178.830275
6.176264 -13.725117 -178.829218
6.276494 -13.691400 -178.830584
6.338238 -13.563333 -178.834373
6.438468 -13.529616 -178.835739
6.538698 -13.495899 -178.837105
6.638927 -13.462182 -178.838471
6.739157 -13.428465 -178.839837
6.839387 -13.394748 -178.841203
6.939617 -13.361031 -178.842569
7.001361 -13.232965 -178.846358
7.101591 -13.199248 -178.847725
7.201821 -13.165531 -178.849091
7.302051 -13.131814 -178.850457
7.402280 -13.098097 -178.851823
7.502510 -13.064380 -178.853189
7.602740 -13.030663 -178.854555
7.702970 -12.996946 -178.855921
7.764714 -12.868880 -178.859710
7.864944 -12.835163 -178.861076
7.965174 -12.801446 -178.862442
8.026917 -12.673380 -178.866231
8.127147 -12.639663 -178.867597
8.188891 -12.511597 -178.871386
8.289121 -12.477880 -178.872752
8.350864 -12.349814 -178.876541
8.412608 -12.221748 -178.880330
8.512838 -12.188031 -178.881696
8.574581 -12.059965 -178.885486
