ply
format ascii 1.0
comment VCGLIB generated
element vertex 1618
property float x
property float y
property float z
element face 0
property list uchar int vertex_indices
end_header
3.69801 -15.6846 -26.7349
3.84846 -15.6677 -26.7338
4.56244 -16.0881 -26.7158
4.71289 -16.0713 -26.7147
4.86333 -16.0544 -26.7137
5.01378 -16.0376 -26.7126
5.16423 -16.0207 -26.7116
5.39518 -16.0664 -26.7081
5.54563 -16.0495 -26.707
5.85709 -16.1576 -26.7011
5.92703 -16.0783 -26.7025
6.07748 -16.0614 -26.7014
6.14742 -15.9821 -26.7028
6.29787 -15.9653 -26.7017
6.52882 -16.0109 -26.6983
6.84028 -16.119 -26.6924
6.99073 -16.1021 -26.6913
7.06067 -16.0228 -26.6927
7.13062 -15.9435 -26.694
7.28106 -15.9266 -26.693
7.351 -15.8473 -26.6943
7.50145 -15.8305 -26.6933
7.6519 -15.8136 -26.6922
7.80235 -15.7968 -26.6912
7.9528 -15.7799 -26.6901
8.02274 -15.7006 -26.6915
8.09268 -15.6213 -26.6928
8.24313 -15.6044 -26.6918
8.31308 -15.5251 -26.6932
8.46352 -15.5083 -26.6921
8.53346 -15.429 -26.6935
8.6034 -15.3496 -26.6948
8.75386 -15.3328 -26.6938
8.8238 -15.2535 -26.6951
8.89374 -15.1742 -26.6965
9.04419 -15.1573 -26.6954
9.11413 -15.078 -26.6968
9.26458 -15.0612 -26.6958
9.33453 -14.9818 -26.6971
9.48497 -14.965 -26.6961
9.63542 -14.9481 -26.695
9.70536 -14.8688 -26.6964
9.77531 -14.7895 -26.6977
9.84525 -14.7102 -26.6991
9.91519 -14.6309 -26.7005
9.98514 -14.5516 -26.7018
10.0551 -14.4723 -26.7032
10.2055 -14.4554 -26.7021
10.2755 -14.3761 -26.7035
10.3454 -14.2968 -26.7049
10.4959 -14.2799 -26.7038
10.6463 -14.2631 -26.7028
10.7163 -14.1838 -26.7041
10.8667 -14.1669 -26.7031
10.9366 -14.0876 -26.7044
11.0066 -14.0083 -26.7058
11.0765 -13.929 -26.7072
11.066 -13.7872 -26.711
11.1359 -13.7079 -26.7123
11.2059 -13.6286 -26.7137
11.2758 -13.5492 -26.7151
11.3457 -13.4699 -26.7164
11.4157 -13.3906 -26.7178
11.5661 -13.3738 -26.7167
11.6361 -13.2945 -26.7181
11.706 -13.2151 -26.7195
11.776 -13.1358 -26.7208
11.8459 -13.0565 -26.7222
11.9158 -12.9772 -26.7236
11.9858 -12.8979 -26.7249
12.0557 -12.8186 -26.7263
12.2062 -12.8017 -26.7252
12.2761 -12.7224 -26.7266
12.5071 -12.768 -26.7231
12.738 -12.8136 -26.7197
12.8885 -12.7968 -26.7186
12.9584 -12.7175 -26.72
13.0284 -12.6382 -26.7213
13.1788 -12.6213 -26.7203
13.2488 -12.542 -26.7216
13.3187 -12.4627 -26.723
13.4691 -12.4458 -26.7219
13.5391 -12.3665 -26.7233
13.6895 -12.3497 -26.7222
13.7595 -12.2703 -26.7236
13.8294 -12.191 -26.725
13.9799 -12.1742 -26.7239
14.0498 -12.0949 -26.7253
14.1198 -12.0156 -26.7267
14.2702 -11.9987 -26.7256
14.3401 -11.9194 -26.727
14.4101 -11.8401 -26.7283
14.48 -11.7608 -26.7297
14.55 -11.6814 -26.7311
14.6199 -11.6021 -26.7324
14.7704 -11.5853 -26.7314
14.8403 -11.506 -26.7327
14.9103 -11.4267 -26.7341
14.9802 -11.3473 -26.7355
15.2006 -11.2512 -26.7358
4.46081 -15.7421 -25.7258
4.61126 -15.7253 -25.7247
4.76171 -15.7084 -25.7237
5.31468 -16.0039 -25.7105
5.38462 -15.9246 -25.7119
5.53507 -15.9077 -25.7108
5.60501 -15.8284 -25.7122
5.75546 -15.8116 -25.7111
5.90591 -15.7947 -25.7101
9.74362 -14.3642 -25.7091
9.81357 -14.2849 -25.7105
9.88351 -14.2055 -25.7118
10.034 -14.1887 -25.7108
10.1039 -14.1094 -25.7121
10.1738 -14.0301 -25.7135
10.3243 -14.0132 -25.7125
10.3942 -13.9339 -25.7138
10.4642 -13.8546 -25.7152
10.6146 -13.8377 -25.7141
10.6846 -13.7584 -25.7155
10.7545 -13.6791 -25.7169
10.905 -13.6623 -25.7158
10.9749 -13.5829 -25.7172
11.0448 -13.5036 -25.7185
11.1148 -13.4243 -25.7199
11.1847 -13.345 -25.7213
11.3352 -13.3281 -25.7202
11.4051 -13.2488 -25.7216
11.4751 -13.1695 -25.7229
11.545 -13.0902 -25.7243
11.615 -13.0109 -25.7257
11.6849 -12.9316 -25.7271
11.7548 -12.8523 -25.7284
11.8248 -12.7729 -25.7298
11.8947 -12.6936 -25.7311
12.0452 -12.6768 -25.7301
12.1151 -12.5975 -25.7314
12.2656 -12.5806 -25.7304
12.3355 -12.5013 -25.7318
12.486 -12.4845 -25.7307
12.5559 -12.4051 -25.7321
12.6258 -12.3258 -25.7334
12.6958 -12.2465 -25.7348
12.8462 -12.2297 -25.7337
12.9162 -12.1503 -25.7351
13.0666 -12.1335 -25.7341
13.1366 -12.0542 -25.7354
13.287 -12.0373 -25.7344
13.4375 -12.0205 -25.7333
13.5879 -12.0036 -25.7323
13.6579 -11.9243 -25.7336
13.8083 -11.9075 -25.7326
13.8782 -11.8282 -25.7339
13.9482 -11.7488 -25.7353
14.0986 -11.732 -25.7342
14.1686 -11.6527 -25.7356
14.2385 -11.5734 -25.737
14.3085 -11.4941 -25.7383
14.3784 -11.4147 -25.7397
14.4483 -11.3354 -25.7411
14.5988 -11.3186 -25.74
14.6687 -11.2393 -25.7414
14.7387 -11.1599 -25.7427
14.8891 -11.1431 -25.7417
14.9591 -11.0638 -25.743
15.029 -10.9845 -25.7444
15.099 -10.9052 -25.7458
15.1689 -10.8258 -25.7471
15.2388 -10.7465 -25.7485
15.3088 -10.6672 -25.7499
15.3787 -10.5879 -25.7512
15.4487 -10.5086 -25.7526
15.5186 -10.4293 -25.754
15.5886 -10.3499 -25.7553
15.6585 -10.2706 -25.7567
15.7284 -10.1913 -25.7581
15.7984 -10.112 -25.7594
15.7878 -9.97022 -25.7632
15.8578 -9.89091 -25.7646
15.9277 -9.81159 -25.766
15.9977 -9.73228 -25.7673
16.0676 -9.65296 -25.7687
16.1375 -9.57365 -25.7701
16.2075 -9.49434 -25.7714
16.3579 -9.47749 -25.7704
16.3474 -9.3357 -25.7742
16.4173 -9.25639 -25.7755
16.4068 -9.11461 -25.7793
16.4767 -9.03529 -25.7807
16.4661 -8.89351 -25.7845
16.5361 -8.8142 -25.7858
16.606 -8.73489 -25.7872
16.676 -8.65557 -25.7886
16.7459 -8.57625 -25.7899
16.8159 -8.49694 -25.7913
16.8858 -8.41763 -25.7927
16.8752 -8.27585 -25.7964
16.9452 -8.19653 -25.7978
17.0151 -8.11722 -25.7992
17.0046 -7.97544 -25.803
17.0745 -7.89612 -25.8043
17.1444 -7.81681 -25.8057
17.1339 -7.67503 -25.8095
16.8818 -7.34585 -25.8206
16.8712 -7.20407 -25.8243
16.9412 -7.12475 -25.8257
17.0111 -7.04544 -25.8271
17.0811 -6.96612 -25.8284
17.0705 -6.82434 -25.8322
17.06 -6.68256 -25.836
17.1299 -6.60325 -25.8374
17.1193 -6.46147 -25.8412
17.1088 -6.31969 -25.845
17.1787 -6.24037 -25.8463
17.0877 -6.03613 -25.8525
16.9161 -5.76942 -25.8612
7.48256 -15.5068 -25.7457
7.70538 -15.4309 -25.7422
7.82725 -15.3411 -25.7411
8.85769 -15.3758 -25.7182
8.97955 -15.286 -25.7172
9.10142 -15.1962 -25.7161
9.12234 -15.0925 -25.7175
9.14325 -14.9889 -25.7189
9.66892 -14.9544 -25.7081
10.0973 -14.374 -25.709
10.1182 -14.2704 -25.7104
10.2401 -14.1805 -25.7094
10.261 -14.0769 -25.7107
10.3828 -13.9871 -25.7097
17.1282 -5.75066 -25.7084
17.1491 -5.647 -25.7098
17.17 -5.54334 -25.7111
17.09 -5.42584 -25.7149
16.909 -5.29449 -25.7211
16.8289 -5.17698 -25.7249
16.7489 -5.05948 -25.7287
16.7698 -4.95582 -25.7301
16.7907 -4.85216 -25.7314
16.7107 -4.73465 -25.7352
16.7316 -4.63099 -25.7366
16.6516 -4.51349 -25.7404
16.5715 -4.39599 -25.7442
16.4915 -4.27848 -25.748
16.3105 -4.14713 -25.7542
16.2305 -4.02963 -25.758
16.2514 -3.92597 -25.7593
16.1714 -3.80846 -25.7631
16.1923 -3.7048 -25.7645
16.2132 -3.60114 -25.7659
16.2341 -3.49748 -25.7672
16.1541 -3.37998 -25.771
16.175 -3.27632 -25.7724
16.0949 -3.15881 -25.7762
16.0149 -3.04131 -25.78
15.9349 -2.9238 -25.7838
15.8548 -2.8063 -25.7875
15.7748 -2.68879 -25.7913
15.6948 -2.57129 -25.7951
15.6147 -2.45379 -25.7989
15.6356 -2.35013 -25.8003
15.5556 -2.23262 -25.8041
15.4756 -2.11512 -25.8078
15.3955 -1.99761 -25.8116
15.4164 -1.89395 -25.813
15.3364 -1.77645 -25.8168
15.0545 -1.63126 -25.8254
14.9744 -1.51375 -25.8292
14.9953 -1.41009 -25.8306
15.0163 -1.30643 -25.832
15.0372 -1.20277 -25.8333
14.9571 -1.08526 -25.8371
14.9781 -0.981606 -25.8385
14.898 -0.864101 -25.8423
14.818 -0.746596 -25.8461
14.7379 -0.629092 -25.8498
14.6579 -0.511585 -25.8536
14.5779 -0.394082 -25.8574
14.4978 -0.276578 -25.8612
14.4178 -0.159074 -25.865
14.4387 -0.0554149 -25.8664
14.3587 0.0620923 -25.8701
14.2786 0.179596 -25.8739
14.2996 0.283257 -25.8753
14.3205 0.386915 -25.8767
14.3414 0.490575 -25.878
14.3623 0.594237 -25.8794
14.2823 0.71174 -25.8832
14.3032 0.815401 -25.8846
14.3241 0.919061 -25.8859
14.2441 1.03657 -25.8897
14.164 1.15407 -25.8935
14.084 1.27157 -25.8973
14.1049 1.37523 -25.8987
14.1258 1.47889 -25.9
14.0458 1.5964 -25.9038
14.0667 1.70006 -25.9052
14.0876 1.80372 -25.9066
14.1085 1.90738 -25.9079
14.0285 2.02488 -25.9117
14.0494 2.12854 -25.9131
13.9694 2.24605 -25.9169
13.9903 2.34971 -25.9182
14.0112 2.45337 -25.9196
14.0321 2.55703 -25.921
14.053 2.66069 -25.9223
13.973 2.7782 -25.9261
13.9939 2.88185 -25.9275
13.9139 2.99936 -25.9313
13.8338 3.11686 -25.9351
13.6528 3.24821 -25.9413
13.6738 3.35187 -25.9426
13.6947 3.45553 -25.944
13.6146 3.57304 -25.9478
13.6355 3.6767 -25.9492
13.6565 3.78036 -25.9505
13.6774 3.88402 -25.9519
13.6983 3.98768 -25.9532
13.6183 4.10518 -25.957
13.6392 4.20884 -25.9584
13.6601 4.3125 -25.9598
13.681 4.41616 -25.9611
13.7019 4.51982 -25.9625
13.7228 4.62348 -25.9639
13.7437 4.72714 -25.9652
13.6637 4.84465 -25.969
13.6846 4.94831 -25.9704
13.7055 5.05197 -25.9718
13.7265 5.15563 -25.9731
13.7474 5.25929 -25.9745
13.7683 5.36295 -25.9759
13.7892 5.46661 -25.9772
13.8101 5.57027 -25.9786
13.7301 5.68777 -25.9824
13.751 5.79143 -25.9837
13.7719 5.89509 -25.9851
13.7928 5.99875 -25.9865
13.8137 6.10241 -25.9878
13.8347 6.20607 -25.9892
13.8556 6.30973 -25.9906
13.8765 6.41339 -25.9919
13.8974 6.51705 -25.9933
13.9183 6.62071 -25.9947
13.9392 6.72437 -25.996
13.9601 6.82803 -25.9974
13.9811 6.9317 -25.9988
14.002 7.03536 -26.0001
13.9219 7.15286 -26.0039
13.9429 7.25652 -26.0053
13.9638 7.36018 -26.0067
14.0856 7.45 -26.0056
14.1066 7.55365 -26.007
14.1275 7.65732 -26.0083
14.1484 7.76098 -26.0097
14.0683 7.87848 -26.0135
14.1902 7.9683 -26.0124
14.2111 8.07196 -26.0138
14.232 8.17562 -26.0152
14.253 8.27928 -26.0165
14.2739 8.38294 -26.0179
14.2948 8.4866 -26.0193
14.2148 8.6041 -26.0231
14.1347 8.72161 -26.0268
13.8528 8.8668 -26.0355
8.16831 -15.7074 -26.7273
8.39113 -15.6314 -26.7238
8.513 -15.5416 -26.7228
8.83677 -15.4795 -26.7169
9.05959 -15.4035 -26.7134
9.18146 -15.3137 -26.7123
9.40427 -15.2377 -26.7089
9.62709 -15.1618 -26.7054
9.84991 -15.0858 -26.7019
10.2746 -15.0375 -26.6936
10.3965 -14.9477 -26.6925
10.5184 -14.8579 -26.6915
10.5393 -14.7542 -26.6928
10.6611 -14.6644 -26.6918
10.783 -14.5746 -26.6907
10.8039 -14.4709 -26.6921
10.8248 -14.3673 -26.6935
10.9467 -14.2774 -26.6924
10.9676 -14.1738 -26.6938
10.9885 -14.0701 -26.6951
11.1104 -13.9803 -26.6941
11.2323 -13.8905 -26.693
11.3541 -13.8007 -26.692
11.8798 -13.7662 -26.6812
12.0017 -13.6764 -26.6801
12.0226 -13.5728 -26.6815
12.0435 -13.4691 -26.6829
12.0644 -13.3654 -26.6842
12.0853 -13.2618 -26.6856
12.1063 -13.1581 -26.687
12.1272 -13.0545 -26.6883
12.1481 -12.9508 -26.6897
12.27 -12.861 -26.6886
12.3918 -12.7712 -26.6876
12.5137 -12.6814 -26.6865
12.6356 -12.5915 -26.6855
12.7574 -12.5017 -26.6844
12.8793 -12.4119 -26.6834
12.9002 -12.3083 -26.6847
13.5268 -12.2877 -26.6716
13.6487 -12.1978 -26.6705
13.7706 -12.108 -26.6694
14.1953 -12.0597 -26.6611
14.3172 -11.9699 -26.6601
14.3381 -11.8663 -26.6614
14.4599 -11.7765 -26.6604
14.4809 -11.6728 -26.6617
14.6027 -11.583 -26.6607
14.7246 -11.4932 -26.6596
14.8465 -11.4033 -26.6586
14.9683 -11.3135 -26.6575
14.9892 -11.2099 -26.6589
15.0102 -11.1062 -26.6602
15.132 -11.0164 -26.6592
15.1529 -10.9127 -26.6606
15.2748 -10.8229 -26.6595
15.6995 -10.7746 -26.6512
15.7204 -10.671 -26.6525
15.7414 -10.5673 -26.6539
15.7623 -10.4637 -26.6553
15.8841 -10.3738 -26.6542
15.9051 -10.2702 -26.6556
16.0269 -10.1804 -26.6545
16.1488 -10.0905 -26.6535
16.2707 -10.0007 -26.6524
16.2916 -9.89707 -26.6538
16.3125 -9.79341 -26.6551
16.4344 -9.70359 -26.6541
16.4553 -9.59993 -26.6554
16.4762 -9.49627 -26.6568
16.5981 -9.40646 -26.6557
16.619 -9.3028 -26.6571
16.7408 -9.21298 -26.6561
16.8627 -9.12316 -26.655
16.8836 -9.0195 -26.6564
16.9045 -8.91584 -26.6577
17.0264 -8.82603 -26.6567
17.0473 -8.72237 -26.6581
17.0682 -8.61871 -26.6594
17.1901 -8.52889 -26.6584
17.211 -8.42523 -26.6597
17.3329 -8.33541 -26.6587
17.3538 -8.23176 -26.66
17.3747 -8.1281 -26.6614
17.3956 -8.02443 -26.6628
17.4165 -7.92077 -26.6641
17.4375 -7.81711 -26.6655
17.3574 -7.69961 -26.6693
17.2774 -7.58211 -26.6731
17.2983 -7.47845 -26.6744
17.3192 -7.37479 -26.6758
17.3401 -7.27113 -26.6772
17.361 -7.16746 -26.6785
17.382 -7.0638 -26.6799
17.4029 -6.96014 -26.6813
17.4238 -6.85648 -26.6826
17.3438 -6.73898 -26.6864
17.3647 -6.63532 -26.6878
17.3856 -6.53166 -26.6891
17.4065 -6.428 -26.6905
17.4274 -6.32434 -26.6919
17.3474 -6.20683 -26.6957
17.3683 -6.10317 -26.697
17.3892 -5.99951 -26.6984
17.3092 -5.88201 -26.7022
17.3301 -5.77835 -26.7036
17.351 -5.67469 -26.7049
17.271 -5.55719 -26.7087
17.2919 -5.45353 -26.7101
17.3128 -5.34986 -26.7115
17.2327 -5.23236 -26.7152
15.9253 -10.2518 -26.6967
15.9859 -10.113 -26.6956
16.2352 -9.89736 -26.6897
16.2959 -9.75864 -26.6887
16.3565 -9.61992 -26.6876
16.3228 -9.51969 -26.689
16.3834 -9.38098 -26.6879
17.3875 -8.8574 -26.6626
17.4482 -8.71868 -26.6616
17.4145 -8.61845 -26.663
17.4751 -8.47973 -26.6619
17.5357 -8.34102 -26.6608
17.5964 -8.2023 -26.6598
17.657 -8.06359 -26.6587
17.6233 -7.96336 -26.6601
17.6839 -7.82464 -26.659
17.7445 -7.68592 -26.658
17.8052 -7.54721 -26.6569
17.7715 -7.44698 -26.6583
17.7377 -7.34675 -26.6597
17.704 -7.24652 -26.661
17.7647 -7.1078 -26.66
17.7309 -7.00757 -26.6613
17.7916 -6.86885 -26.6603
17.7578 -6.76862 -26.6616
17.7241 -6.66839 -26.663
17.7848 -6.52968 -26.662
17.751 -6.42945 -26.6633
17.7173 -6.32922 -26.6647
17.778 -6.1905 -26.6636
17.7442 -6.09027 -26.665
17.7105 -5.99004 -26.6664
17.6768 -5.88981 -26.6677
17.6431 -5.78958 -26.6691
17.6094 -5.68935 -26.6705
17.67 -5.55064 -26.6694
17.6363 -5.45041 -26.6708
17.6026 -5.35018 -26.6721
17.5689 -5.24995 -26.6735
17.5351 -5.14972 -26.6749
17.5014 -5.04949 -26.6762
17.4677 -4.94926 -26.6776
17.5283 -4.81054 -26.6765
17.4946 -4.71031 -26.6779
17.4609 -4.61008 -26.6793
17.4272 -4.50985 -26.6806
17.2991 -4.44811 -26.6844
17.2654 -4.34788 -26.6858
17.1373 -4.28613 -26.6896
17.1036 -4.1859 -26.6909
16.9756 -4.12416 -26.6947
16.9418 -4.02393 -26.6961
16.9081 -3.9237 -26.6975
16.8744 -3.82347 -26.6988
16.8407 -3.72324 -26.7002
16.7126 -3.6615 -26.704
16.6789 -3.56127 -26.7054
16.6452 -3.46104 -26.7067
16.6115 -3.36081 -26.7081
16.5778 -3.26058 -26.7095
16.544 -3.16035 -26.7108
16.5103 -3.06012 -26.7122
16.4766 -2.95989 -26.7135
16.4429 -2.85966 -26.7149
16.4092 -2.75943 -26.7163
16.3755 -2.6592 -26.7177
16.3417 -2.55897 -26.719
16.308 -2.45874 -26.7204
16.2743 -2.35851 -26.7217
16.2406 -2.25828 -26.7231
16.1125 -2.19653 -26.7269
16.0788 -2.0963 -26.7283
16.0451 -1.99607 -26.7296
16.0114 -1.89584 -26.731
15.9776 -1.79561 -26.7324
15.9439 -1.69538 -26.7337
15.9102 -1.59516 -26.7351
16.5846 -3.59975 -25.7078
16.5508 -3.49952 -25.7091
16.4228 -3.43778 -25.7129
16.3891 -3.33755 -25.7143
16.4497 -3.19883 -25.7132
16.416 -3.0986 -25.7146
16.3823 -2.99837 -25.716
16.3485 -2.89814 -25.7173
16.3148 -2.79791 -25.7187
16.2811 -2.69768 -25.7201
16.2474 -2.59745 -25.7214
16.1193 -2.53571 -25.7252
16.0856 -2.43548 -25.7266
15.9575 -2.37374 -25.7304
15.9238 -2.27351 -25.7318
15.7957 -2.21177 -25.7355
15.762 -2.11153 -25.7369
15.7283 -2.0113 -25.7383
15.6946 -1.91107 -25.7396
15.5665 -1.84933 -25.7434
15.5328 -1.7491 -25.7448
15.4991 -1.64887 -25.7462
15.4654 -1.54864 -25.7475
15.3373 -1.4869 -25.7513
15.3036 -1.38667 -25.7527
15.2699 -1.28644 -25.754
15.3305 -1.14772 -25.753
15.2968 -1.04749 -25.7543
15.2631 -0.947261 -25.7557
15.2294 -0.847032 -25.7571
15.1956 -0.746803 -25.7585
15.1619 -0.646572 -25.7598
15.1282 -0.546341 -25.7612
15.0945 -0.446112 -25.7625
15.0608 -0.345882 -25.7639
15.0271 -0.245652 -25.7653
14.9933 -0.145423 -25.7666
14.9596 -0.0451918 -25.768
14.9259 0.055037 -25.7694
14.7978 0.116783 -25.7732
14.7641 0.217012 -25.7745
14.7304 0.317242 -25.7759
14.6967 0.417472 -25.7773
14.7573 0.556186 -25.7762
14.7236 0.656417 -25.7776
14.6899 0.756647 -25.7789
14.6562 0.856877 -25.7803
14.7168 0.995593 -25.7793
14.5887 1.05734 -25.783
14.4607 1.11908 -25.7868
14.427 1.21931 -25.7882
14.3932 1.31954 -25.7896
14.3595 1.41977 -25.7909
14.3258 1.52 -25.7923
14.2921 1.62023 -25.7937
14.2584 1.72046 -25.795
14.2247 1.82069 -25.7964
14.2853 1.95941 -25.7953
14.2516 2.05964 -25.7967
14.2179 2.15987 -25.7981
14.1841 2.2601 -25.7994
14.1504 2.36033 -25.8008
14.211 2.49904 -25.7997
14.1773 2.59927 -25.8011
14.1436 2.6995 -25.8025
14.2043 2.83822 -25.8014
14.1705 2.93845 -25.8028
14.1368 3.03868 -25.8041
14.1031 3.13891 -25.8055
14.1637 3.27763 -25.8045
14.13 3.37785 -25.8058
14.0963 3.47809 -25.8072
14.0626 3.57831 -25.8085
14.0289 3.67855 -25.8099
13.9951 3.77877 -25.8113
13.9614 3.87901 -25.8127
13.9277 3.97924 -25.814
13.9883 4.11795 -25.813
13.9546 4.21818 -25.8143
13.9209 4.31841 -25.8157
13.8872 4.41864 -25.8171
13.7591 4.48038 -25.8208
13.7254 4.58061 -25.8222
13.6917 4.68084 -25.8236
13.7523 4.81956 -25.8225
13.7186 4.91979 -25.8239
13.7792 5.05851 -25.8228
13.7455 5.15874 -25.8242
13.8062 5.29745 -25.8231
13.7724 5.39768 -25.8245
13.8331 5.5364 -25.8235
13.7994 5.63663 -25.8248
13.7656 5.73686 -25.8262
13.7319 5.83709 -25.8275
13.6982 5.93732 -25.8289
13.6645 6.03755 -25.8303
13.7251 6.17626 -25.8292
13.6914 6.27649 -25.8306
13.6577 6.37672 -25.832
13.7183 6.51544 -25.8309
13.6846 6.61567 -25.8323
13.6509 6.7159 -25.8336
13.6172 6.81613 -25.835
13.6778 6.95485 -25.8339
13.6441 7.05508 -25.8353
13.7047 7.19379 -25.8342
13.7653 7.33251 -25.8332
13.826 7.47123 -25.8321
13.8866 7.60994 -25.8311
13.9472 7.74866 -25.83
14.0079 7.88737 -25.829
13.9742 7.9876 -25.8303
13.9404 8.08784 -25.8317
13.9067 8.18806 -25.8331
13.873 8.28829 -25.8344
13.8393 8.38852 -25.8358
13.8999 8.52724 -25.8347
13.8662 8.62747 -25.8361
13.8325 8.7277 -25.8375
13.7988 8.82793 -25.8388
13.8594 8.96665 -25.8378
13.8257 9.06688 -25.8391
13.6033 9.09013 -25.8454
13.3809 9.11339 -25.8516
13.3471 9.21362 -25.8529
13.3134 9.31385 -25.8543
13.2797 9.41408 -25.8557
13.3403 9.5528 -25.8546
13.3066 9.65303 -25.856
13.2729 9.75326 -25.8573
13.3335 9.89197 -25.8563
13.2998 9.9922 -25.8577
13.2661 10.0924 -25.859
13.3267 10.2311 -25.858
13.293 10.3314 -25.8593
13.1649 10.3931 -25.8631
13.1312 10.4934 -25.8645
12.6258 10.4012 -25.878
12.4977 10.4629 -25.8817
12.1809 10.4477 -25.8904
12.0529 10.5094 -25.8942
12.0192 10.6096 -25.8955
11.9854 10.7099 -25.8969
11.8574 10.7716 -25.9007
11.635 10.7949 -25.9069
11.5069 10.8566 -25.9107
11.4732 10.9568 -25.9121
11.3451 11.0186 -25.9158
11.3114 11.1188 -25.9172
11.089 11.1421 -25.9234
10.8666 11.1653 -25.9296
10.7385 11.2271 -25.9334
10.7048 11.3273 -25.9348
10.5767 11.389 -25.9386
10.0712 11.2968 -25.9521
9.94318 11.3586 -25.9559
9.72077 11.3818 -25.9621
9.68705 11.4821 -25.9634
9.55898 11.5438 -25.9672
9.43092 11.6056 -25.971
9.2085 11.6288 -25.9772
8.98609 11.6521 -25.9834
8.19757 11.4444 -26.0042
8.06951 11.5062 -26.008
17.3827 -4.4433 -25.7716
17.3658 -4.29285 -25.7706
17.349 -4.14241 -25.7695
17.2696 -4.07246 -25.7709
17.2528 -3.92202 -25.7698
17.1735 -3.85207 -25.7712
17.0942 -3.78213 -25.7726
17.0773 -3.63168 -25.7715
16.998 -3.56174 -25.7729
16.9812 -3.41129 -25.7718
16.9643 -3.26084 -25.7708
16.885 -3.1909 -25.7721
16.8057 -3.12095 -25.7735
16.7264 -3.05101 -25.7749
16.647 -2.98107 -25.7762
16.6302 -2.83062 -25.7752
16.5509 -2.76068 -25.7765
16.534 -2.61023 -25.7755
16.4547 -2.54029 -25.7768
16.3754 -2.47034 -25.7782
16.3586 -2.31989 -25.7772
16.2792 -2.24995 -25.7785
16.2624 -2.0995 -25.7775
16.1831 -2.02956 -25.7788
16.1038 -1.95962 -25.7802
16.0869 -1.80917 -25.7791
16.0076 -1.73923 -25.7805
15.9907 -1.58878 -25.7794
15.9114 -1.51884 -25.7808
15.8321 -1.44889 -25.7822
15.8153 -1.29844 -25.7811
15.736 -1.2285 -25.7825
15.6566 -1.15856 -25.7839
15.5773 -1.08862 -25.7852
15.498 -1.01867 -25.7866
15.4187 -0.948728 -25.7879
15.3394 -0.878785 -25.7893
15.2601 -0.808843 -25.7907
15.2432 -0.658393 -25.7896
15.1639 -0.588449 -25.791
15.147 -0.438004 -25.7899
15.1302 -0.287558 -25.7889
15.1134 -0.137107 -25.7878
15.034 -0.067163 -25.7892
15.0172 0.0832853 -25.7881
15.0003 0.233734 -25.7871
14.921 0.303674 -25.7884
14.9042 0.454123 -25.7874
14.8249 0.524066 -25.7887
14.808 0.674515 -25.7877
14.9786 1.06648 -25.7794
14.9617 1.21692 -25.7783
14.8824 1.28687 -25.7797
14.8031 1.35681 -25.781
14.7238 1.42675 -25.7824
14.6444 1.4967 -25.7838
14.5651 1.56664 -25.7851
14.4858 1.63658 -25.7865
14.469 1.78703 -25.7854
14.4521 1.93748 -25.7844
14.3728 2.00742 -25.7858
14.356 2.15787 -25.7847
14.2766 2.22781 -25.7861
14.3847 2.53927 -25.7802
14.3054 2.60922 -25.7815
14.2261 2.67916 -25.7829
14.1468 2.7491 -25.7843
14.1299 2.89955 -25.7832
14.1131 3.05 -25.7822
14.0962 3.20045 -25.7811
14.0169 3.27039 -25.7825
14.0001 3.42083 -25.7814
14.0457 3.65179 -25.7779
14.0288 3.80224 -25.7769
14.012 3.95269 -25.7758
13.9327 4.02263 -25.7772
13.9158 4.17308 -25.7761
13.8365 4.24302 -25.7775
13.8197 4.39347 -25.7764
13.8028 4.54392 -25.7754
13.786 4.69436 -25.7743
13.8316 4.92531 -25.7708
13.8147 5.07576 -25.7698
13.7354 5.14571 -25.7711
13.6561 5.21565 -25.7725
13.6392 5.3661 -25.7714
13.6224 5.51654 -25.7704
13.668 5.7475 -25.7669
13.5887 5.81744 -25.7683
13.5718 5.96789 -25.7672
13.555 6.11834 -25.7662
13.5382 6.26878 -25.7651
13.5838 6.49974 -25.7616
13.6294 6.73069 -25.7581
13.5501 6.80063 -25.7595
13.5332 6.95108 -25.7585
13.5164 7.10153 -25.7574
13.4371 7.17147 -25.7588
13.4827 7.40243 -25.7553
13.5908 7.71388 -25.7494
13.6988 8.02534 -25.7435
13.682 8.17579 -25.7424
13.6651 8.32624 -25.7414
13.6483 8.47668 -25.7403
13.569 8.54663 -25.7417
13.5521 8.69708 -25.7406
13.4728 8.76702 -25.742
13.456 8.91747 -25.7409
13.4391 9.06791 -25.7399
13.4223 9.21836 -25.7388
13.4054 9.36881 -25.7377
13.3886 9.51926 -25.7367
13.3717 9.66971 -25.7356
13.3549 9.82015 -25.7346
13.2755 9.8901 -25.7359
13.2587 10.0405 -25.7349
13.1794 10.1105 -25.7363
13.1625 10.2609 -25.7352
13.0832 10.3309 -25.7366
13.0664 10.4813 -25.7355
12.9871 10.5513 -25.7369
12.9077 10.6212 -25.7382
12.8284 10.6912 -25.7396
12.7491 10.7611 -25.741
12.6698 10.831 -25.7423
12.5905 10.901 -25.7437
12.5112 10.9709 -25.7451
12.3694 10.9604 -25.7489
12.2276 10.9498 -25.7526
12.0858 10.9392 -25.7564
12.0065 11.0092 -25.7578
11.9272 11.0791 -25.7592
11.8479 11.1491 -25.7605
11.7061 11.1385 -25.7643
11.6268 11.2085 -25.7657
11.485 11.1979 -25.7695
11.3432 11.1873 -25.7733
11.2639 11.2573 -25.7746
11.1221 11.2467 -25.7784
11.0428 11.3167 -25.7798
10.9635 11.3866 -25.7811
10.8842 11.4565 -25.7825
10.8049 11.5265 -25.7839
10.7256 11.5964 -25.7852
10.5838 11.5859 -25.789
10.5045 11.6558 -25.7904
10.3627 11.6452 -25.7942
10.2209 11.6347 -25.798
10.1416 11.7046 -25.7993
9.99981 11.6941 -25.8031
9.9205 11.764 -25.8045
9.77871 11.7534 -25.8083
9.6994 11.8234 -25.8097
9.55762 11.8128 -25.8134
9.4783 11.8828 -25.8148
9.39899 11.9527 -25.8162
9.25721 11.9422 -25.82
9.17789 12.0121 -25.8213
9.03611 12.0015 -25.8251
8.70694 11.7495 -25.8362
8.62762 11.8194 -25.8376
8.54831 11.8893 -25.8389
8.46899 11.9593 -25.8403
8.38968 12.0292 -25.8416
8.31036 12.0992 -25.843
8.16858 12.0886 -25.8468
8.08927 12.1586 -25.8482
7.94749 12.148 -25.852
7.8057 12.1374 -25.8557
7.72639 12.2074 -25.8571
7.58461 12.1968 -25.8609
7.44283 12.1863 -25.8647
7.30105 12.1757 -25.8685
7.0968 12.0846 -25.8747
6.95503 12.0741 -25.8785
6.81324 12.0635 -25.8823
6.73393 12.1334 -25.8836
6.65461 12.2034 -25.885
6.51283 12.1928 -25.8888
6.24612 12.0213 -25.8974
6.1668 12.0912 -25.8988
6.02503 12.0806 -25.9026
5.94571 12.1506 -25.9039
5.8664 12.2205 -25.9053
5.72462 12.21 -25.9091
5.6453 12.2799 -25.9105
5.50352 12.2693 -25.9143
5.29928 12.1783 -25.9205
5.1575 12.1677 -25.9243
5.07818 12.2377 -25.9256
4.87393 12.1466 -25.9318
4.60723 11.975 -25.9405
4.46544 11.9645 -25.9443
4.38613 12.0344 -25.9456
4.24435 12.0238 -25.9494
4.0401 11.9328 -25.9556
3.77339 11.7612 -25.9643
13.9655 8.19691 -26.7348
13.9487 8.34736 -26.7338
13.9319 8.49781 -26.7327
13.915 8.64826 -26.7317
13.8981 8.7987 -26.7306
13.8813 8.94915 -26.7296
13.9894 9.26061 -26.7236
14.035 9.49156 -26.7202
13.9557 9.56151 -26.7215
13.9388 9.71195 -26.7205
13.8595 9.7819 -26.7218
13.8427 9.93234 -26.7208
13.7634 10.0023 -26.7222
13.7465 10.1527 -26.7211
13.6672 10.2227 -26.7225
13.5879 10.2926 -26.7238
13.5086 10.3626 -26.7252
13.4292 10.4325 -26.7266
13.3499 10.5025 -26.7279
13.2706 10.5724 -26.7293
13.1288 10.5618 -26.7331
13.0495 10.6318 -26.7345
12.9702 10.7017 -26.7358
13.1095 10.9749 -26.7123
13.0197 11.0967 -26.7112
12.916 11.1177 -26.7126
12.8124 11.1386 -26.7139
12.7087 11.1595 -26.7153
12.605 11.1804 -26.7167
12.5152 11.3023 -26.7156
12.4116 11.3232 -26.717
12.3218 11.4451 -26.7159
12.2458 11.6679 -26.7124
12.1421 11.6888 -26.7138
12.0523 11.8107 -26.7128
11.9348 11.7306 -26.7165
11.8311 11.7515 -26.7179
11.7275 11.7724 -26.7193
11.6238 11.7934 -26.7206
11.5202 11.8143 -26.722
11.4165 11.8352 -26.7234
11.3267 11.9571 -26.7223
11.223 11.978 -26.7237
11.1194 11.9989 -26.7251
11.0295 12.1208 -26.724
10.9259 12.1417 -26.7254
10.8361 12.2635 -26.7243
10.7324 12.2845 -26.7257
10.6426 12.4063 -26.7246
10.5389 12.4272 -26.726
10.4353 12.4482 -26.7273
10.3316 12.4691 -26.7287
10.228 12.49 -26.7301
10.1243 12.5109 -26.7314
10.0345 12.6328 -26.7304
9.93082 12.6537 -26.7318
9.82716 12.6746 -26.7331
9.7235 12.6955 -26.7345
9.61984 12.7164 -26.7358
12.8883 10.9158 -25.7174
12.7985 11.0376 -25.7164
12.6949 11.0585 -25.7177
12.5912 11.0795 -25.7191
12.4875 11.1004 -25.7205
12.3839 11.1213 -25.7218
12.2802 11.1422 -25.7232
12.1766 11.1631 -25.7246
12.0591 11.0831 -25.7283
11.9554 11.104 -25.7297
11.8517 11.1249 -25.7311
11.7758 11.3477 -25.7276
11.6859 11.4696 -25.7265
11.5823 11.4905 -25.7279
11.4925 11.6124 -25.7269
11.3888 11.6333 -25.7282
11.2851 11.6542 -25.7296
11.1815 11.6751 -25.731
11.0778 11.696 -25.7323
10.9742 11.717 -25.7337
10.8705 11.7379 -25.735
10.7668 11.7588 -25.7364
10.6493 11.6787 -25.7402
10.5457 11.6997 -25.7416
10.442 11.7206 -25.7429
10.3384 11.7415 -25.7443
10.2485 11.8634 -25.7432
10.1449 11.8843 -25.7446
10.0412 11.9052 -25.746
9.93757 11.9261 -25.7473
9.82006 11.8461 -25.7511
9.7164 11.867 -25.7525
9.61274 11.8879 -25.7539
9.52293 12.0098 -25.7528
9.41927 12.0307 -25.7542
9.32945 12.1525 -25.7531
9.22579 12.1735 -25.7545
9.12213 12.1944 -25.7558
9.03231 12.3162 -25.7548
8.92865 12.3372 -25.7561
8.82499 12.3581 -25.7575
8.72133 12.379 -25.7589
8.61767 12.3999 -25.7603
8.48633 12.2189 -25.7665
8.35498 12.0379 -25.7727
8.25132 12.0588 -25.774
8.1615 12.1807 -25.773
8.09937 12.5045 -25.7671
7.99571 12.5254 -25.7684
7.89205 12.5463 -25.7698
7.78839 12.5672 -25.7712
7.68473 12.5881 -25.7726
7.58107 12.6091 -25.7739
7.47741 12.63 -25.7753
7.37375 12.6509 -25.7766
7.27009 12.6718 -25.778
7.16643 12.6927 -25.7794
7.06277 12.7136 -25.7807
6.95911 12.7345 -25.7821
6.85545 12.7555 -25.7835
6.73795 12.6754 -25.7873
6.62044 12.5954 -25.7911
6.51678 12.6163 -25.7924
6.39928 12.5363 -25.7962
6.29562 12.5572 -25.7976
6.19196 12.5781 -25.7989
6.0883 12.599 -25.8003
5.98464 12.6199 -25.8017
5.88098 12.6408 -25.803
5.77732 12.6618 -25.8044
5.65981 12.5817 -25.8082
5.55615 12.6026 -25.8096
5.43865 12.5226 -25.8134
5.33499 12.5435 -25.8147
5.21748 12.4635 -25.8185
5.11382 12.4844 -25.8199
5.01016 12.5053 -25.8212
4.9065 12.5262 -25.8226
4.80284 12.5471 -25.824
4.71303 12.669 -25.8229
4.60937 12.6899 -25.8243
4.49186 12.6099 -25.8281
4.3882 12.6308 -25.8294
4.2707 12.5508 -25.8332
4.15319 12.4707 -25.837
4.03569 12.3907 -25.8408
3.93203 12.4116 -25.8422
3.81452 12.3316 -25.846
3.69702 12.2515 -25.8497
3.59336 12.2724 -25.8511
3.4897 12.2934 -25.8525
3.37219 12.2133 -25.8563
3.26853 12.2342 -25.8576
3.16487 12.2551 -25.859
3.04737 12.1751 -25.8628
2.92986 12.0951 -25.8666
2.8262 12.116 -25.868
2.72254 12.1369 -25.8693
2.60504 12.0569 -25.8731
2.50138 12.0778 -25.8745
2.39772 12.0987 -25.8758
2.28021 12.0187 -25.8796
2.14887 11.8377 -25.8858
2.03136 11.7576 -25.8896
1.9277 11.7786 -25.891
1.8102 11.6985 -25.8948
1.69269 11.6185 -25.8986
1.57519 11.5384 -25.9024
1.44384 11.3575 -25.9086
1.32633 11.2774 -25.9124
1.22267 11.2983 -25.9137
1.10517 11.2183 -25.9175
1.00151 11.2392 -25.9189
0.842473 10.8563 -25.9299
0.724969 10.7763 -25.9337
0.621309 10.7972 -25.9351
0.503801 10.7172 -25.9389
0.3863 10.6371 -25.9427
0.268795 10.5571 -25.9465
0.165135 10.578 -25.9478
0.0476298 10.498 -25.9516
-0.069876 10.4179 -25.9554
-0.228913 10.035 -25.9665
-0.38795 9.65214 -25.9775
-0.505454 9.57211 -25.9813
-0.622957 9.49207 -25.9851
-0.740464 9.41203 -25.9889
-0.871812 9.23105 -25.9951
8.56143 12.2451 -25.8052
8.42271 12.3057 -25.8042
8.32248 12.272 -25.8055
8.18377 12.3326 -25.8045
8.08354 12.2989 -25.8058
7.94482 12.3595 -25.8048
7.8061 12.4202 -25.8037
7.66739 12.4808 -25.8027
7.56716 12.4471 -25.804
7.42844 12.5077 -25.803
7.32821 12.474 -25.8043
7.18949 12.5346 -25.8033
7.05078 12.5953 -25.8022
6.91206 12.6559 -25.8012
6.81183 12.6222 -25.8025
6.67312 12.6828 -25.8015
6.57289 12.6491 -25.8028
6.47266 12.6154 -25.8042
6.37242 12.5817 -25.8056
6.23371 12.6423 -25.8045
6.13348 12.6086 -25.8059
5.99476 12.6692 -25.8048
5.89453 12.6355 -25.8062
5.75582 12.6961 -25.8051
5.65559 12.6624 -25.8065
5.55536 12.6287 -25.8079
5.45513 12.595 -25.8092
5.3549 12.5613 -25.8106
5.25467 12.5275 -25.812
5.11595 12.5882 -25.8109
4.97723 12.6488 -25.8099
4.877 12.6151 -25.8112
4.77678 12.5814 -25.8126
4.67655 12.5477 -25.8139
4.53783 12.6083 -25.8129
4.4376 12.5746 -25.8143
4.29888 12.6352 -25.8132
4.12168 12.7902 -25.8097
4.02145 12.7565 -25.8111
3.92122 12.7227 -25.8125
3.82099 12.689 -25.8138
3.72076 12.6553 -25.8152
3.65901 12.5273 -25.819
3.59727 12.3992 -25.8228
3.53553 12.2711 -25.8266
3.4353 12.2374 -25.8279
3.33507 12.2037 -25.8293
3.19635 12.2643 -25.8282
3.05764 12.3249 -25.8272
2.95741 12.2912 -25.8285
2.85718 12.2575 -25.8299
2.75695 12.2238 -25.8313
2.65672 12.1901 -25.8326
2.55649 12.1564 -25.834
2.45626 12.1226 -25.8354
2.35603 12.0889 -25.8367
2.2558 12.0552 -25.8381
2.15557 12.0215 -25.8395
2.05534 11.9878 -25.8408
1.95511 11.9541 -25.8422
1.89336 11.826 -25.846
1.79313 11.7923 -25.8474
1.73139 11.6642 -25.8512
1.63116 11.6305 -25.8525
1.53093 11.5968 -25.8539
1.4307 11.5631 -25.8552
1.33047 11.5293 -25.8566
1.23024 11.4956 -25.858
1.13001 11.4619 -25.8593
1.02978 11.4282 -25.8607
0.929552 11.3945 -25.8621
0.829323 11.3608 -25.8634
0.767578 11.2327 -25.8672
0.667349 11.199 -25.8686
0.567118 11.1653 -25.87
0.466888 11.1315 -25.8713
0.36666 11.0978 -25.8727
0.266429 11.0641 -25.8741
0.166198 11.0304 -25.8754
0.104455 10.9023 -25.8792
0.00422502 10.8686 -25.8806
-0.0575175 10.7405 -25.8844
-0.157748 10.7068 -25.8857
-0.257978 10.6731 -25.8871
-0.396695 10.7337 -25.886
-0.496924 10.7 -25.8874
-0.558667 10.572 -25.8912
-0.658898 10.5382 -25.8926
-0.720642 10.4102 -25.8963
-0.782386 10.2821 -25.9001
-0.844128 10.154 -25.9039
-0.905871 10.026 -25.9077
-0.967614 9.89791 -25.9115
-1.02936 9.76985 -25.9153
-1.0911 9.64178 -25.9191
-1.19133 9.60806 -25.9205
-1.29156 9.57434 -25.9218
-1.39179 9.54062 -25.9232
-1.45353 9.41256 -25.927
-1.51528 9.28449 -25.9308
-1.57702 9.15643 -25.9346
-1.63877 9.02836 -25.9383
-1.739 8.99464 -25.9397
-1.80074 8.86658 -25.9435
-1.90097 8.83286 -25.9449
-1.96271 8.70479 -25.9487
-2.06294 8.67108 -25.95
-2.12469 8.54301 -25.9538
-2.22492 8.5093 -25.9552
-2.28666 8.38122 -25.959
-2.38689 8.34751 -25.9603
-2.48712 8.31379 -25.9617
-2.54886 8.18573 -25.9655
-2.61061 8.05766 -25.9693
-2.71084 8.02394 -25.9706
-2.77258 7.89588 -25.9744
-2.83433 7.76782 -25.9782
-2.89607 7.63975 -25.982
-2.95781 7.51168 -25.9858
-3.01955 7.38361 -25.9896
-3.11978 7.3499 -25.991
-3.22002 7.31618 -25.9923
-3.32025 7.28246 -25.9937
-3.42047 7.24875 -25.9951
-3.5207 7.21503 -25.9964
-3.62093 7.18131 -25.9978
-3.68268 7.05325 -26.0016
-3.78291 7.01953 -26.0029
-3.84465 6.89146 -26.0067
-3.94488 6.85775 -26.0081
-4.00662 6.72968 -26.0119
-4.10685 6.69596 -26.0132
-4.1686 6.5679 -26.017
-4.23034 6.43983 -26.0208
-4.33057 6.40611 -26.0222
-4.39231 6.27805 -26.026
-4.49254 6.24433 -26.0273
3.53545 13.278 -25.8693
3.385 13.2612 -25.8682
3.31506 13.1818 -25.8696
3.16461 13.165 -25.8685
3.09467 13.0857 -25.8699
3.02472 13.0064 -25.8713
2.95478 12.927 -25.8726
2.88484 12.8477 -25.874
2.8149 12.7684 -25.8754
2.66444 12.7516 -25.8743
2.5945 12.6723 -25.8757
2.44405 12.6554 -25.8746
2.29361 12.6386 -25.8736
2.22367 12.5592 -25.8749
2.07321 12.5424 -25.8739
1.92277 12.5255 -25.8728
1.77232 12.5087 -25.8717
1.62187 12.4918 -25.8707
1.55193 12.4125 -25.8721
1.48199 12.3332 -25.8734
1.41204 12.2539 -25.8748
1.3421 12.1746 -25.8762
1.27216 12.0953 -25.8775
1.20221 12.016 -25.8789
1.05176 11.9991 -25.8778
0.981823 11.9198 -25.8792
0.91188 11.8405 -25.8806
0.841937 11.7612 -25.8819
0.691486 11.7443 -25.8809
0.621545 11.665 -25.8822
0.5516 11.5857 -25.8836
0.481657 11.5064 -25.885
0.331212 11.4895 -25.8839
0.180764 11.4727 -25.8829
0.110823 11.3934 -25.8842
0.0408788 11.314 -25.8856
-0.0290647 11.2347 -25.887
-0.0990086 11.1554 -25.8883
-0.168952 11.0761 -25.8897
-0.238894 10.9968 -25.8911
-0.308837 10.9175 -25.8924
-0.378781 10.8382 -25.8938
-0.770745 11.0087 -25.8855
-0.840689 10.9294 -25.8868
-0.910629 10.8501 -25.8882
-0.980573 10.7708 -25.8896
-1.05052 10.6914 -25.8909
-1.12046 10.6121 -25.8923
-1.1904 10.5328 -25.8937
-1.26034 10.4535 -25.895
-1.33029 10.3742 -25.8964
-1.40023 10.2949 -25.8978
-1.47018 10.2156 -25.8991
-1.54012 10.1362 -25.9005
-1.61006 10.0569 -25.9019
-1.68 9.97761 -25.9032
-1.74995 9.8983 -25.9046
-1.81989 9.81898 -25.9059
-1.88983 9.73967 -25.9073
-1.95978 9.66035 -25.9087
-2.02972 9.58104 -25.91
-2.09966 9.50172 -25.9114
-2.0891 9.35994 -25.9152
-2.15905 9.28063 -25.9166
-2.22899 9.20131 -25.9179
-2.29893 9.122 -25.9193
-2.36888 9.04268 -25.9207
-2.43882 8.96337 -25.922
-2.50876 8.88405 -25.9234
-2.57871 8.80474 -25.9248
-2.64865 8.72542 -25.9261
-2.71859 8.64611 -25.9275
-2.78853 8.56679 -25.9289
-2.85848 8.48748 -25.9302
-2.92842 8.40817 -25.9316
-2.99836 8.32885 -25.933
-3.06831 8.24954 -25.9343
-3.21875 8.23269 -25.9333
-3.2887 8.15337 -25.9346
-3.35864 8.07406 -25.936
-3.42858 7.99474 -25.9374
-3.49853 7.91543 -25.9387
-3.56847 7.83611 -25.9401
-3.63841 7.7568 -25.9415
-3.70836 7.67748 -25.9428
-3.7783 7.59817 -25.9442
-3.84824 7.51885 -25.9456
-3.91818 7.43954 -25.9469
-3.98813 7.36023 -25.9483
-4.05807 7.28091 -25.9497
-4.20852 7.26406 -25.9486
-4.51998 7.37214 -25.9427
-4.67042 7.35529 -25.9417
-4.74037 7.27598 -25.943
-4.89081 7.25913 -25.942
-4.96076 7.17982 -25.9433
-5.0307 7.1005 -25.9447
-5.10064 7.02118 -25.9461
-5.17059 6.94187 -25.9474
-5.16003 6.80009 -25.9512
-5.22997 6.72078 -25.9526
-5.21941 6.579 -25.9564
-5.20885 6.43721 -25.9602
-5.27879 6.3579 -25.9615
-5.34873 6.27859 -25.9629
-5.33817 6.13681 -25.9667
-5.40811 6.05749 -25.968
-5.47806 5.97818 -25.9694
-5.548 5.89886 -25.9708
-5.61795 5.81955 -25.9721
-5.68789 5.74023 -25.9735
-5.75783 5.66092 -25.9749
-5.82777 5.5816 -25.9762
-5.89772 5.50229 -25.9776
-5.96766 5.42297 -25.979
-5.9571 5.28119 -25.9828
-5.94654 5.13941 -25.9865
-6.01648 5.0601 -25.9879
-6.00592 4.91832 -25.9917
-6.07586 4.839 -25.9931
-6.14581 4.75969 -25.9944
-6.21575 4.68038 -25.9958
-6.28569 4.60106 -25.9972
-6.35564 4.52175 -25.9985
-6.42558 4.44243 -25.9999
-6.49552 4.36312 -26.0013
-6.48496 4.22133 -26.0051
-6.5549 4.14202 -26.0064
-6.62484 4.06271 -26.0078
-6.69479 3.98339 -26.0092
-6.68423 3.84161 -26.0129
-6.75417 3.7623 -26.0143
-6.74361 3.62052 -26.0181
-6.49153 3.29134 -26.0292
-6.48097 3.14956 -26.0329
-6.55092 3.07024 -26.0343
-6.62086 2.99093 -26.0357
-6.6908 2.91162 -26.037
-6.76075 2.8323 -26.0384
-6.83069 2.75299 -26.0398
-6.90063 2.67367 -26.0411
-6.89007 2.53189 -26.0449
-6.87951 2.39011 -26.0487
-6.86894 2.24833 -26.0525
-6.85839 2.10655 -26.0563
-5.91164 5.81038 -25.9496
-6.03351 5.72056 -25.9486
-6.05443 5.6169 -25.9499
-6.07534 5.51324 -25.9513
-6.19721 5.42342 -25.9502
-6.21812 5.31976 -25.9516
-6.33999 5.22995 -25.9505
-6.46186 5.14013 -25.9495
-6.48277 5.03647 -25.9509
-6.60464 4.94666 -25.9498
-6.62555 4.843 -25.9512
-6.64647 4.73934 -25.9525
-6.76834 4.64952 -25.9515
-6.78925 4.54586 -25.9528
-6.91112 4.45604 -25.9518
-6.93203 4.35238 -25.9531
-7.0539 4.26257 -25.9521
-7.07482 4.15891 -25.9534
-7.09573 4.05525 -25.9548
-7.2176 3.96543 -25.9538
-7.23852 3.86177 -25.9551
-7.25943 3.75811 -25.9565
-7.28035 3.65445 -25.9579
-7.30126 3.55079 -25.9592
-7.32218 3.44713 -25.9606
-7.34309 3.34347 -25.962
-7.36401 3.23981 -25.9633
-7.38492 3.13615 -25.9647
-7.30488 3.01865 -25.9685
-7.3258 2.91499 -25.9698
-7.34672 2.81133 -25.9712
-7.26668 2.69382 -25.975
-7.28759 2.59016 -25.9764
-7.40946 2.50035 -25.9753
-7.53133 2.41053 -25.9743
-7.55224 2.30687 -25.9756
-7.57316 2.20321 -25.977
-7.49312 2.0857 -25.9808
-7.51403 1.98205 -25.9821
-7.53495 1.87838 -25.9835
-7.45491 1.76088 -25.9873
-7.47583 1.65722 -25.9887
-7.39579 1.53972 -25.9924
-7.41671 1.43606 -25.9938
-7.33667 1.31855 -25.9976
-7.35758 1.21489 -25.999
-7.27755 1.09739 -26.0028
-7.29846 0.993726 -26.0041
-7.31938 0.890067 -26.0055
-7.23935 0.772561 -26.0093
-7.26026 0.668901 -26.0107
-7.28118 0.565241 -26.012
-7.30209 0.461581 -26.0134
-7.22205 0.344077 -26.0172
-7.24297 0.240416 -26.0185
-7.16293 0.122913 -26.0223
-7.8027 3.64851 -25.9488
-7.95768 3.47131 -25.9453
-7.92397 3.37108 -25.9467
-7.89025 3.27085 -25.9481
-7.85653 3.17062 -25.9494
-7.82281 3.07039 -25.9508
-7.88345 2.93167 -25.9498
-7.84973 2.83144 -25.9511
-7.91036 2.69273 -25.9501
-7.87664 2.59249 -25.9514
-7.84292 2.49226 -25.9528
-7.80921 2.39204 -25.9541
-7.77549 2.29181 -25.9555
-7.74177 2.19158 -25.9569
-7.80241 2.05286 -25.9558
-7.95739 1.87565 -25.9523
-8.01802 1.73694 -25.9513
-7.9843 1.63671 -25.9527
-8.04493 1.49799 -25.9516
-8.01122 1.39776 -25.953
-8.07185 1.25905 -25.9519
-8.03814 1.15882 -25.9533
-8.09876 1.0201 -25.9522
-8.06505 0.919871 -25.9536
-8.03133 0.819641 -25.955
-7.99761 0.71941 -25.9563
-7.96389 0.619181 -25.9577
-7.93018 0.518952 -25.959
-7.89646 0.418722 -25.9604
-7.86275 0.31849 -25.9618
-7.82903 0.218261 -25.9632
-7.79531 0.118032 -25.9645
-7.66725 0.0562871 -25.9683
-7.63353 -0.0439427 -25.9697
-7.59982 -0.144172 -25.971
-7.5661 -0.244404 -25.9724
-7.53238 -0.344632 -25.9738
-7.49866 -0.444863 -25.9751
-7.46495 -0.545093 -25.9765
-7.33688 -0.606835 -25.9803
-7.30316 -0.707066 -25.9817
-7.26944 -0.807294 -25.983
-7.23573 -0.907526 -25.9844
-7.20201 -1.00775 -25.9857
-7.07394 -1.0695 -25.9895
-7.04023 -1.16973 -25.9909
-7.00651 -1.26996 -25.9923
-6.97279 -1.37019 -25.9936
-6.84473 -1.43193 -25.9974
-6.81101 -1.53216 -25.9988
-6.77729 -1.63239 -26.0002
-6.64923 -1.69413 -26.004
-6.52116 -1.75588 -26.0077
-6.48745 -1.85611 -26.0091
-6.35938 -1.91785 -26.0129
-6.32566 -2.01808 -26.0143
-6.29194 -2.11831 -26.0156
-6.25822 -2.21854 -26.017
-6.13016 -2.28029 -26.0208
-6.09645 -2.38052 -26.0221
-5.96838 -2.44226 -26.0259
-5.93466 -2.54249 -26.0273
-5.90095 -2.64272 -26.0287
-5.86723 -2.74295 -26.03
-5.83351 -2.84318 -26.0314
-5.70544 -2.90492 -26.0352
-5.67173 -3.00515 -26.0366
-5.63801 -3.10538 -26.0379
-5.50995 -3.16713 -26.0417
-5.47623 -3.26736 -26.0431
-5.44251 -3.36759 -26.0444
-5.40879 -3.46782 -26.0458
-5.37508 -3.56805 -26.0472
-5.34136 -3.66828 -26.0485
-5.21329 -3.73002 -26.0523
-5.17957 -3.83025 -26.0537
-5.14586 -3.93048 -26.0551
-5.11214 -4.03071 -26.0564
-5.07843 -4.13094 -26.0578
-5.0447 -4.23117 -26.0592
-5.01099 -4.3314 -26.0605
-4.97727 -4.43163 -26.0619
-4.94356 -4.53186 -26.0632
-4.90984 -4.63209 -26.0646
-4.87612 -4.73232 -26.066
-4.8424 -4.83255 -26.0674
-4.71434 -4.89429 -26.0711
-4.68062 -4.99452 -26.0725
-4.6469 -5.09475 -26.0739
-4.61319 -5.19498 -26.0752
-4.57947 -5.29521 -26.0766
-4.54575 -5.39544 -26.078
-4.51204 -5.49567 -26.0793
-4.47832 -5.5959 -26.0807
-4.4446 -5.69613 -26.0821
-4.31654 -5.75787 -26.0859
-4.28282 -5.8581 -26.0872
-4.2491 -5.95833 -26.0886
-4.21538 -6.05856 -26.09
-4.18167 -6.15879 -26.0913
-4.14795 -6.25902 -26.0927
-4.11424 -6.35925 -26.0941
-4.08052 -6.45948 -26.0954
-4.0468 -6.55971 -26.0968
-4.01308 -6.65994 -26.0982
-3.88502 -6.72169 -26.1019
-3.8513 -6.82192 -26.1033
-3.91193 -6.96063 -26.1022
-3.87821 -7.06086 -26.1036
-3.8445 -7.16109 -26.105
-3.71643 -7.22284 -26.1088
-3.68272 -7.32307 -26.1101
-3.649 -7.4233 -26.1115
-3.61528 -7.52353 -26.1129
-3.58157 -7.62376 -26.1142
-3.54785 -7.72399 -26.1156
-3.51413 -7.82422 -26.117
-3.48041 -7.92445 -26.1183
-3.4467 -8.02468 -26.1197
-3.41298 -8.12491 -26.1211
-3.37926 -8.22514 -26.1224
-3.34555 -8.32537 -26.1238
-3.31183 -8.42559 -26.1252
-3.27811 -8.52583 -26.1265
-3.2444 -8.62606 -26.1279
-3.11633 -8.6878 -26.1317
-3.08261 -8.78803 -26.1331
-3.04889 -8.88826 -26.1344
-3.01518 -8.98849 -26.1358
-2.98146 -9.08872 -26.1371
-2.94775 -9.18895 -26.1385
-2.91403 -9.28918 -26.1399
-2.88031 -9.38941 -26.1413
-2.84659 -9.48964 -26.1426
-2.81288 -9.58987 -26.144
-2.77916 -9.6901 -26.1453
-2.74544 -9.79033 -26.1467
-2.71172 -9.89056 -26.1481
-2.58366 -9.9523 -26.1519
-2.54994 -10.0525 -26.1532
-2.51623 -10.1528 -26.1546
-2.38816 -10.2145 -26.1584
-2.35444 -10.3147 -26.1598
-2.32073 -10.415 -26.1611
-2.19266 -10.4767 -26.1649
-2.15895 -10.5769 -26.1663
-2.03087 -10.6387 -26.1701
-1.99716 -10.7389 -26.1714
-1.86909 -10.8007 -26.1752
-1.83538 -10.9009 -26.1766
-1.80166 -11.0011 -26.1779
-1.76794 -11.1013 -26.1793
-1.73423 -11.2016 -26.1807
-1.70051 -11.3018 -26.1821
-1.66679 -11.402 -26.1834
-1.63307 -11.5023 -26.1848
-1.50501 -11.564 -26.1886
-1.37694 -11.6258 -26.1924
-1.34322 -11.726 -26.1937
-1.30951 -11.8262 -26.1951
-1.18144 -11.888 -26.1989
-1.14772 -11.9882 -26.2002
-1.11401 -12.0884 -26.2016
-1.08029 -12.1886 -26.203
-1.04657 -12.2889 -26.2043
-0.918506 -12.3506 -26.2081
-0.88479 -12.4508 -26.2095
-0.851074 -12.5511 -26.2109
-0.723008 -12.6128 -26.2147
-0.689288 -12.7131 -26.216
-0.561223 -12.7748 -26.2198
-0.150109 -12.7211 -26.2309
-0.0220466 -12.7828 -26.2347
0.0116692 -12.8831 -26.236
0.139741 -12.9448 -26.2398
0.267807 -13.0065 -26.2436
0.395869 -13.0683 -26.2474
0.523937 -13.13 -26.2512
0.652001 -13.1918 -26.255
0.780071 -13.2535 -26.2588
