ply
format ascii 1.0
element vertex 1519
property float x
property float y
property float z
element face 0
property list uchar uint vertex_indices
end_header
14.768966 -8.511732 -177.811247
14.838909 -8.432418 -177.812613
14.908852 -8.353103 -177.813979
15.059300 -8.336254 -177.812922
15.129243 -8.256939 -177.814288
15.199186 -8.177625 -177.815654
15.269129 -8.098310 -177.817020
15.339072 -8.018995 -177.818386
15.409016 -7.939681 -177.819752
15.478959 -7.860366 -177.821118
15.548902 -7.781051 -177.822484
15.618845 -7.701736 -177.823850
15.688788 -7.622422 -177.825216
15.758731 -7.543107 -177.826582
15.828675 -7.463792 -177.827948
15.898618 -7.384478 -177.829314
15.968561 -7.305163 -177.830680
15.957999 -7.163383 -177.834470
16.027942 -7.084068 -177.835836
16.097886 -7.004753 -177.837202
16.087324 -6.862973 -177.840991
16.157267 -6.783659 -177.842357
16.227210 -6.704344 -177.843723
16.216649 -6.562564 -177.847512
16.286592 -6.483249 -177.848878
16.276030 -6.341469 -177.852667
16.345974 -6.262154 -177.854033
16.335412 -6.120374 -177.857822
16.324851 -5.978594 -177.861611
16.233784 -5.774348 -177.867824
16.142718 -5.570102 -177.874036
16.051652 -5.365856 -177.880248
16.121595 -5.286542 -177.881614
16.111034 -5.144761 -177.885403
16.100472 -5.002981 -177.889192
16.089911 -4.861201 -177.892982
7.110540 -13.751364 -177.784469
7.232407 -13.661548 -177.783411
7.354274 -13.571732 -177.782354
7.375189 -13.468072 -177.783720
7.799912 -13.419789 -177.775394
8.022731 -13.343818 -177.771914
8.144598 -13.254002 -177.770857
8.165513 -13.150342 -177.772223
8.287380 -13.060526 -177.771165
8.308295 -12.956866 -177.772531
8.430163 -12.867050 -177.771474
8.652981 -12.791079 -177.767994
8.875800 -12.715107 -177.764514
8.896716 -12.611447 -177.765880
9.018583 -12.521631 -177.764823
9.039498 -12.417971 -177.766189
9.060413 -12.314311 -177.767555
9.182280 -12.224495 -177.766498
9.203195 -12.120835 -177.767864
9.325062 -12.031019 -177.766807
9.446929 -11.941203 -177.765750
9.467844 -11.837543 -177.767116
9.589711 -11.747727 -177.766058
9.711578 -11.657911 -177.765001
9.833445 -11.568095 -177.763944
9.955312 -11.478280 -177.762887
10.077179 -11.388464 -177.761830
10.199047 -11.298648 -177.760773
10.421865 -11.222676 -177.757293
10.543733 -11.132861 -177.756236
10.564648 -11.029200 -177.757602
10.686515 -10.939385 -177.756544
10.808382 -10.849569 -177.755487
11.031201 -10.773597 -177.752007
11.354972 -10.711470 -177.746104
11.476839 -10.621654 -177.745047
11.598706 -10.531838 -177.743990
11.720573 -10.442023 -177.742932
11.741488 -10.338362 -177.744298
11.863355 -10.248547 -177.743241
12.086174 -10.172575 -177.739761
12.510897 -10.124292 -177.731435
12.531812 -10.020632 -177.732801
12.653679 -9.930816 -177.731744
12.674594 -9.827156 -177.733110
12.796461 -9.737340 -177.732052
13.019280 -9.661369 -177.728572
13.141147 -9.571553 -177.727515
13.263014 -9.481737 -177.726458
13.384881 -9.391921 -177.725401
13.607700 -9.315950 -177.721921
13.729567 -9.226134 -177.720864
13.851434 -9.136318 -177.719806
13.872349 -9.032658 -177.721172
13.994216 -8.942842 -177.720115
14.015131 -8.839182 -177.721481
14.136998 -8.749366 -177.720424
14.157914 -8.645706 -177.721790
14.279781 -8.555890 -177.720733
14.300696 -8.452230 -177.722099
14.422563 -8.362414 -177.721042
14.544430 -8.272598 -177.719985
14.666297 -8.182783 -177.718928
14.788164 -8.092967 -177.717871
15.414791 -8.072372 -177.704698
15.536658 -7.982557 -177.703641
15.557573 -7.878897 -177.705007
15.578488 -7.775236 -177.706373
15.700355 -7.685421 -177.705316
15.721270 -7.581760 -177.706682
15.742185 -7.478100 -177.708048
15.864052 -7.388284 -177.706991
15.884967 -7.284624 -177.708357
15.905882 -7.180964 -177.709723
16.027750 -7.091148 -177.708666
16.048665 -6.987488 -177.710032
16.069580 -6.883828 -177.711398
16.090495 -6.780168 -177.712764
16.212362 -6.690352 -177.711707
16.233277 -6.586692 -177.713073
16.355144 -6.496876 -177.712016
16.376059 -6.393216 -177.713382
16.396974 -6.289556 -177.714748
16.417890 -6.185895 -177.716114
16.438805 -6.082235 -177.717480
16.459720 -5.978575 -177.718846
16.480635 -5.874915 -177.720212
16.501550 -5.771255 -177.721578
16.522465 -5.667595 -177.722944
16.543380 -5.563934 -177.724310
16.463344 -5.446430 -177.728099
16.484259 -5.342770 -177.729465
16.505174 -5.239110 -177.730831
16.526089 -5.135450 -177.732197
16.547004 -5.031789 -177.733563
16.567919 -4.928129 -177.734929
16.588834 -4.824469 -177.736295
16.508798 -4.706965 -177.740084
16.529713 -4.603304 -177.741450
16.449676 -4.485800 -177.745239
16.369639 -4.368295 -177.749028
16.289602 -4.250791 -177.752817
16.209566 -4.133286 -177.756607
16.230481 -4.029626 -177.757973
16.150444 -3.912122 -177.761762
14.051369 -3.517731 -177.814013
13.971332 -3.400226 -177.817803
13.992247 -3.296566 -177.819169
14.013162 -3.192906 -177.820535
13.933126 -3.075401 -177.824324
13.954041 -2.971741 -177.825690
13.874004 -2.854237 -177.829479
13.793967 -2.736732 -177.833268
13.713930 -2.619228 -177.837057
13.734845 -2.515568 -177.838423
13.654809 -2.398063 -177.842212
13.675724 -2.294403 -177.843578
13.696639 -2.190743 -177.844944
13.616602 -2.073238 -177.848733
13.637517 -1.969578 -177.850099
13.658432 -1.865918 -177.851466
13.578396 -1.748414 -177.855255
13.599311 -1.644753 -177.856621
13.519274 -1.527249 -177.860410
13.338285 -1.395900 -177.866622
13.157297 -1.264551 -177.872834
13.077260 -1.147047 -177.876623
12.997223 -1.029542 -177.880413
12.917186 -0.912038 -177.884202
12.938101 -0.808378 -177.885568
12.959016 -0.704718 -177.886934
12.878980 -0.587213 -177.890723
12.899895 -0.483553 -177.892089
12.920810 -0.379893 -177.893455
12.840773 -0.262388 -177.897244
12.861688 -0.158728 -177.898610
12.781652 -0.041224 -177.902399
12.802567 0.062437 -177.903765
12.722530 0.179941 -177.907554
12.743445 0.283601 -177.908920
12.764360 0.387261 -177.910286
12.684323 0.504766 -177.914076
12.705239 0.608426 -177.915442
12.726154 0.712086 -177.916808
12.747069 0.815746 -177.918174
12.667032 0.933251 -177.921963
12.687947 1.036911 -177.923329
12.708862 1.140571 -177.924695
12.729777 1.244231 -177.926061
12.649741 1.361736 -177.929850
12.670656 1.465396 -177.931216
12.590619 1.582900 -177.935005
12.611534 1.686561 -177.936371
12.531497 1.804065 -177.940160
12.552412 1.907725 -177.941526
12.573328 2.011385 -177.942892
12.493291 2.128890 -177.946681
12.514206 2.232550 -177.948047
12.535121 2.336210 -177.949413
12.556036 2.439870 -177.950779
12.576951 2.543531 -177.952146
12.496915 2.661035 -177.955935
12.517830 2.764695 -177.957301
12.538745 2.868355 -177.958667
12.458708 2.985860 -177.962456
12.479623 3.089520 -177.963822
12.399586 3.207024 -177.967611
12.420501 3.310685 -177.968977
12.441417 3.414345 -177.970343
12.361380 3.531849 -177.974132
12.382295 3.635509 -177.975498
12.403210 3.739170 -177.976864
12.424125 3.842830 -177.978230
12.344088 3.960334 -177.982019
12.365004 4.063994 -177.983385
12.284967 4.181499 -177.987174
12.204930 4.299003 -177.990964
12.124893 4.416508 -177.994753
12.145808 4.520168 -177.996119
12.166723 4.623828 -177.997485
12.187639 4.727488 -177.998851
12.208554 4.831148 -178.000217
12.229469 4.934809 -178.001583
12.250384 5.038469 -178.002949
12.271299 5.142129 -178.004315
12.292214 5.245789 -178.005681
12.212177 5.363294 -178.009470
12.233093 5.466954 -178.010836
12.254008 5.570614 -178.012202
12.173971 5.688118 -178.015991
12.194886 5.791779 -178.017357
12.215801 5.895439 -178.018723
12.236716 5.999099 -178.020089
12.257632 6.102759 -178.021455
12.278547 6.206419 -178.022821
12.299462 6.310079 -178.024187
12.320377 6.413740 -178.025553
12.341292 6.517400 -178.026919
12.261255 6.634904 -178.030708
12.181218 6.752409 -178.034498
15.048636 -7.645784 -177.732217
15.486665 -7.353122 -177.721467
15.924693 -7.060460 -177.710718
16.079674 -6.883257 -177.707237
16.140306 -6.744541 -177.706180
16.200939 -6.605825 -177.705123
16.261571 -6.467109 -177.704066
16.416552 -6.289906 -177.700586
16.571533 -6.112703 -177.697106
16.632165 -5.973987 -177.696049
16.598448 -5.873757 -177.697415
16.659080 -5.735041 -177.696357
16.719713 -5.596324 -177.695300
16.685996 -5.496094 -177.696666
16.746628 -5.357378 -177.695609
16.712911 -5.257148 -177.696975
16.773543 -5.118432 -177.695918
16.739826 -5.018202 -177.697284
16.706109 -4.917972 -177.698650
16.672392 -4.817742 -177.700016
16.638675 -4.717512 -177.701382
16.699307 -4.578796 -177.700325
16.665590 -4.478566 -177.701691
16.631873 -4.378336 -177.703057
16.692505 -4.239620 -177.702000
16.658788 -4.139390 -177.703366
16.436373 -4.116133 -177.709578
16.308307 -4.054389 -177.713368
16.274590 -3.954159 -177.714734
16.240873 -3.853929 -177.716100
16.207156 -3.753699 -177.717466
16.079090 -3.691956 -177.721255
16.045373 -3.591726 -177.722621
16.011656 -3.491496 -177.723987
15.977939 -3.391266 -177.725353
15.849872 -3.329523 -177.729142
15.816155 -3.229293 -177.730508
15.027646 -3.436954 -177.751259
14.899579 -3.375210 -177.755048
14.771513 -3.313467 -177.758837
14.643447 -3.251723 -177.762626
14.515381 -3.189979 -177.766415
14.481664 -3.089750 -177.767781
14.447947 -2.989520 -177.769147
14.319881 -2.927776 -177.772937
14.286164 -2.827546 -177.774303
14.252447 -2.727316 -177.775669
14.218730 -2.627086 -177.777035
14.185013 -2.526856 -177.778401
14.151296 -2.426626 -177.779767
14.117579 -2.326397 -177.781133
14.083862 -2.226167 -177.782499
14.050145 -2.125937 -177.783865
14.016428 -2.025707 -177.785231
13.982711 -1.925477 -177.786597
13.948994 -1.825247 -177.787963
13.915277 -1.725017 -177.789329
13.881560 -1.624787 -177.790695
13.847843 -1.524557 -177.792061
13.814126 -1.424327 -177.793427
13.780409 -1.324097 -177.794793
13.746692 -1.223867 -177.796159
13.712975 -1.123637 -177.797525
13.679258 -1.023408 -177.798891
13.645541 -0.923178 -177.800257
13.517475 -0.861434 -177.804046
13.483758 -0.761204 -177.805412
13.450041 -0.660974 -177.806778
13.416324 -0.560744 -177.808144
13.382607 -0.460514 -177.809510
13.348890 -0.360284 -177.810876
13.409522 -0.221568 -177.809819
13.375805 -0.121338 -177.811185
13.342088 -0.021108 -177.812551
13.308371 0.079122 -177.813917
13.274654 0.179352 -177.815283
13.240937 0.279581 -177.816649
13.207220 0.379811 -177.818015
13.173503 0.480041 -177.819381
13.139786 0.580271 -177.820747
13.106069 0.680501 -177.822113
13.072352 0.780731 -177.823479
13.038635 0.880961 -177.824845
12.910569 0.942705 -177.828634
12.876852 1.042934 -177.830000
12.843135 1.143164 -177.831366
12.903767 1.281881 -177.830309
12.870050 1.382111 -177.831675
12.930682 1.520827 -177.830618
12.896965 1.621057 -177.831984
12.863248 1.721287 -177.833350
12.829531 1.821517 -177.834716
12.795814 1.921747 -177.836082
12.762097 2.021976 -177.837448
12.728380 2.122206 -177.838814
12.694663 2.222436 -177.840180
12.660946 2.322666 -177.841546
12.721578 2.461383 -177.840489
12.687861 2.561612 -177.841855
12.654144 2.661842 -177.843221
12.620427 2.762072 -177.844587
12.681059 2.900789 -177.843530
12.647342 3.001019 -177.844896
12.613625 3.101248 -177.846262
12.579908 3.201478 -177.847628
12.640540 3.340195 -177.846571
12.606823 3.440425 -177.847937
12.573106 3.540655 -177.849303
12.539389 3.640884 -177.850669
12.505672 3.741114 -177.852035
12.566305 3.879831 -177.850978
12.532588 3.980061 -177.852344
12.498871 4.080291 -177.853710
12.465154 4.180520 -177.855076
12.431437 4.280750 -177.856442
12.492069 4.419467 -177.855385
12.458352 4.519697 -177.856751
12.424635 4.619927 -177.858117
12.485267 4.758643 -177.857060
12.451550 4.858873 -177.858426
12.417833 4.959103 -177.859792
12.384116 5.059333 -177.861158
12.350399 5.159563 -177.862524
12.411031 5.298279 -177.861467
12.377314 5.398509 -177.862833
12.343597 5.498739 -177.864199
12.309880 5.598969 -177.865565
12.276163 5.699198 -177.866931
12.242446 5.799428 -177.868297
12.208729 5.899658 -177.869663
12.175012 5.999888 -177.871029
12.235644 6.138605 -177.869972
12.201927 6.238834 -177.871338
12.168210 6.339064 -177.872704
12.134493 6.439294 -177.874070
12.195125 6.578011 -177.873013
12.161408 6.678241 -177.874379
12.127691 6.778470 -177.875745
12.093974 6.878700 -177.877111
12.060257 6.978930 -177.878477
12.120889 7.117647 -177.877420
12.087172 7.217877 -177.878786
12.053455 7.318106 -177.880152
11.925389 7.379850 -177.883941
11.891672 7.480080 -177.885307
11.857955 7.580310 -177.886673
11.729889 7.642053 -177.890462
11.601823 7.703797 -177.894251
11.568106 7.804027 -177.895617
11.440040 7.865770 -177.899406
11.406323 7.966000 -177.900772
11.278257 8.027744 -177.904562
11.055841 8.051001 -177.910774
10.927775 8.112745 -177.914563
10.894058 8.212975 -177.915929
10.765992 8.274718 -177.919718
10.732275 8.374948 -177.921084
10.604209 8.436692 -177.924873
10.476143 8.498435 -177.928662
10.253728 8.521692 -177.934875
10.220011 8.621922 -177.936241
10.091945 8.683666 -177.940030
10.058228 8.783896 -177.941396
9.930162 8.845639 -177.945185
9.613397 8.830410 -177.953820
9.485331 8.892154 -177.957610
8.979869 8.799952 -177.971091
8.946152 8.900182 -177.972457
8.818085 8.961925 -177.976246
8.784368 9.062155 -177.977612
8.656302 9.123899 -177.981402
8.622585 9.224128 -177.982768
8.494519 9.285872 -177.986557
8.272104 9.309129 -177.992769
7.766641 9.216927 -178.006251
7.638575 9.278671 -178.010040
16.594441 -4.426167 -177.791951
16.577592 -4.275719 -177.790893
16.560742 -4.125271 -177.789836
16.543893 -3.974823 -177.788779
16.464578 -3.904880 -177.790145
16.447729 -3.754432 -177.789088
16.368414 -3.684489 -177.790454
16.351565 -3.534041 -177.789397
16.272250 -3.464098 -177.790763
16.255401 -3.313650 -177.789706
16.176086 -3.243707 -177.791072
16.159237 -3.093259 -177.790015
16.079922 -3.023316 -177.791381
16.000607 -2.953372 -177.792747
15.921292 -2.883429 -177.794113
15.779512 -2.893991 -177.797902
15.700197 -2.824048 -177.799268
15.558417 -2.834609 -177.803057
15.479102 -2.764666 -177.804423
15.337322 -2.775228 -177.808212
15.258007 -2.705285 -177.809578
15.116227 -2.715846 -177.813368
15.036912 -2.645903 -177.814734
14.895132 -2.656465 -177.818523
14.815817 -2.586522 -177.819889
14.736502 -2.516578 -177.821255
14.657187 -2.446635 -177.822621
14.577873 -2.376692 -177.823987
14.498558 -2.306749 -177.825353
14.419243 -2.236806 -177.826719
14.339928 -2.166863 -177.828085
14.260613 -2.096919 -177.829451
14.243764 -1.946471 -177.828394
14.164449 -1.876528 -177.829760
14.085135 -1.806585 -177.831126
13.943354 -1.817147 -177.834915
13.864039 -1.747204 -177.836281
13.784725 -1.677260 -177.837647
13.767875 -1.526813 -177.836590
13.751026 -1.376365 -177.835533
13.796642 -1.145412 -177.832052
13.779793 -0.994964 -177.830995
13.762944 -0.844516 -177.829938
13.683629 -0.774573 -177.831304
13.604314 -0.704630 -177.832670
13.524999 -0.634686 -177.834036
13.508150 -0.484239 -177.832979
13.491301 -0.333791 -177.831922
13.411986 -0.263847 -177.833288
13.395137 -0.113399 -177.832231
13.315822 -0.043456 -177.833597
13.236507 0.026487 -177.834963
13.157193 0.096430 -177.836329
13.015412 0.085868 -177.840118
12.873632 0.075307 -177.843907
12.767605 1.660291 -177.830913
12.750756 1.810739 -177.829856
12.733906 1.961187 -177.828799
12.717057 2.111635 -177.827742
12.825139 2.423092 -177.821838
12.808290 2.573540 -177.820781
12.791440 2.723988 -177.819724
12.712126 2.793931 -177.821090
12.695276 2.944379 -177.820033
12.615962 3.014322 -177.821399
12.536647 3.084266 -177.822765
12.394866 3.073704 -177.826554
12.315552 3.143647 -177.827920
12.298702 3.294095 -177.826863
12.219388 3.364038 -177.828229
12.327469 3.675496 -177.822326
12.310620 3.825944 -177.821269
12.231305 3.895887 -177.822635
12.214456 4.046335 -177.821578
12.197607 4.196783 -177.820521
12.243223 4.427736 -177.817040
12.288839 4.658688 -177.813560
12.334456 4.889641 -177.810080
12.317607 5.040089 -177.809023
12.300757 5.190537 -177.807966
12.221442 5.260480 -177.809332
12.204593 5.410928 -177.808275
12.125278 5.480871 -177.809641
12.108429 5.631319 -177.808583
12.091580 5.781767 -177.807526
12.137196 6.012720 -177.804046
12.182812 6.243672 -177.800566
12.165963 6.394120 -177.799509
12.149114 6.544568 -177.798452
12.132265 6.695016 -177.797395
12.115415 6.845464 -177.796337
12.098566 6.995912 -177.795280
12.081717 7.146360 -177.794223
12.002402 7.216303 -177.795589
11.985553 7.366751 -177.794532
11.906238 7.436694 -177.795898
11.826923 7.506638 -177.797264
11.747609 7.576581 -177.798630
11.730759 7.727029 -177.797573
11.651444 7.796972 -177.798939
11.634595 7.947420 -177.797882
11.555280 8.017363 -177.799248
11.538431 8.167811 -177.798191
11.459116 8.237754 -177.799557
11.379802 8.307697 -177.800923
11.238021 8.297136 -177.804712
11.158706 8.367079 -177.806078
11.079392 8.437022 -177.807444
11.000077 8.506965 -177.808810
10.920762 8.576908 -177.810176
10.841447 8.646851 -177.811542
10.762133 8.716795 -177.812908
10.620352 8.706233 -177.816697
10.541037 8.776176 -177.818063
10.461723 8.846119 -177.819429
10.382408 8.916062 -177.820795
10.240628 8.905501 -177.824584
10.161313 8.975444 -177.825950
10.081998 9.045387 -177.827317
10.002683 9.115330 -177.828683
9.923368 9.185273 -177.830049
9.844054 9.255217 -177.831415
9.764739 9.325160 -177.832781
9.622958 9.314598 -177.836570
9.543644 9.384541 -177.837936
9.464329 9.454484 -177.839302
9.322549 9.443923 -177.843091
9.243234 9.513866 -177.844457
9.101453 9.503304 -177.848246
8.959673 9.492743 -177.852035
8.880358 9.562686 -177.853401
8.801043 9.632629 -177.854767
8.659263 9.622067 -177.858556
8.579948 9.692011 -177.859922
8.438168 9.681449 -177.863712
8.233922 9.590383 -177.869924
8.092142 9.579821 -177.873713
8.012827 9.649764 -177.875079
7.933512 9.719707 -177.876445
7.854197 9.789650 -177.877811
7.774883 9.859594 -177.879177
7.695568 9.929537 -177.880543
7.616253 9.999480 -177.881909
7.474473 9.988918 -177.885698
7.332692 9.978357 -177.889487
7.190912 9.967795 -177.893276
7.049132 9.957233 -177.897066
6.907351 9.946672 -177.900855
6.828037 10.016615 -177.902221
6.686256 10.006053 -177.906010
6.544476 9.995492 -177.909799
6.402696 9.984930 -177.913588
6.260915 9.974368 -177.917377
6.119135 9.963807 -177.921166
5.977355 9.953245 -177.924956
5.898040 10.023188 -177.926322
5.756260 10.012627 -177.930111
5.614479 10.002065 -177.933900
5.472699 9.991503 -177.937689
5.330919 9.980942 -177.941478
5.189138 9.970380 -177.945267
5.047358 9.959819 -177.949056
4.905578 9.949257 -177.952846
4.763797 9.938695 -177.956635
4.559551 9.847629 -177.962847
4.417771 9.837067 -177.966636
4.213525 9.746001 -177.972848
3.884348 9.493925 -177.983907
3.680102 9.402858 -177.990119
3.538322 9.392297 -177.993908
3.396542 9.381735 -177.997697
11.553907 8.176385 -177.799982
11.477935 8.399203 -177.796502
11.388119 8.521071 -177.795445
11.284459 8.541986 -177.796811
11.194643 8.663853 -177.795754
11.118672 8.886672 -177.792273
11.028856 9.008539 -177.791216
10.925196 9.029454 -177.792582
10.835380 9.151321 -177.791525
10.731720 9.172236 -177.792891
10.628060 9.193151 -177.794257
10.538244 9.315018 -177.793200
10.434584 9.335933 -177.794566
10.317079 9.255897 -177.798355
10.213419 9.276812 -177.799721
10.109759 9.297727 -177.801087
10.019943 9.419594 -177.800030
9.916283 9.440509 -177.801396
9.826467 9.562376 -177.800339
9.722807 9.583291 -177.801705
9.619147 9.604206 -177.803071
9.529331 9.726073 -177.802014
9.425671 9.746988 -177.803380
9.322011 9.767904 -177.804746
9.218350 9.788819 -177.806112
9.114690 9.809734 -177.807478
9.011030 9.830649 -177.808844
8.907370 9.851564 -177.810210
8.803710 9.872479 -177.811576
8.700050 9.893394 -177.812942
8.610234 10.015261 -177.811885
8.506574 10.036177 -177.813251
8.402913 10.057092 -177.814617
8.299253 10.078007 -177.815983
8.195593 10.098922 -177.817349
8.091933 10.119837 -177.818715
7.988273 10.140752 -177.820081
7.884613 10.161667 -177.821447
7.780952 10.182582 -177.822813
7.677292 10.203498 -177.824179
7.573632 10.224413 -177.825545
7.469972 10.245328 -177.826911
7.380156 10.367195 -177.825854
7.276496 10.388110 -177.827220
7.172836 10.409025 -177.828586
7.055331 10.328988 -177.832375
6.951671 10.349904 -177.833741
6.848011 10.370819 -177.835107
6.744351 10.391734 -177.836473
6.640691 10.412649 -177.837839
6.537031 10.433564 -177.839205
6.433370 10.454479 -177.840571
6.329710 10.475394 -177.841937
6.226050 10.496309 -177.843304
6.122390 10.517225 -177.844670
6.004885 10.437188 -177.848459
5.901225 10.458103 -177.849825
5.797565 10.479018 -177.851191
5.693905 10.499933 -177.852557
5.590245 10.520848 -177.853923
5.472740 10.440812 -177.857712
5.369080 10.461727 -177.859078
5.265420 10.482642 -177.860444
5.161760 10.503557 -177.861810
5.044255 10.423520 -177.865599
4.940595 10.444435 -177.866965
4.823091 10.364398 -177.870754
4.705586 10.284362 -177.874543
4.601926 10.305277 -177.875909
4.498266 10.326192 -177.877275
4.380761 10.246155 -177.881065
4.277101 10.267070 -177.882431
4.173441 10.287985 -177.883797
4.069781 10.308901 -177.885163
3.966121 10.329816 -177.886529
3.848616 10.249779 -177.890318
3.744956 10.270694 -177.891684
3.627452 10.190657 -177.895473
3.509947 10.110620 -177.899262
3.378598 9.929632 -177.905474
3.261094 9.849595 -177.909263
3.171278 9.971462 -177.908206
3.067618 9.992377 -177.909572
2.963958 10.013292 -177.910938
2.846453 9.933256 -177.914727
2.742793 9.954171 -177.916094
2.625289 9.874134 -177.919883
2.493940 9.693145 -177.926095
2.376435 9.613108 -177.929884
2.258931 9.533072 -177.933673
2.141426 9.453035 -177.937462
2.023922 9.372998 -177.941251
1.920262 9.393913 -177.942617
1.802757 9.313876 -177.946407
1.699097 9.334792 -177.947773
1.581592 9.254755 -177.951562
1.477932 9.275670 -177.952928
1.374272 9.296585 -177.954294
1.256768 9.216548 -177.958083
1.125419 9.035560 -177.964295
0.994070 8.854571 -177.970507
0.890410 8.875486 -177.971874
0.772905 8.795449 -177.975663
0.669245 8.816364 -177.977029
0.551741 8.736328 -177.980818
0.448081 8.757243 -177.982184
0.233666 7.970543 -178.002935
0.130006 7.991458 -178.004301
0.012501 7.911421 -178.008090
-0.105003 7.831384 -178.011879
9.639047 9.603303 -177.873067
9.500331 9.663935 -177.872010
9.400101 9.630218 -177.873376
9.261385 9.690850 -177.872319
9.161155 9.657133 -177.873685
9.060925 9.623416 -177.875051
8.922209 9.684048 -177.873994
8.821979 9.650331 -177.875360
8.683262 9.710963 -177.874303
8.467573 9.960293 -177.868399
8.290371 10.115275 -177.864919
8.151654 10.175907 -177.863862
7.974452 10.330888 -177.860382
7.874222 10.297171 -177.861748
7.735505 10.357803 -177.860691
7.596789 10.418435 -177.859634
7.458073 10.479067 -177.858576
7.319357 10.539699 -177.857519
7.180640 10.600332 -177.856462
7.041924 10.660964 -177.855405
6.941694 10.627247 -177.856771
6.802978 10.687879 -177.855714
6.702748 10.654162 -177.857080
6.602518 10.620445 -177.858446
6.502288 10.586728 -177.859812
6.402058 10.553011 -177.861178
6.301828 10.519294 -177.862544
6.201598 10.485577 -177.863910
6.062882 10.546209 -177.862853
5.962652 10.512492 -177.864219
5.823936 10.573124 -177.863162
5.723706 10.539407 -177.864528
5.584989 10.600039 -177.863471
5.484760 10.566322 -177.864837
5.346043 10.626954 -177.863780
5.245813 10.593237 -177.865146
5.145583 10.559520 -177.866512
5.045353 10.525803 -177.867878
4.945124 10.492086 -177.869244
4.844894 10.458369 -177.870610
4.744664 10.424652 -177.871976
4.605947 10.485284 -177.870919
4.505717 10.451567 -177.872285
4.405488 10.417850 -177.873651
4.305258 10.384133 -177.875017
4.205028 10.350416 -177.876383
4.104798 10.316699 -177.877749
4.004568 10.282982 -177.879115
3.904338 10.249265 -177.880481
3.765622 10.309897 -177.879424
3.665392 10.276180 -177.880790
3.565162 10.242463 -177.882156
3.426446 10.303096 -177.881099
3.326216 10.269379 -177.882465
3.225986 10.235662 -177.883831
3.125756 10.201945 -177.885197
3.025526 10.168228 -177.886563
2.886810 10.228860 -177.885506
2.786580 10.195143 -177.886872
2.686350 10.161426 -177.888238
2.586120 10.127709 -177.889604
2.485890 10.093992 -177.890970
2.385660 10.060275 -177.892336
2.323916 9.932209 -177.896125
2.223686 9.898492 -177.897491
2.123457 9.864775 -177.898857
2.023227 9.831058 -177.900223
1.922997 9.797341 -177.901589
1.822767 9.763624 -177.902955
1.722537 9.729907 -177.904321
1.622307 9.696190 -177.905687
1.522077 9.662473 -177.907053
1.421847 9.628756 -177.908419
1.321617 9.595039 -177.909785
1.259874 9.466972 -177.913574
1.159644 9.433255 -177.914940
1.059414 9.399538 -177.916306
0.959184 9.365821 -177.917672
0.858954 9.332104 -177.919038
0.758724 9.298387 -177.920404
0.658494 9.264670 -177.921770
0.596751 9.136604 -177.925559
0.496521 9.102887 -177.926925
0.396291 9.069170 -177.928291
0.296061 9.035453 -177.929657
0.234317 8.907387 -177.933447
0.134087 8.873670 -177.934813
0.033857 8.839953 -177.936179
-0.066373 8.806236 -177.937545
-0.128116 8.678170 -177.941334
-0.228346 8.644453 -177.942700
-0.290090 8.516387 -177.946489
-0.390320 8.482670 -177.947855
-0.452063 8.354604 -177.951644
-0.552293 8.320887 -177.953010
-0.614037 8.192821 -177.956799
-0.675780 8.064755 -177.960588
-0.776010 8.031038 -177.961954
-0.837754 7.902972 -177.965743
-0.899497 7.774905 -177.969533
4.607121 11.110613 -177.936247
4.456673 11.093764 -177.935190
4.306226 11.076915 -177.934133
4.155778 11.060065 -177.933075
4.005330 11.043216 -177.932018
3.854882 11.026367 -177.930961
3.784939 10.947052 -177.932327
3.714996 10.867738 -177.933693
3.564548 10.850889 -177.932636
3.494605 10.771574 -177.934002
3.344157 10.754725 -177.932945
3.193709 10.737876 -177.931888
3.123766 10.658561 -177.933254
2.973318 10.641712 -177.932197
2.903375 10.562397 -177.933563
2.752927 10.545548 -177.932506
2.682984 10.466233 -177.933872
2.532536 10.449384 -177.932815
2.462593 10.370069 -177.934181
2.312145 10.353220 -177.933124
1.839678 10.586233 -177.922374
1.689231 10.569384 -177.921317
1.619287 10.490069 -177.922683
1.468840 10.473220 -177.921626
1.398896 10.393906 -177.922992
1.167944 10.439522 -177.919512
1.017496 10.422673 -177.918454
0.947553 10.343358 -177.919820
0.877610 10.264044 -177.921186
0.727162 10.247194 -177.920129
0.657219 10.167880 -177.921495
0.587276 10.088565 -177.922861
0.517332 10.009250 -177.924227
0.447389 9.929936 -177.925593
0.377446 9.850621 -177.926959
0.226998 9.833772 -177.925902
0.157055 9.754457 -177.927268
0.087112 9.675142 -177.928634
0.017169 9.595828 -177.930000
-0.133279 9.578979 -177.928943
-0.203222 9.499664 -177.930309
-0.273165 9.420349 -177.931675
-0.343108 9.341035 -177.933041
-0.413052 9.261720 -177.934407
-0.482995 9.182405 -177.935773
-0.633443 9.165556 -177.934716
-0.703386 9.086241 -177.936082
-0.773329 9.006927 -177.937448
-0.843272 8.927612 -177.938814
-0.993720 8.910763 -177.937757
-1.063663 8.831448 -177.939123
-1.133606 8.752133 -177.940489
-1.203549 8.672819 -177.941855
-1.273493 8.593504 -177.943221
-1.262931 8.451724 -177.947010
-1.332874 8.372409 -177.948376
-1.483322 8.355560 -177.947319
-1.553265 8.276245 -177.948685
-1.623208 8.196931 -177.950051
-1.693152 8.117616 -177.951417
-1.763095 8.038301 -177.952783
-1.833038 7.958987 -177.954149
-1.902981 7.879672 -177.955515
-1.972924 7.800357 -177.956881
-2.042867 7.721043 -177.958247
-2.112810 7.641728 -177.959613
-2.182754 7.562413 -177.960979
-2.333201 7.545564 -177.959922
-2.403145 7.466249 -177.961288
-2.473088 7.386935 -177.962654
-2.543031 7.307620 -177.964020
-2.612974 7.228305 -177.965386
-2.682917 7.148991 -177.966752
-2.672356 7.007210 -177.970542
-2.742299 6.927896 -177.971908
-2.812242 6.848581 -177.973274
-2.882185 6.769266 -177.974640
-2.952128 6.689952 -177.976006
-3.022071 6.610637 -177.977372
-3.092015 6.531322 -177.978738
-3.161958 6.452008 -177.980104
-3.231901 6.372693 -177.981470
-3.301844 6.293378 -177.982836
-3.371787 6.214063 -177.984202
-3.441730 6.134749 -177.985568
-3.511674 6.055434 -177.986934
-3.501112 5.913654 -177.990723
-3.571055 5.834339 -177.992089
-3.640998 5.755025 -177.993455
-3.710942 5.675710 -177.994821
-3.780885 5.596395 -177.996187
-3.770323 5.454615 -177.999976
-3.840266 5.375300 -178.001342
-3.910209 5.295986 -178.002708
-3.980153 5.216671 -178.004074
-4.050096 5.137356 -178.005440
-4.039534 4.995576 -178.009229
-4.189982 4.978727 -178.008172
-4.259925 4.899412 -178.009538
-4.329868 4.820097 -178.010904
-4.399812 4.740783 -178.012270
-4.469755 4.661468 -178.013636
-4.539698 4.582153 -178.015002
-4.609641 4.502839 -178.016368
-4.679584 4.423524 -178.017734
-4.749527 4.344209 -178.019100
-4.819471 4.264895 -178.020466
-4.808909 4.123114 -178.024256
-4.878852 4.043800 -178.025622
-4.948795 3.964485 -178.026988
-5.018738 3.885170 -178.028354
-5.008177 3.743390 -178.032143
-5.078120 3.664075 -178.033509
-5.148063 3.584761 -178.034875
-5.218006 3.505446 -178.036241
-5.207445 3.363666 -178.040030
-5.196883 3.221886 -178.043819
-3.540671 6.763567 -177.984105
-3.561586 6.659907 -177.985471
-3.683454 6.570091 -177.984414
-3.704369 6.466431 -177.985780
-3.725284 6.362770 -177.987146
-3.746199 6.259110 -177.988512
-3.868066 6.169294 -177.987455
-3.989933 6.079479 -177.986398
-4.010848 5.975818 -177.987764
-4.031763 5.872158 -177.989130
-4.153630 5.782342 -177.988073
-4.174545 5.678682 -177.989439
-4.195461 5.575022 -177.990805
-4.216376 5.471362 -177.992171
-4.237291 5.367702 -177.993537
-4.359158 5.277886 -177.992480
-4.380073 5.174226 -177.993846
-4.501940 5.084410 -177.992789
-4.522855 4.980750 -177.994155
-4.644722 4.890934 -177.993098
-4.665637 4.787274 -177.994464
-4.787504 4.697458 -177.993407
-4.909371 4.607642 -177.992350
-5.031238 4.517826 -177.991293
-5.153106 4.428010 -177.990235
-5.174021 4.324350 -177.991602
-5.295888 4.234534 -177.990544
-5.316803 4.130874 -177.991910
-5.438670 4.041058 -177.990853
-5.459585 3.937398 -177.992219
-5.480500 3.833738 -177.993585
-5.602367 3.743922 -177.992528
-5.623282 3.640262 -177.993894
-5.745149 3.550446 -177.992837
-5.766064 3.446786 -177.994203
-5.887932 3.356970 -177.993146
-5.908847 3.253310 -177.994512
-5.929762 3.149650 -177.995878
-5.950677 3.045990 -177.997244
-6.072544 2.956174 -177.996187
-6.093459 2.852514 -177.997553
-6.114374 2.748854 -177.998919
-6.135289 2.645194 -178.000285
-6.156204 2.541533 -178.001651
-6.177120 2.437873 -178.003017
-6.198035 2.334213 -178.004383
-6.117998 2.216709 -178.008172
-6.037961 2.099204 -178.011961
-5.957924 1.981700 -178.015751
-5.978840 1.878039 -178.017117
-5.999755 1.774379 -178.018483
-5.919718 1.656875 -178.022272
-6.041585 1.567059 -178.021215
-6.062500 1.463399 -178.022581
-6.083415 1.359739 -178.023947
-6.104330 1.256079 -178.025313
-6.125245 1.152418 -178.026679
-6.146161 1.048758 -178.028045
-6.167076 0.945098 -178.029411
-6.187991 0.841438 -178.030777
-6.208906 0.737778 -178.032143
-6.229821 0.634118 -178.033509
-6.250736 0.530457 -178.034875
-6.170699 0.412953 -178.038664
-6.191615 0.309293 -178.040030
-6.111578 0.191788 -178.043819
-6.132493 0.088128 -178.045185
-6.153408 -0.015532 -178.046551
-6.073371 -0.133037 -178.050340
-6.094286 -0.236697 -178.051706
-6.115202 -0.340357 -178.053072
-6.035165 -0.457861 -178.056861
-6.056080 -0.561522 -178.058227
-6.076995 -0.665182 -178.059593
-6.097910 -0.768842 -178.060959
-6.017873 -0.886346 -178.064749
-5.735933 -1.031539 -178.073384
-5.655896 -1.149044 -178.077173
-5.575859 -1.266548 -178.080962
-5.596774 -1.370209 -178.082328
-5.617689 -1.473869 -178.083694
-5.537653 -1.591373 -178.087483
-5.558568 -1.695033 -178.088849
-5.579483 -1.798694 -178.090215
-5.600398 -1.902354 -178.091581
-5.520361 -2.019858 -178.095371
-5.238421 -2.165051 -178.104006
-5.158384 -2.282556 -178.107795
-5.078347 -2.400060 -178.111584
-4.998310 -2.517565 -178.115373
-4.918274 -2.635069 -178.119163
-4.939189 -2.738729 -178.120529
-4.859152 -2.856234 -178.124318
-4.880067 -2.959894 -178.125684
-4.900982 -3.063554 -178.127050
-4.820945 -3.181059 -178.130839
-6.629697 2.075289 -177.987943
-6.595980 1.975059 -177.989309
-6.656612 1.836343 -177.988252
-6.717244 1.697626 -177.987195
-6.777877 1.558910 -177.986137
-6.744160 1.458680 -177.987503
-6.804792 1.319964 -177.986446
-6.771075 1.219734 -177.987812
-6.831707 1.081017 -177.986755
-6.797990 0.980788 -177.988121
-6.764273 0.880558 -177.989487
-6.824905 0.741841 -177.988430
-6.791188 0.641611 -177.989796
-6.757471 0.541381 -177.991162
-6.818103 0.402665 -177.990105
-6.784386 0.302435 -177.991471
-6.750669 0.202205 -177.992837
-6.811301 0.063489 -177.991780
-6.777584 -0.036741 -177.993146
-6.743867 -0.136971 -177.994512
-6.710150 -0.237201 -177.995878
-6.676433 -0.337431 -177.997244
-6.642716 -0.437661 -177.998610
-6.703348 -0.576377 -177.997553
-6.669631 -0.676607 -177.998919
-6.635914 -0.776837 -178.000285
-6.507848 -0.838580 -178.004074
-6.474131 -0.938810 -178.005440
-6.440414 -1.039040 -178.006806
-6.406697 -1.139270 -178.008172
-6.372980 -1.239500 -178.009538
-6.339263 -1.339730 -178.010904
-6.399895 -1.478446 -178.009847
-6.366178 -1.578676 -178.011213
-6.332461 -1.678906 -178.012579
-6.298744 -1.779136 -178.013945
-6.265027 -1.879366 -178.015311
-6.231310 -1.979596 -178.016677
-6.197593 -2.079826 -178.018043
-6.163876 -2.180056 -178.019409
-6.130159 -2.280286 -178.020775
-6.096442 -2.380515 -178.022141
-5.968376 -2.442259 -178.025930
-5.934659 -2.542489 -178.027296
-5.900942 -2.642719 -178.028662
-5.867225 -2.742949 -178.030028
-5.833508 -2.843179 -178.031394
-5.705442 -2.904922 -178.035184
-5.671725 -3.005152 -178.036550
-5.638008 -3.105382 -178.037916
-5.604291 -3.205612 -178.039282
-5.570574 -3.305842 -178.040648
-5.536857 -3.406072 -178.042014
-5.503140 -3.506302 -178.043380
-5.375074 -3.568045 -178.047169
-5.341357 -3.668275 -178.048535
-5.307640 -3.768505 -178.049901
-5.273923 -3.868735 -178.051267
-5.240206 -3.968965 -178.052633
-5.206489 -4.069195 -178.053999
-5.172772 -4.169425 -178.055365
-5.139055 -4.269655 -178.056731
-5.010989 -4.331398 -178.060520
-4.977272 -4.431628 -178.061886
-4.849206 -4.493372 -178.065675
-4.815489 -4.593602 -178.067041
-4.781772 -4.693832 -178.068407
-4.748055 -4.794062 -178.069773
-4.619989 -4.855805 -178.073562
-4.586272 -4.956035 -178.074928
-4.552555 -5.056265 -178.076294
-4.518838 -5.156495 -178.077661
-4.485121 -5.256725 -178.079027
-4.451404 -5.356955 -178.080393
-4.417687 -5.457185 -178.081759
-4.289620 -5.518928 -178.085548
-4.255903 -5.619158 -178.086914
-4.222186 -5.719388 -178.088280
-4.188469 -5.819618 -178.089646
-4.060403 -5.881362 -178.093435
-4.026686 -5.981591 -178.094801
-3.992969 -6.081821 -178.096167
-3.864903 -6.143565 -178.099956
-3.831186 -6.243795 -178.101322
-3.797469 -6.344025 -178.102688
-3.669403 -6.405768 -178.106477
-3.635686 -6.505998 -178.107843
-3.601969 -6.606228 -178.109209
-3.568252 -6.706458 -178.110575
-3.534535 -6.806688 -178.111941
-3.500818 -6.906918 -178.113307
-3.372752 -6.968661 -178.117096
-3.339035 -7.068891 -178.118462
-3.305318 -7.169121 -178.119828
-3.177252 -7.230865 -178.123618
-3.143535 -7.331095 -178.124984
-3.109818 -7.431325 -178.126350
-3.076101 -7.531555 -178.127716
-3.042384 -7.631785 -178.129082
-3.008667 -7.732014 -178.130448
-2.880601 -7.793758 -178.134237
-2.846884 -7.893988 -178.135603
-2.813167 -7.994218 -178.136969
-2.779450 -8.094448 -178.138335
-2.745733 -8.194678 -178.139701
-2.617667 -8.256421 -178.143490
-2.583950 -8.356651 -178.144856
-2.550233 -8.456881 -178.146222
-2.422167 -8.518625 -178.150011
-2.388450 -8.618855 -178.151377
-2.354733 -8.719085 -178.152743
-2.321016 -8.819314 -178.154109
-2.192949 -8.881058 -178.157898
-2.159232 -8.981288 -178.159264
-2.125515 -9.081518 -178.160630
-1.997449 -9.143261 -178.164420
-1.869383 -9.205005 -178.168209
-1.269572 -9.074317 -178.184113
-1.235855 -9.174547 -178.185479
-1.202138 -9.274776 -178.186846
-1.168421 -9.375006 -178.188212
-1.134704 -9.475236 -178.189578
-1.100987 -9.575466 -178.190944
-1.067270 -9.675696 -178.192310
-0.939203 -9.737440 -178.196099
-0.905486 -9.837670 -178.197465
-0.777420 -9.899413 -178.201254
-0.649354 -9.961157 -178.205043
-0.426939 -9.984414 -178.211255
-0.298873 -10.046157 -178.215044
-0.170807 -10.107901 -178.218834
0.051608 -10.131158 -178.225046
0.179675 -10.192902 -178.228835
0.213392 -10.293132 -178.230201
0.341458 -10.354875 -178.233990
0.375175 -10.455105 -178.235356
0.503241 -10.516849 -178.239145
0.536958 -10.617079 -178.240511
0.665024 -10.678822 -178.244300
0.793090 -10.740566 -178.248090
0.826807 -10.840796 -178.249456
-7.151866 -0.104181 -177.992302
-7.135016 -0.254629 -177.991244
-7.118167 -0.405077 -177.990187
-7.038853 -0.475020 -177.991553
-6.959538 -0.544963 -177.992919
-6.942689 -0.695411 -177.991862
-6.863374 -0.765354 -177.993228
-6.784059 -0.835297 -177.994594
-6.767210 -0.985745 -177.993537
-6.687896 -1.055688 -177.994903
-6.671046 -1.206136 -177.993846
-6.654197 -1.356584 -177.992789
-6.574883 -1.426527 -177.994155
-6.558033 -1.576975 -177.993098
-6.541184 -1.727423 -177.992041
-6.524335 -1.877870 -177.990984
-6.632417 -2.189328 -177.985080
-6.615568 -2.339775 -177.984023
-6.598719 -2.490223 -177.982966
-6.519404 -2.560166 -177.984332
-6.502555 -2.710614 -177.983275
-6.423240 -2.780557 -177.984641
-6.343926 -2.850501 -177.986007
-6.264611 -2.920444 -177.987373
-6.247762 -3.070892 -177.986316
-6.168447 -3.140835 -177.987682
-6.089132 -3.210778 -177.989048
-6.009818 -3.280721 -177.990414
-5.992969 -3.431169 -177.989357
-5.913654 -3.501112 -177.990723
-5.896805 -3.651560 -177.989666
-5.817490 -3.721503 -177.991032
-5.800641 -3.871951 -177.989975
-5.721326 -3.941894 -177.991341
-5.642012 -4.011837 -177.992707
-5.562697 -4.081780 -177.994073
-5.545848 -4.232228 -177.993016
-5.466533 -4.302171 -177.994382
-5.387218 -4.372115 -177.995748
-5.370369 -4.522562 -177.994691
-5.291055 -4.592506 -177.996057
-5.211740 -4.662449 -177.997423
-5.194891 -4.812897 -177.996366
-5.115576 -4.882840 -177.997732
-5.036261 -4.952783 -177.999098
-4.956947 -5.022726 -178.000464
-4.877632 -5.092669 -178.001830
-4.860783 -5.243117 -178.000772
-4.781468 -5.313060 -178.002138
-4.702153 -5.383003 -178.003504
-4.622839 -5.452946 -178.004871
-4.543524 -5.522890 -178.006237
-4.464209 -5.592833 -178.007603
-4.447360 -5.743281 -178.006545
-4.368046 -5.813224 -178.007911
-4.288731 -5.883167 -178.009277
-4.271882 -6.033615 -178.008220
-4.192567 -6.103558 -178.009586
-4.113252 -6.173501 -178.010952
-4.033938 -6.243444 -178.012318
-3.954623 -6.313387 -178.013684
-3.937774 -6.463835 -178.012627
-3.858459 -6.533778 -178.013993
-3.779144 -6.603722 -178.015359
-3.762295 -6.754169 -178.014302
-3.682981 -6.824113 -178.015668
-3.666131 -6.974560 -178.014611
-3.586817 -7.044504 -178.015977
-3.507502 -7.114447 -178.017343
-3.428187 -7.184390 -178.018709
-3.348873 -7.254333 -178.020075
-3.332024 -7.404781 -178.019018
-3.252709 -7.474724 -178.020384
-3.173394 -7.544667 -178.021750
-3.156545 -7.695115 -178.020693
-3.077230 -7.765058 -178.022059
-2.997916 -7.835001 -178.023425
-2.918601 -7.904944 -178.024791
-2.839286 -7.974888 -178.026157
-2.759972 -8.044831 -178.027523
-2.680657 -8.114774 -178.028889
-2.663808 -8.265222 -178.027832
-2.584493 -8.335165 -178.029198
-2.505178 -8.405108 -178.030564
-2.488329 -8.555556 -178.029507
-2.409015 -8.625499 -178.030873
-2.329700 -8.695442 -178.032239
-2.250385 -8.765385 -178.033605
-2.171071 -8.835329 -178.034971
-2.154221 -8.985776 -178.033914
-2.074907 -9.055720 -178.035280
-1.995592 -9.125663 -178.036646
-1.978743 -9.276111 -178.035589
-1.899428 -9.346054 -178.036955
-1.820114 -9.415997 -178.038321
-1.740799 -9.485940 -178.039687
-1.661484 -9.555883 -178.041053
-1.582169 -9.625826 -178.042419
-1.502855 -9.695770 -178.043785
-1.486006 -9.846217 -178.042728
-1.406691 -9.916161 -178.044094
-1.327376 -9.986104 -178.045460
-1.248062 -10.056047 -178.046826
-1.168747 -10.125990 -178.048192
-1.151898 -10.276438 -178.047135
-1.072583 -10.346381 -178.048501
-0.993268 -10.416324 -178.049867
-0.913954 -10.486267 -178.051233
-0.834639 -10.556210 -178.052599
-0.755324 -10.626154 -178.053965
-0.676010 -10.696097 -178.055331
-0.596695 -10.766040 -178.056697
-0.454915 -10.755478 -178.060486
-0.375600 -10.825422 -178.061852
-0.358751 -10.975869 -178.060795
-0.279436 -11.045813 -178.062161
-0.200122 -11.115756 -178.063527
-0.120807 -11.185699 -178.064893
-0.041492 -11.255642 -178.066259
0.037823 -11.325585 -178.067625
0.117137 -11.395528 -178.068991
0.196452 -11.465471 -178.070357
0.213301 -11.615919 -178.069300
0.292616 -11.685862 -178.070666
0.371930 -11.755806 -178.072032
0.451245 -11.825749 -178.073398
0.530560 -11.895692 -178.074764
0.672340 -11.885130 -178.078553
0.751655 -11.955074 -178.079919
0.830969 -12.025017 -178.081285
0.972750 -12.014455 -178.085074
1.052064 -12.084398 -178.086440
1.131379 -12.154342 -178.087806
1.273159 -12.143780 -178.091595
1.352474 -12.213723 -178.092961
1.431789 -12.283666 -178.094328
1.511103 -12.353609 -178.095694
1.590418 -12.423553 -178.097060
1.669733 -12.493496 -178.098426
1.749047 -12.563439 -178.099792
1.828362 -12.633382 -178.101158
1.970142 -12.622821 -178.104947
2.049457 -12.692764 -178.106313
2.128772 -12.762707 -178.107679
2.270552 -12.752145 -178.111468
2.349867 -12.822089 -178.112834
2.491647 -12.811527 -178.116623
2.570961 -12.881470 -178.117989
2.650276 -12.951413 -178.119355
2.729591 -13.021356 -178.120721
2.808906 -13.091300 -178.122087
2.888220 -13.161243 -178.123453
3.030000 -13.150681 -178.127242
3.109315 -13.220624 -178.128608
3.251095 -13.210063 -178.132397
3.392876 -13.199501 -178.136187
3.534656 -13.188940 -178.139976
3.738902 -13.097874 -178.146188
3.880682 -13.087312 -178.149977
3.959996 -13.157255 -178.151343
4.039311 -13.227198 -178.152709
4.118626 -13.297142 -178.154075
4.260406 -13.286580 -178.157864
4.589583 -13.034504 -178.168923
4.731363 -13.023943 -178.172712
-1.892573 -9.192009 -177.947464
-1.802757 -9.313876 -177.946407
-1.712941 -9.435743 -177.945350
-1.609281 -9.456659 -177.946716
-1.519465 -9.578526 -177.945658
-1.415805 -9.599441 -177.947024
-1.339834 -9.822260 -177.943544
-1.250018 -9.944127 -177.942487
-1.160202 -10.065994 -177.941430
-1.056542 -10.086909 -177.942796
-0.966726 -10.208776 -177.941739
-0.876910 -10.330643 -177.940682
-0.787094 -10.452510 -177.939625
-0.683434 -10.473425 -177.940991
-0.593618 -10.595292 -177.939934
-0.489958 -10.616207 -177.941300
-0.400142 -10.738074 -177.940243
-0.296482 -10.758990 -177.941609
-0.206666 -10.880857 -177.940551
-0.116851 -11.002724 -177.939494
-0.040879 -11.225543 -177.936014
0.062781 -11.246458 -177.937380
0.152597 -11.368325 -177.936323
0.242413 -11.490192 -177.935266
0.346073 -11.511107 -177.936632
0.449733 -11.532022 -177.937998
0.539549 -11.653889 -177.936941
0.643209 -11.674804 -177.938307
0.746869 -11.695719 -177.939673
0.836685 -11.817586 -177.938616
0.940345 -11.838502 -177.939982
1.030161 -11.960369 -177.938925
1.133821 -11.981284 -177.940291
1.223637 -12.103151 -177.939234
1.313453 -12.225018 -177.938176
1.403269 -12.346885 -177.937119
1.506929 -12.367800 -177.938485
1.596745 -12.489667 -177.937428
1.700405 -12.510582 -177.938794
1.804065 -12.531497 -177.940160
1.893881 -12.653364 -177.939103
1.997541 -12.674279 -177.940469
2.101201 -12.695195 -177.941835
2.204861 -12.716110 -177.943201
2.308522 -12.737025 -177.944567
2.398337 -12.858892 -177.943510
2.501998 -12.879807 -177.944876
2.605658 -12.900722 -177.946242
2.695474 -13.022589 -177.945185
2.799134 -13.043504 -177.946551
2.902794 -13.064419 -177.947917
3.006454 -13.085335 -177.949283
3.096270 -13.207202 -177.948226
3.199930 -13.228117 -177.949592
3.303590 -13.249032 -177.950958
3.393406 -13.370899 -177.949901
3.497066 -13.391814 -177.951267
3.600726 -13.412729 -177.952633
3.704386 -13.433644 -177.953999
3.808047 -13.454559 -177.955365
3.911707 -13.475475 -177.956731
4.015367 -13.496390 -177.958097
4.119027 -13.517305 -177.959463
4.208843 -13.639172 -177.958406
4.312503 -13.660087 -177.959772
4.416163 -13.681002 -177.961138
4.505979 -13.802869 -177.960081
4.609639 -13.823784 -177.961447
4.713299 -13.844699 -177.962813
4.816960 -13.865615 -177.964179
4.920620 -13.886530 -177.965545
5.038124 -13.806493 -177.969334
5.155629 -13.726456 -177.973123
5.259289 -13.747371 -177.974489
5.376793 -13.667335 -177.978278
5.480453 -13.688250 -177.979644
5.584114 -13.709165 -177.981010
5.701618 -13.629128 -177.984799
5.805278 -13.650043 -177.986166
5.922783 -13.570006 -177.989955
6.026443 -13.590922 -177.991321
6.143947 -13.510885 -177.995110
6.247608 -13.531800 -177.996476
6.365112 -13.451763 -178.000265
6.468772 -13.472678 -178.001631
6.586277 -13.392641 -178.005420
6.731470 -13.110701 -178.014056
6.848974 -13.030664 -178.017845
6.952635 -13.051579 -178.019211
7.070139 -12.971542 -178.023000
7.187643 -12.891506 -178.026789
7.402058 -12.104805 -178.047540
7.533407 -11.923817 -178.053752
7.637067 -11.944732 -178.055118
7.754572 -11.864695 -178.058907
7.858232 -11.885610 -178.060273
7.975736 -11.805573 -178.064063
8.079397 -11.826489 -178.065429
8.196901 -11.746452 -178.069218
8.314405 -11.666415 -178.073007
8.445754 -11.485426 -178.079219
8.563259 -11.405390 -178.083008
8.708452 -11.123449 -178.091644
8.825956 -11.043412 -178.095433
8.929617 -11.064327 -178.096799
9.047121 -10.984290 -178.100588
9.164626 -10.904254 -178.104377
9.282130 -10.824217 -178.108166
9.399635 -10.744180 -178.111955
9.503295 -10.765095 -178.113321
9.606955 -10.786010 -178.114687
9.724459 -10.705974 -178.118477
9.841964 -10.625937 -178.122266
9.959468 -10.545900 -178.126055
10.076973 -10.465863 -178.129844
10.194477 -10.385826 -178.133633
10.311982 -10.305790 -178.137422
10.415642 -10.326705 -178.138788
10.533146 -10.246668 -178.142577
10.650651 -10.166631 -178.146367
10.768155 -10.086594 -178.150156
10.871816 -10.107510 -178.151522
10.989320 -10.027473 -178.155311
11.120669 -9.846484 -178.161523
11.252018 -9.665495 -178.167735
11.369522 -9.585459 -178.171524
11.473182 -9.606374 -178.172890
11.590687 -9.526337 -178.176680
11.708191 -9.446300 -178.180469
11.839540 -9.265312 -178.186681
11.957045 -9.185275 -178.190470
12.074549 -9.105238 -178.194259
12.192054 -9.025201 -178.198048
-0.142942 -10.807973 -177.881634
-0.004226 -10.868605 -177.880577
0.134491 -10.929237 -177.879520
0.311693 -11.084219 -177.876040
0.450410 -11.144851 -177.874983
0.627612 -11.299832 -177.871502
0.766329 -11.360464 -177.870445
0.905045 -11.421096 -177.869388
1.005275 -11.387379 -177.870754
1.374909 -12.014106 -177.855158
1.513626 -12.074738 -177.854101
1.613856 -12.041021 -177.855467
1.752572 -12.101653 -177.854410
1.852802 -12.067936 -177.855776
1.991518 -12.128568 -177.854719
2.168721 -12.283550 -177.851239
2.384410 -12.532880 -177.845335
2.561612 -12.687861 -177.841855
2.700329 -12.748493 -177.840798
2.839045 -12.809125 -177.839741
2.977761 -12.869758 -177.838684
3.077991 -12.836041 -177.840050
3.216708 -12.896673 -177.838993
3.355424 -12.957305 -177.837936
3.532627 -13.112286 -177.834455
3.709829 -13.267267 -177.830975
3.848546 -13.327899 -177.829918
3.948775 -13.294182 -177.831284
4.087492 -13.354814 -177.830227
4.226208 -13.415447 -177.829170
4.326438 -13.381730 -177.830536
4.465154 -13.442362 -177.829479
4.565384 -13.408645 -177.830845
4.665614 -13.374928 -177.832211
4.765844 -13.341211 -177.833577
4.866074 -13.307494 -177.834943
4.966304 -13.273777 -177.836309
5.105020 -13.334409 -177.835252
5.282223 -13.489390 -177.831772
5.420939 -13.550022 -177.830714
5.521169 -13.516305 -177.832081
5.659885 -13.576937 -177.831023
5.760115 -13.543220 -177.832389
5.898832 -13.603852 -177.831332
5.999062 -13.570135 -177.832698
6.099291 -13.536418 -177.834064
6.199521 -13.502701 -177.835430
6.299751 -13.468984 -177.836796
6.399981 -13.435267 -177.838162
6.500211 -13.401550 -177.839528
6.600441 -13.367833 -177.840894
6.700671 -13.334116 -177.842260
6.800901 -13.300399 -177.843626
6.862644 -13.172333 -177.847416
6.962874 -13.138616 -177.848782
7.063104 -13.104899 -177.850148
7.163334 -13.071182 -177.851514
7.263564 -13.037465 -177.852880
7.325308 -12.909399 -177.856669
7.425538 -12.875682 -177.858035
7.525768 -12.841965 -177.859401
7.587511 -12.713899 -177.863190
7.687741 -12.680182 -177.864556
7.749485 -12.552116 -177.868345
7.811228 -12.424050 -177.872134
7.872972 -12.295984 -177.875923
7.973202 -12.262267 -177.877289
8.073431 -12.228550 -177.878655
8.135175 -12.100484 -177.882445
8.235405 -12.066767 -177.883811
8.335635 -12.033050 -177.885177
8.397378 -11.904983 -177.888966
8.497608 -11.871266 -177.890332
8.597838 -11.837549 -177.891698
