ply
format ascii 1.0
element vertex 1519
property float x
property float y
property float z
element face 0
property list uchar uint vertex_indices
end_header
5.205074 -13.514308 -176.776286
5.355522 -13.497459 -176.775229
5.827988 -13.730472 -176.764480
5.978436 -13.713622 -176.763423
6.048379 -13.634308 -176.764789
6.198827 -13.617459 -176.763732
6.429780 -13.663075 -176.760251
6.580228 -13.646226 -176.759194
6.730676 -13.629377 -176.758137
6.800619 -13.550062 -176.759503
6.951066 -13.533213 -176.758446
7.021010 -13.453898 -176.759812
7.090953 -13.374583 -176.761178
7.160896 -13.295269 -176.762544
7.311344 -13.278420 -176.761487
7.461792 -13.261571 -176.760430
7.531735 -13.182256 -176.761796
7.682183 -13.165407 -176.760739
7.752126 -13.086092 -176.762105
7.822069 -13.006777 -176.763471
7.972517 -12.989928 -176.762414
8.042460 -12.910613 -176.763780
8.112403 -12.831299 -176.765146
8.182346 -12.751984 -176.766512
8.252289 -12.672669 -176.767878
8.322233 -12.593355 -176.769244
8.392176 -12.514040 -176.770610
8.462119 -12.434725 -176.771976
8.532062 -12.355411 -176.773342
8.682510 -12.338562 -176.772285
8.752453 -12.259247 -176.773651
8.822396 -12.179932 -176.775017
8.892339 -12.100617 -176.776383
8.962283 -12.021303 -176.777749
9.032226 -11.941988 -176.779115
9.102169 -11.862673 -176.780481
9.172112 -11.783359 -176.781847
9.322560 -11.766510 -176.780790
9.392503 -11.687195 -176.782156
9.542951 -11.670346 -176.781099
9.612894 -11.591031 -176.782465
9.682837 -11.511716 -176.783831
9.752780 -11.432402 -176.785197
9.822723 -11.353087 -176.786563
9.973171 -11.336238 -176.785506
10.043114 -11.256923 -176.786872
10.113058 -11.177608 -176.788238
10.183001 -11.098294 -176.789604
10.333449 -11.081445 -176.788547
10.403392 -11.002130 -176.789913
10.473335 -10.922815 -176.791279
10.543278 -10.843501 -176.792645
10.613221 -10.764186 -176.794011
10.763669 -10.747337 -176.792953
10.833612 -10.668022 -176.794319
10.903555 -10.588707 -176.795686
11.134508 -10.634324 -176.792205
11.284956 -10.617475 -176.791148
11.354899 -10.538160 -176.792514
11.424842 -10.458845 -176.793880
11.494785 -10.379531 -176.795246
11.564728 -10.300216 -176.796612
11.715176 -10.283367 -176.795555
11.785119 -10.204052 -176.796921
11.855063 -10.124737 -176.798287
12.005510 -10.107888 -176.797230
12.155958 -10.091039 -176.796173
12.225901 -10.011724 -176.797539
12.376349 -9.994875 -176.796482
12.446292 -9.915561 -176.797848
12.516236 -9.836246 -176.799214
12.586179 -9.756931 -176.800580
12.736627 -9.740082 -176.799523
12.806570 -9.660767 -176.800889
12.876513 -9.581453 -176.802255
12.946456 -9.502138 -176.803621
13.096904 -9.485289 -176.802564
13.166847 -9.405974 -176.803930
13.236790 -9.326660 -176.805296
13.387238 -9.309810 -176.804239
13.457181 -9.230496 -176.805605
13.527124 -9.151181 -176.806971
13.597067 -9.071866 -176.808337
13.667011 -8.992552 -176.809703
13.736954 -8.913237 -176.811069
13.887402 -8.896388 -176.810012
14.037849 -8.879539 -176.808955
14.107793 -8.800224 -176.810321
14.258240 -8.783375 -176.809263
14.328184 -8.704060 -176.810629
14.398127 -8.624745 -176.811995
14.468070 -8.545431 -176.813361
14.538013 -8.466116 -176.814727
14.688461 -8.449267 -176.813670
14.758404 -8.369952 -176.815036
14.828347 -8.290638 -176.816402
14.898290 -8.211323 -176.817768
15.048738 -8.194474 -176.816711
15.118681 -8.115159 -176.818077
15.188625 -8.035844 -176.819443
15.258568 -7.956530 -176.820809
15.328511 -7.877215 -176.822175
15.398454 -7.797900 -176.823541
15.468397 -7.718586 -176.824907
15.457836 -7.576805 -176.828697
15.527779 -7.497491 -176.830063
15.597722 -7.418176 -176.831429
15.587160 -7.276396 -176.835218
15.657104 -7.197081 -176.836584
15.727047 -7.117766 -176.837950
15.716485 -6.975986 -176.841739
15.786428 -6.896671 -176.843105
15.856372 -6.817357 -176.844471
15.845810 -6.675577 -176.848260
15.915753 -6.596262 -176.849626
15.985696 -6.516947 -176.850992
16.055640 -6.437633 -176.852358
16.045078 -6.295852 -176.856147
16.115021 -6.216538 -176.857513
16.104460 -6.074757 -176.861302
16.013393 -5.870512 -176.867515
16.002832 -5.728731 -176.871304
15.831261 -5.462020 -176.879939
15.820699 -5.320240 -176.883728
15.810138 -5.178460 -176.887517
15.799576 -5.036679 -176.891307
15.789015 -4.894899 -176.895096
7.295153 -13.350568 -176.787509
7.417020 -13.260752 -176.786452
7.639839 -13.184780 -176.782972
7.862658 -13.108809 -176.779492
7.984525 -13.018993 -176.778435
8.207344 -12.943022 -176.774955
8.430163 -12.867050 -176.771474
8.451078 -12.763390 -176.772840
8.471993 -12.659730 -176.774206
8.593860 -12.569914 -176.773149
8.614775 -12.466254 -176.774515
8.736642 -12.376438 -176.773458
8.858509 -12.286622 -176.772401
8.879424 -12.182962 -176.773767
9.001291 -12.093146 -176.772710
9.123158 -12.003330 -176.771653
9.245025 -11.913514 -176.770596
9.366892 -11.823699 -176.769539
9.488759 -11.733883 -176.768482
9.509675 -11.630223 -176.769848
9.530590 -11.526563 -176.771214
9.652457 -11.436747 -176.770156
9.774324 -11.346931 -176.769099
10.098095 -11.284804 -176.763196
10.219962 -11.194988 -176.762139
10.240877 -11.091328 -176.763505
10.362744 -11.001512 -176.762448
10.484611 -10.911696 -176.761391
10.707430 -10.835725 -176.757910
10.930249 -10.759753 -176.754430
11.052116 -10.669937 -176.753373
11.173983 -10.580121 -176.752316
11.295850 -10.490306 -176.751259
11.417717 -10.400490 -176.750202
11.640536 -10.324518 -176.746722
11.762403 -10.234702 -176.745664
12.086174 -10.172575 -176.739761
12.208041 -10.082759 -176.738704
12.329908 -9.992943 -176.737647
12.451775 -9.903128 -176.736590
12.573642 -9.813312 -176.735533
12.594557 -9.709652 -176.736899
12.716424 -9.619836 -176.735842
12.838291 -9.530020 -176.734784
13.061110 -9.454049 -176.731304
13.182977 -9.364233 -176.730247
13.304844 -9.274417 -176.729190
13.325759 -9.170757 -176.730556
13.346675 -9.067097 -176.731922
13.468542 -8.977281 -176.730865
13.590409 -8.887465 -176.729808
13.712276 -8.797649 -176.728751
13.834143 -8.707833 -176.727694
13.956010 -8.618017 -176.726637
14.077877 -8.528202 -176.725579
14.098792 -8.424541 -176.726945
14.220659 -8.334726 -176.725888
14.443478 -8.258754 -176.722408
14.464393 -8.155094 -176.723774
14.586260 -8.065278 -176.722717
14.708127 -7.975462 -176.721660
14.829994 -7.885646 -176.720603
15.052813 -7.809675 -176.717123
15.376584 -7.747548 -176.711219
15.498451 -7.657732 -176.710162
15.519366 -7.554072 -176.711528
15.641233 -7.464256 -176.710471
15.662148 -7.360596 -176.711837
15.683064 -7.256936 -176.713203
15.703979 -7.153275 -176.714569
15.724894 -7.049615 -176.715935
15.846761 -6.959799 -176.714878
15.867676 -6.856139 -176.716244
15.888591 -6.752479 -176.717610
16.010458 -6.662663 -176.716553
16.031373 -6.559003 -176.717919
16.052288 -6.455343 -176.719285
16.174155 -6.365527 -176.718228
16.195071 -6.261867 -176.719594
16.215986 -6.158207 -176.720960
16.236901 -6.054547 -176.722326
16.257816 -5.950886 -176.723692
16.278731 -5.847226 -176.725058
16.299646 -5.743566 -176.726424
16.320561 -5.639906 -176.727790
16.341476 -5.536246 -176.729156
16.362392 -5.432586 -176.730522
16.282355 -5.315081 -176.734311
16.202318 -5.197577 -176.738100
16.122281 -5.080072 -176.741889
16.042244 -4.962568 -176.745678
16.063160 -4.858908 -176.747045
16.084075 -4.755247 -176.748411
16.104990 -4.651587 -176.749777
16.125905 -4.547927 -176.751143
16.146820 -4.444267 -176.752509
16.066783 -4.326762 -176.756298
15.986747 -4.209258 -176.760087
14.392431 -3.884089 -176.800223
14.312394 -3.766584 -176.804012
14.131406 -3.635235 -176.810224
14.051369 -3.517731 -176.814013
13.971332 -3.400226 -176.817803
13.992247 -3.296566 -176.819169
13.912210 -3.179062 -176.822958
13.933126 -3.075401 -176.824324
13.853089 -2.957897 -176.828113
13.773052 -2.840392 -176.831902
13.793967 -2.736732 -176.833268
13.713930 -2.619228 -176.837057
13.734845 -2.515568 -176.838423
13.654809 -2.398063 -176.842212
13.675724 -2.294403 -176.843578
13.595687 -2.176899 -176.847367
13.616602 -2.073238 -176.848733
13.637517 -1.969578 -176.850099
13.557480 -1.852074 -176.853889
13.477444 -1.734569 -176.857678
13.397407 -1.617065 -176.861467
13.216418 -1.485716 -176.867679
13.136381 -1.368211 -176.871468
13.056345 -1.250707 -176.875257
13.077260 -1.147047 -176.876623
12.997223 -1.029542 -176.880413
13.018138 -0.925882 -176.881779
12.938101 -0.808378 -176.885568
12.959016 -0.704718 -176.886934
12.878980 -0.587213 -176.890723
12.899895 -0.483553 -176.892089
12.819858 -0.366048 -176.895878
12.739821 -0.248544 -176.899667
12.659785 -0.131039 -176.903456
12.680700 -0.027379 -176.904822
12.701615 0.076281 -176.906188
12.621578 0.193785 -176.909978
12.642493 0.297446 -176.911344
12.663408 0.401106 -176.912710
12.583371 0.518610 -176.916499
12.604287 0.622270 -176.917865
12.524250 0.739775 -176.921654
12.545165 0.843435 -176.923020
12.566080 0.947095 -176.924386
12.486043 1.064600 -176.928175
12.506958 1.168260 -176.929541
12.527874 1.271920 -176.930907
12.548789 1.375580 -176.932273
12.468752 1.493085 -176.936062
12.489667 1.596745 -176.937428
12.510582 1.700405 -176.938794
12.430545 1.817909 -176.942583
12.451461 1.921570 -176.943949
12.472376 2.025230 -176.945315
12.392339 2.142734 -176.949105
12.413254 2.246394 -176.950471
12.333217 2.363899 -176.954260
12.253180 2.481403 -176.958049
12.173144 2.598908 -176.961838
12.194059 2.702568 -176.963204
12.214974 2.806228 -176.964570
12.235889 2.909888 -176.965936
12.256804 3.013548 -176.967302
12.176767 3.131053 -176.971091
12.197683 3.234713 -176.972457
12.117646 3.352218 -176.976246
12.138561 3.455878 -176.977612
12.058524 3.573382 -176.981402
12.079439 3.677042 -176.982768
12.100354 3.780703 -176.984134
12.121269 3.884363 -176.985500
12.142185 3.988023 -176.986866
12.062148 4.105527 -176.990655
12.083063 4.209188 -176.992021
12.103978 4.312848 -176.993387
12.124893 4.416508 -176.994753
12.145808 4.520168 -176.996119
12.166723 4.623828 -176.997485
12.086687 4.741333 -177.001274
12.107602 4.844993 -177.002640
12.128517 4.948653 -177.004006
12.149432 5.052313 -177.005372
12.170347 5.155973 -177.006738
12.090310 5.273478 -177.010527
12.010274 5.390982 -177.014316
12.031189 5.494642 -177.015682
11.951152 5.612147 -177.019471
11.972067 5.715807 -177.020837
11.992982 5.819467 -177.022203
12.013897 5.923127 -177.023569
12.034813 6.026788 -177.024935
11.954776 6.144292 -177.028725
11.975691 6.247952 -177.030091
11.895654 6.365457 -177.033880
11.916569 6.469117 -177.035246
11.937484 6.572777 -177.036612
11.857448 6.690281 -177.040401
11.171699 6.890852 -177.058729
10.990711 7.022201 -177.064941
15.830344 -7.098946 -176.713141
15.985325 -6.921744 -176.709661
16.045957 -6.783028 -176.708603
16.106589 -6.644311 -176.707546
16.072872 -6.544081 -176.708912
16.133505 -6.405365 -176.707855
16.194137 -6.266649 -176.706798
16.537816 -6.012473 -176.698472
16.692797 -5.835271 -176.694991
16.659080 -5.735041 -176.696357
16.719713 -5.596324 -176.695300
16.685996 -5.496094 -176.696666
16.746628 -5.357378 -176.695609
16.712911 -5.257148 -176.696975
16.679194 -5.156918 -176.698341
16.645477 -5.056688 -176.699707
16.611760 -4.956458 -176.701073
16.578043 -4.856229 -176.702439
16.544326 -4.755999 -176.703805
16.510609 -4.655769 -176.705171
16.476892 -4.555539 -176.706537
16.443175 -4.455309 -176.707903
16.409458 -4.355079 -176.709269
16.375741 -4.254849 -176.710635
16.342024 -4.154619 -176.712001
16.308307 -4.054389 -176.713368
16.274590 -3.954159 -176.714734
16.146524 -3.892416 -176.718523
16.112807 -3.792186 -176.719889
16.079090 -3.691956 -176.721255
15.951023 -3.630212 -176.725044
15.822957 -3.568469 -176.728833
15.694891 -3.506725 -176.732622
15.378127 -3.521954 -176.741257
15.250061 -3.460211 -176.745047
15.027646 -3.436954 -176.751259
14.899579 -3.375210 -176.755048
14.771513 -3.313467 -176.758837
14.643447 -3.251723 -176.762626
14.609730 -3.151493 -176.763992
14.481664 -3.089750 -176.767781
14.447947 -2.989520 -176.769147
14.319881 -2.927776 -176.772937
14.286164 -2.827546 -176.774303
14.252447 -2.727316 -176.775669
14.218730 -2.627086 -176.777035
14.185013 -2.526856 -176.778401
14.151296 -2.426626 -176.779767
14.117579 -2.326397 -176.781133
14.083862 -2.226167 -176.782499
13.955796 -2.164423 -176.786288
13.922079 -2.064193 -176.787654
13.888362 -1.963963 -176.789020
13.854645 -1.863733 -176.790386
13.820928 -1.763503 -176.791752
13.881560 -1.624787 -176.790695
13.847843 -1.524557 -176.792061
13.814126 -1.424327 -176.793427
13.686060 -1.362584 -176.797216
13.652343 -1.262354 -176.798582
13.618626 -1.162124 -176.799948
13.584909 -1.061894 -176.801314
13.551192 -0.961664 -176.802680
13.423126 -0.899920 -176.806469
13.389409 -0.799691 -176.807835
13.355692 -0.699461 -176.809201
13.321975 -0.599231 -176.810567
13.288258 -0.499001 -176.811933
13.348890 -0.360284 -176.810876
13.315173 -0.260055 -176.812242
13.281456 -0.159825 -176.813608
13.247739 -0.059595 -176.814974
13.214022 0.040635 -176.816340
13.180305 0.140865 -176.817706
13.146588 0.241095 -176.819072
13.112871 0.341325 -176.820438
13.079154 0.441555 -176.821804
13.045437 0.541785 -176.823170
13.011720 0.642015 -176.824536
12.978003 0.742245 -176.825902
12.944286 0.842475 -176.827268
12.910569 0.942705 -176.828634
12.876852 1.042934 -176.830000
12.843135 1.143164 -176.831366
12.809418 1.243394 -176.832732
12.775701 1.343624 -176.834098
12.836333 1.482341 -176.833041
12.802616 1.582570 -176.834407
12.768899 1.682800 -176.835773
12.735182 1.783030 -176.837139
12.701465 1.883260 -176.838505
12.667748 1.983490 -176.839871
12.634031 2.083720 -176.841237
12.694663 2.222436 -176.840180
12.660946 2.322666 -176.841546
12.627229 2.422896 -176.842912
12.593512 2.523126 -176.844278
12.559795 2.623356 -176.845644
12.620427 2.762072 -176.844587
12.586710 2.862302 -176.845953
12.552993 2.962532 -176.847319
12.519276 3.062762 -176.848685
12.579908 3.201478 -176.847628
12.546191 3.301708 -176.848994
12.512474 3.401938 -176.850360
12.478757 3.502168 -176.851726
12.539389 3.640884 -176.850669
12.505672 3.741114 -176.852035
12.471955 3.841344 -176.853401
12.438238 3.941574 -176.854767
12.404521 4.041804 -176.856133
12.370804 4.142034 -176.857499
12.337087 4.242264 -176.858865
12.303370 4.342494 -176.860231
12.269653 4.442724 -176.861597
12.330286 4.581440 -176.860540
12.296569 4.681670 -176.861906
12.262852 4.781900 -176.863272
12.134785 4.843644 -176.867061
12.101068 4.943873 -176.868427
12.067351 5.044103 -176.869793
12.033634 5.144333 -176.871159
12.094267 5.283050 -176.870102
12.060550 5.383280 -176.871468
12.026833 5.483509 -176.872834
12.087465 5.622226 -176.871777
12.053748 5.722456 -176.873143
12.114380 5.861172 -176.872086
12.080663 5.961402 -176.873452
12.046946 6.061632 -176.874818
12.013229 6.161862 -176.876184
11.979512 6.262092 -176.877550
11.945795 6.362322 -176.878916
12.006427 6.501038 -176.877859
11.972710 6.601268 -176.879225
11.938993 6.701498 -176.880591
11.905276 6.801728 -176.881957
11.871559 6.901958 -176.883323
11.837842 7.002187 -176.884689
11.804125 7.102417 -176.886055
11.676059 7.164161 -176.889844
11.642342 7.264391 -176.891210
11.514276 7.326134 -176.894999
11.480559 7.426364 -176.896366
11.352493 7.488108 -176.900155
11.224426 7.549851 -176.903944
11.190709 7.650081 -176.905310
11.156992 7.750311 -176.906676
11.028926 7.812055 -176.910465
10.900860 7.873798 -176.914254
10.867143 7.974028 -176.915620
10.739077 8.035772 -176.919409
10.705360 8.136002 -176.920775
10.671643 8.236232 -176.922141
10.543577 8.297975 -176.925930
10.415511 8.359719 -176.929720
10.193096 8.382976 -176.935932
9.970680 8.406233 -176.942144
9.842614 8.467977 -176.945933
9.714548 8.529720 -176.949722
9.586482 8.591464 -176.953512
9.364067 8.614721 -176.959724
9.236001 8.676464 -176.963513
9.107935 8.738208 -176.967302
8.979869 8.799952 -176.971091
8.757453 8.823209 -176.977303
8.629387 8.884952 -176.981093
8.595670 8.985182 -176.982459
8.467604 9.046926 -176.986248
7.962142 8.954724 -176.999729
7.834075 9.016467 -177.003519
7.706009 9.078211 -177.007308
7.483594 9.101468 -177.013520
7.355528 9.163212 -177.017309
6.850065 9.071010 -177.030791
15.846909 -3.495783 -176.802130
15.830060 -3.345335 -176.801073
15.750745 -3.275392 -176.802439
15.733896 -3.124944 -176.801382
15.592116 -3.135505 -176.805171
15.512801 -3.065562 -176.806537
15.371020 -3.076124 -176.810327
15.291706 -3.006180 -176.811693
15.212391 -2.936237 -176.813059
15.133076 -2.866294 -176.814425
14.991296 -2.876856 -176.818214
14.911981 -2.806913 -176.819580
14.832666 -2.736969 -176.820946
14.753351 -2.667026 -176.822312
14.674037 -2.597083 -176.823678
14.594722 -2.527140 -176.825044
14.515407 -2.457197 -176.826410
14.436092 -2.387254 -176.827776
14.356777 -2.317311 -176.829142
14.339928 -2.166863 -176.828085
14.323079 -2.016415 -176.827028
14.243764 -1.946471 -176.828394
14.226915 -1.796024 -176.827337
14.147600 -1.726080 -176.828703
14.068285 -1.656137 -176.830069
14.051436 -1.505689 -176.829011
13.972121 -1.435746 -176.830378
13.892806 -1.365803 -176.831744
13.813492 -1.295860 -176.833110
13.734177 -1.225917 -176.834476
13.717328 -1.075469 -176.833418
13.638013 -1.005526 -176.834784
13.621164 -0.855078 -176.833727
13.541849 -0.785134 -176.835093
13.462534 -0.715191 -176.836459
13.445685 -0.564743 -176.835402
13.366370 -0.494800 -176.836768
13.287055 -0.424857 -176.838134
13.270206 -0.274409 -176.837077
13.190891 -0.204466 -176.838443
13.174042 -0.054018 -176.837386
13.094727 0.015925 -176.838752
13.015412 0.085868 -176.840118
12.998563 0.236316 -176.839061
12.919248 0.306259 -176.840427
12.902399 0.456707 -176.839370
12.823084 0.526651 -176.840736
12.743769 0.596594 -176.842102
12.664455 0.666537 -176.843468
12.585140 0.736480 -176.844834
12.568291 0.886928 -176.843777
12.426510 0.876366 -176.847566
12.784454 1.509843 -176.831970
12.767605 1.660291 -176.830913
12.688290 1.730234 -176.832279
12.671441 1.880682 -176.831222
12.654592 2.031130 -176.830165
12.637742 2.181578 -176.829108
12.620893 2.332026 -176.828051
12.728975 2.643483 -176.822147
12.712126 2.793931 -176.821090
12.695276 2.944379 -176.820033
12.615962 3.014322 -176.821399
12.599112 3.164770 -176.820342
12.519798 3.234714 -176.821708
12.440483 3.304657 -176.823074
12.423634 3.455105 -176.822017
12.344319 3.525048 -176.823383
12.327469 3.675496 -176.822326
12.373086 3.906449 -176.818846
12.418702 4.137401 -176.815365
12.401853 4.287849 -176.814308
12.385004 4.438297 -176.813251
12.305689 4.508240 -176.814617
12.288839 4.658688 -176.813560
12.271990 4.809136 -176.812503
12.192675 4.879079 -176.813869
12.175826 5.029527 -176.812812
12.096511 5.099470 -176.814178
12.079662 5.249918 -176.813121
12.062813 5.400366 -176.812064
12.045964 5.550814 -176.811007
12.029114 5.701262 -176.809949
11.949800 5.771205 -176.811315
11.995416 6.002158 -176.807835
11.978567 6.152606 -176.806778
11.961717 6.303054 -176.805721
11.944868 6.453502 -176.804664
11.928019 6.603950 -176.803607
11.911170 6.754398 -176.802550
11.894320 6.904846 -176.801493
11.815006 6.974789 -176.802859
11.798156 7.125237 -176.801801
11.781307 7.275685 -176.800744
11.701992 7.345628 -176.802110
11.685143 7.496076 -176.801053
11.605828 7.566019 -176.802419
11.588979 7.716467 -176.801362
11.509664 7.786410 -176.802728
11.492815 7.936858 -176.801671
11.413500 8.006801 -176.803037
11.334185 8.076744 -176.804403
11.254871 8.146688 -176.805769
11.175556 8.216631 -176.807135
11.096241 8.286574 -176.808501
11.016926 8.356517 -176.809867
10.937611 8.426460 -176.811233
10.858297 8.496403 -176.812599
10.716516 8.485842 -176.816388
10.637201 8.555785 -176.817754
10.557887 8.625728 -176.819120
10.478572 8.695671 -176.820486
10.336792 8.685110 -176.824276
10.257477 8.755053 -176.825642
10.178162 8.824996 -176.827008
10.036382 8.814434 -176.830797
9.957067 8.884378 -176.832163
9.877752 8.954321 -176.833529
9.798437 9.024264 -176.834895
9.656657 9.013702 -176.838684
9.577342 9.083645 -176.840050
9.498027 9.153589 -176.841416
9.418713 9.223532 -176.842782
9.339398 9.293475 -176.844148
9.197617 9.282913 -176.847937
9.118303 9.352856 -176.849303
8.976522 9.342295 -176.853092
8.897208 9.412238 -176.854458
8.755427 9.401676 -176.858247
8.676112 9.471619 -176.859613
8.596798 9.541563 -176.860979
8.455017 9.531001 -176.864769
8.375702 9.600944 -176.866135
8.233922 9.590383 -176.869924
8.154607 9.660326 -176.871290
8.012827 9.649764 -176.875079
7.933512 9.719707 -176.876445
7.791732 9.709146 -176.880234
7.712417 9.779089 -176.881600
7.570637 9.768527 -176.885389
7.491322 9.838470 -176.886755
7.287076 9.747404 -176.892968
7.145296 9.736842 -176.896757
7.003515 9.726281 -176.900546
6.861735 9.715719 -176.904335
6.719955 9.705157 -176.908124
6.640640 9.775101 -176.909490
6.498860 9.764539 -176.913279
6.419545 9.834482 -176.914645
6.340230 9.904425 -176.916011
6.260915 9.974368 -176.917377
6.119135 9.963807 -176.921166
5.977355 9.953245 -176.924956
5.773109 9.862179 -176.931168
5.631328 9.851617 -176.934957
5.489548 9.841055 -176.938746
5.347768 9.830494 -176.942535
5.268453 9.900437 -176.943901
5.064207 9.809371 -176.950114
4.922427 9.798809 -176.953903
4.780647 9.788247 -176.957692
4.513935 9.616676 -176.966327
4.309689 9.525610 -176.972539
4.167909 9.515048 -176.976329
3.776266 9.182467 -176.989810
3.634486 9.171906 -176.993599
11.602189 7.751662 -176.808309
11.512374 7.873529 -176.807252
11.408713 7.894444 -176.808618
11.318898 8.016311 -176.807560
11.242926 8.239130 -176.804080
11.166955 8.461949 -176.800600
11.077139 8.583816 -176.799543
10.973479 8.604731 -176.800909
10.869818 8.625646 -176.802275
10.766158 8.646561 -176.803641
10.662498 8.667476 -176.805007
10.572682 8.789343 -176.803950
10.469022 8.810259 -176.805316
10.379206 8.932126 -176.804259
10.275546 8.953041 -176.805625
10.185730 9.074908 -176.804568
10.082070 9.095823 -176.805934
9.992254 9.217690 -176.804877
9.888594 9.238605 -176.806243
9.784934 9.259520 -176.807609
9.695118 9.381387 -176.806551
9.591458 9.402302 -176.807917
9.487798 9.423218 -176.809283
9.384138 9.444133 -176.810650
9.294322 9.566000 -176.809592
9.190662 9.586915 -176.810958
9.100846 9.708782 -176.809901
8.997186 9.729697 -176.811267
8.893526 9.750612 -176.812633
8.789865 9.771527 -176.813999
8.672361 9.691491 -176.817788
8.568701 9.712406 -176.819155
8.465041 9.733321 -176.820521
8.361380 9.754236 -176.821887
8.271565 9.876103 -176.820829
8.167904 9.897018 -176.822195
8.064244 9.917933 -176.823561
7.960584 9.938848 -176.824927
7.856924 9.959763 -176.826294
7.753264 9.980679 -176.827660
7.649604 10.001594 -176.829026
7.545943 10.022509 -176.830392
7.442283 10.043424 -176.831758
7.338623 10.064339 -176.833124
7.234963 10.085254 -176.834490
7.145147 10.207121 -176.833432
7.041487 10.228036 -176.834799
6.937827 10.248952 -176.836165
6.834167 10.269867 -176.837531
6.730507 10.290782 -176.838897
6.626846 10.311697 -176.840263
6.523186 10.332612 -176.841629
6.419526 10.353527 -176.842995
6.315866 10.374442 -176.844361
6.198361 10.294406 -176.848150
6.094701 10.315321 -176.849516
5.991041 10.336236 -176.850882
5.887381 10.357151 -176.852248
5.783721 10.378066 -176.853614
5.666216 10.298029 -176.857403
5.562556 10.318944 -176.858769
5.458896 10.339860 -176.860135
5.355236 10.360775 -176.861501
5.237731 10.280738 -176.865290
5.134071 10.301653 -176.866656
5.016567 10.221616 -176.870445
4.899062 10.141580 -176.874234
4.795402 10.162495 -176.875600
4.677898 10.082458 -176.879390
4.574237 10.103373 -176.880756
4.470577 10.124288 -176.882122
4.353073 10.044251 -176.885911
4.249413 10.065166 -176.887277
4.145752 10.086082 -176.888643
4.042092 10.106997 -176.890009
3.924588 10.026960 -176.893798
3.820928 10.047875 -176.895164
3.717267 10.068790 -176.896530
3.599763 9.988753 -176.900319
3.496103 10.009669 -176.901685
3.378598 9.929632 -176.905474
3.261094 9.849595 -176.909263
3.143589 9.769558 -176.913053
3.026085 9.689521 -176.916842
2.922425 9.710437 -176.918208
2.804920 9.630400 -176.921997
2.701260 9.651315 -176.923363
2.583756 9.571278 -176.927152
2.480095 9.592193 -176.928518
2.362591 9.512156 -176.932307
2.258931 9.533072 -176.933673
2.141426 9.453035 -176.937462
2.023922 9.372998 -176.941251
1.920262 9.393913 -176.942617
1.802757 9.313876 -176.946407
1.685253 9.233840 -176.950196
1.581592 9.254755 -176.951562
1.464088 9.174718 -176.955351
1.332739 8.993729 -176.961563
9.199641 9.562784 -176.876108
9.022439 9.717765 -176.872628
8.883722 9.778397 -176.871571
8.745006 9.839029 -176.870514
8.644776 9.805312 -176.871880
8.506060 9.865944 -176.870822
8.367343 9.926576 -176.869765
8.228627 9.987209 -176.868708
8.051424 10.142190 -176.865228
7.912708 10.202822 -176.864171
7.773992 10.263454 -176.863114
7.673762 10.229737 -176.864480
7.535046 10.290369 -176.863423
7.396329 10.351001 -176.862366
7.296099 10.317284 -176.863732
7.195869 10.283567 -176.865098
7.057153 10.344199 -176.864040
6.918437 10.404831 -176.862983
6.779721 10.465464 -176.861926
6.679491 10.431747 -176.863292
6.540774 10.492379 -176.862235
6.440544 10.458662 -176.863601
6.340315 10.424945 -176.864967
6.240085 10.391228 -176.866333
6.139855 10.357511 -176.867699
6.001138 10.418143 -176.866642
5.900908 10.384426 -176.868008
5.800679 10.350709 -176.869374
5.661962 10.411341 -176.868317
5.523246 10.471973 -176.867260
5.384530 10.532605 -176.866203
5.284300 10.498888 -176.867569
5.145583 10.559520 -176.866512
5.045353 10.525803 -176.867878
4.945124 10.492086 -176.869244
4.844894 10.458369 -176.870610
4.744664 10.424652 -176.871976
4.644434 10.390935 -176.873342
4.544204 10.357218 -176.874708
4.443974 10.323501 -176.876074
4.305258 10.384133 -176.875017
4.205028 10.350416 -176.876383
4.104798 10.316699 -176.877749
4.004568 10.282982 -176.879115
3.865852 10.343614 -176.878058
3.765622 10.309897 -176.879424
3.703878 10.181831 -176.883213
3.603648 10.148114 -176.884579
3.503418 10.114397 -176.885945
3.403188 10.080680 -176.887311
3.302958 10.046963 -176.888677
3.202729 10.013246 -176.890043
3.064012 10.073878 -176.888986
2.963782 10.040161 -176.890352
2.863552 10.006444 -176.891718
2.763322 9.972727 -176.893084
2.624606 10.033360 -176.892027
2.524376 9.999643 -176.893393
2.424146 9.965926 -176.894759
2.323916 9.932209 -176.896125
2.223686 9.898492 -176.897491
2.123457 9.864775 -176.898857
2.023227 9.831058 -176.900223
1.922997 9.797341 -176.901589
1.822767 9.763624 -176.902955
1.722537 9.729907 -176.904321
1.622307 9.696190 -176.905687
1.560563 9.568123 -176.909476
1.460333 9.534406 -176.910842
1.360104 9.500689 -176.912208
1.298360 9.372623 -176.915997
1.198130 9.338906 -176.917363
1.097900 9.305189 -176.918729
0.997670 9.271472 -176.920095
0.897440 9.237755 -176.921461
0.797210 9.204038 -176.922827
0.735467 9.075972 -176.926616
0.635237 9.042255 -176.927982
0.535007 9.008538 -176.929348
0.434777 8.974821 -176.930714
0.334547 8.941104 -176.932081
0.272804 8.813038 -176.935870
0.172574 8.779321 -176.937236
0.072344 8.745604 -176.938602
-0.027886 8.711887 -176.939968
-0.128116 8.678170 -176.941334
-0.189860 8.550104 -176.945123
-0.290090 8.516387 -176.946489
-0.390320 8.482670 -176.947855
-0.452063 8.354604 -176.951644
-0.513807 8.226538 -176.955433
-0.575550 8.098472 -176.959222
-0.675780 8.064755 -176.960588
-0.737524 7.936689 -176.964377
-0.837754 7.902972 -176.965743
-0.937983 7.869255 -176.967109
-0.999727 7.741188 -176.970899
-1.099957 7.707471 -176.972265
-1.161700 7.579405 -176.976054
-1.223444 7.451339 -176.979843
-1.246701 7.228924 -176.986055
-1.308445 7.100858 -176.989844
-1.370188 6.972792 -176.993633
-1.470418 6.939075 -176.994999
-1.532162 6.811009 -176.998789
-1.632392 6.777292 -177.000155
-1.694135 6.649226 -177.003944
-1.794365 6.615509 -177.005310
-1.894595 6.581792 -177.006676
-1.956339 6.453725 -177.010465
-2.056569 6.420008 -177.011831
-2.156798 6.386291 -177.013197
-2.218542 6.258225 -177.016986
-2.280286 6.130159 -177.020775
-2.342029 6.002093 -177.024564
-2.403773 5.874027 -177.028354
-2.504003 5.840310 -177.029720
-2.565746 5.712244 -177.033509
-2.665976 5.678527 -177.034875
-2.727720 5.550461 -177.038664
-2.827950 5.516744 -177.040030
-2.889693 5.388678 -177.043819
-2.951437 5.260612 -177.047608
-3.013180 5.132545 -177.051397
-3.074924 5.004479 -177.055186
-3.136667 4.876413 -177.058976
-3.236897 4.842696 -177.060342
-3.298641 4.714630 -177.064131
-3.360384 4.586564 -177.067920
-3.460614 4.552847 -177.069286
-3.522358 4.424781 -177.073075
2.973318 10.641712 -176.932197
2.822870 10.624863 -176.931140
2.672422 10.608013 -176.930083
2.602479 10.528699 -176.931449
2.532536 10.449384 -176.932815
2.382088 10.432535 -176.931758
2.070631 10.540617 -176.925854
1.920183 10.523768 -176.924797
1.850240 10.444453 -176.926163
1.780297 10.365138 -176.927529
1.710354 10.285824 -176.928895
1.559906 10.268975 -176.927838
1.489963 10.189660 -176.929204
1.339515 10.172811 -176.928147
1.108562 10.218427 -176.924667
0.958114 10.201578 -176.923610
0.888171 10.122263 -176.924976
0.737723 10.105414 -176.923919
0.667780 10.026099 -176.925285
0.597837 9.946785 -176.926651
0.527894 9.867470 -176.928017
0.457951 9.788155 -176.929383
0.388008 9.708841 -176.930749
0.237560 9.691992 -176.929691
0.167617 9.612677 -176.931058
0.097674 9.533362 -176.932424
-0.052774 9.516513 -176.931366
-0.122717 9.437198 -176.932732
-0.192661 9.357884 -176.934098
-0.343108 9.341035 -176.933041
-0.413052 9.261720 -176.934407
-0.482995 9.182405 -176.935773
-0.552938 9.103090 -176.937139
-0.622881 9.023776 -176.938505
-0.692824 8.944461 -176.939871
-0.762767 8.865146 -176.941237
-0.913215 8.848297 -176.940180
-0.983158 8.768983 -176.941546
-1.053102 8.689668 -176.942912
-1.123045 8.610353 -176.944278
-1.192988 8.531039 -176.945644
-1.262931 8.451724 -176.947010
-1.332874 8.372409 -176.948376
-1.402817 8.293094 -176.949742
-1.472761 8.213780 -176.951108
-1.542704 8.134465 -176.952474
-1.693152 8.117616 -176.951417
-1.763095 8.038301 -176.952783
-1.833038 7.958987 -176.954149
-1.902981 7.879672 -176.955515
-1.972924 7.800357 -176.956881
-2.042867 7.721043 -176.958247
-2.112810 7.641728 -176.959613
-2.182754 7.562413 -176.960979
-2.252697 7.483098 -176.962345
-2.322640 7.403784 -176.963712
-2.392583 7.324469 -176.965078
-2.462526 7.245154 -176.966444
-2.532469 7.165840 -176.967810
-2.602413 7.086525 -176.969176
-2.672356 7.007210 -176.970542
-2.742299 6.927896 -176.971908
-2.812242 6.848581 -176.973274
-2.882185 6.769266 -176.974640
-2.952128 6.689952 -176.976006
-3.022071 6.610637 -176.977372
-3.092015 6.531322 -176.978738
-3.161958 6.452008 -176.980104
-3.231901 6.372693 -176.981470
-3.301844 6.293378 -176.982836
-3.291283 6.151598 -176.986625
-3.361226 6.072283 -176.987991
-3.431169 5.992969 -176.989357
-3.501112 5.913654 -176.990723
-3.571055 5.834339 -176.992089
-3.560494 5.692559 -176.995878
-3.630437 5.613244 -176.997244
-3.700380 5.533930 -176.998610
-3.770323 5.454615 -176.999976
-3.840266 5.375300 -177.001342
-3.910209 5.295986 -177.002708
-3.980153 5.216671 -177.004074
-3.969591 5.074891 -177.007863
-4.039534 4.995576 -177.009229
-4.028973 4.853796 -177.013018
-4.098916 4.774481 -177.014384
-4.088354 4.632701 -177.018174
-4.238802 4.615852 -177.017117
-4.308745 4.536537 -177.018483
-4.378689 4.457222 -177.019849
-4.448632 4.377908 -177.021215
-4.518575 4.298593 -177.022581
-4.588518 4.219278 -177.023947
-4.658461 4.139964 -177.025313
-4.647900 3.998183 -177.029102
-4.717843 3.918869 -177.030468
-4.707281 3.777088 -177.034257
-4.696720 3.635308 -177.038046
-4.847168 3.618459 -177.036989
-4.917111 3.539144 -177.038355
-4.987054 3.459830 -177.039721
-5.056997 3.380515 -177.041087
-5.126940 3.301200 -177.042453
-5.116379 3.159420 -177.046242
-5.186322 3.080105 -177.047608
-5.256265 3.000791 -177.048974
-5.245703 2.859010 -177.052763
-5.315647 2.779696 -177.054129
-5.305085 2.637916 -177.057918
-5.375028 2.558601 -177.059284
-5.364467 2.416821 -177.063074
-5.434410 2.337506 -177.064440
-5.423848 2.195726 -177.068229
-5.076692 3.778361 -177.003278
-5.198560 3.688545 -177.002221
-5.421378 3.612574 -176.998740
-5.543246 3.522758 -176.997683
-5.564161 3.419098 -176.999049
-5.686028 3.329282 -176.997992
-5.706943 3.225622 -176.999358
-5.727858 3.121961 -177.000724
-5.748773 3.018301 -177.002090
-5.870640 2.928485 -177.001033
-5.891555 2.824825 -177.002399
-5.912470 2.721165 -177.003765
-5.933386 2.617505 -177.005131
-5.954301 2.513845 -177.006497
-5.975216 2.410185 -177.007863
-5.996131 2.306524 -177.009229
-6.017046 2.202864 -177.010595
-6.037961 2.099204 -177.011961
-6.058876 1.995544 -177.013327
-6.079791 1.891884 -177.014693
-6.100707 1.788224 -177.016059
-6.121622 1.684563 -177.017425
-6.142537 1.580903 -177.018791
-6.062500 1.463399 -177.022581
-6.083415 1.359739 -177.023947
-6.003378 1.242234 -177.027736
-6.024294 1.138574 -177.029102
-5.944257 1.021070 -177.032891
-5.965172 0.917409 -177.034257
-5.986087 0.813749 -177.035623
-6.007002 0.710089 -177.036989
-6.027917 0.606429 -177.038355
-6.048832 0.502769 -177.039721
-6.069748 0.399109 -177.041087
-6.090663 0.295448 -177.042453
-6.111578 0.191788 -177.043819
-6.031541 0.074284 -177.047608
-6.052456 -0.029376 -177.048974
-6.073371 -0.133037 -177.050340
-6.094286 -0.236697 -177.051706
-6.014250 -0.354201 -177.055495
-6.035165 -0.457861 -177.056861
-6.056080 -0.561522 -177.058227
-6.076995 -0.665182 -177.059593
-5.996958 -0.782686 -177.063383
-6.017873 -0.886346 -177.064749
-5.937837 -1.003851 -177.068538
-5.958752 -1.107511 -177.069904
-5.979667 -1.211171 -177.071270
-5.899630 -1.328676 -177.075059
-5.920545 -1.432336 -177.076425
-5.840508 -1.549840 -177.080214
-5.760472 -1.667345 -177.084003
-5.579483 -1.798694 -177.090215
-5.398494 -1.930042 -177.096428
-5.318457 -2.047547 -177.100217
-5.238421 -2.165051 -177.104006
-5.259336 -2.268711 -177.105372
-5.179299 -2.386216 -177.109161
-5.200214 -2.489876 -177.110527
-5.120177 -2.607381 -177.114316
-5.040141 -2.724885 -177.118105
-6.211782 1.789828 -177.000676
-6.366763 1.612625 -176.997196
-6.333046 1.512396 -176.998562
-6.676726 1.258220 -176.990235
-6.737358 1.119504 -176.989178
-6.703641 1.019274 -176.990544
-6.764273 0.880558 -176.989487
-6.730556 0.780328 -176.990853
-6.696839 0.680098 -176.992219
-6.757471 0.541381 -176.991162
-6.723754 0.441152 -176.992528
-6.690037 0.340922 -176.993894
-6.656320 0.240692 -176.995260
-6.716952 0.101975 -176.994203
-6.683235 0.001745 -176.995569
-6.649518 -0.098484 -176.996935
-6.615801 -0.198714 -176.998301
-6.582084 -0.298944 -176.999667
-6.548367 -0.399174 -177.001033
-6.514650 -0.499404 -177.002399
-6.480933 -0.599634 -177.003765
-6.541565 -0.738350 -177.002708
-6.507848 -0.838580 -177.004074
-6.474131 -0.938810 -177.005440
-6.440414 -1.039040 -177.006806
-6.406697 -1.139270 -177.008172
-6.372980 -1.239500 -177.009538
-6.339263 -1.339730 -177.010904
-6.305546 -1.439960 -177.012270
-6.271829 -1.540190 -177.013636
-6.238112 -1.640420 -177.015002
-6.204395 -1.740650 -177.016368
-6.170678 -1.840879 -177.017734
-6.136961 -1.941109 -177.019100
-6.103244 -2.041339 -177.020466
-6.069527 -2.141569 -177.021832
-6.035810 -2.241799 -177.023198
-6.002093 -2.342029 -177.024564
-5.968376 -2.442259 -177.025930
-5.934659 -2.542489 -177.027296
-5.806593 -2.604233 -177.031086
-5.772876 -2.704462 -177.032452
-5.739159 -2.804692 -177.033818
-5.705442 -2.904922 -177.035184
-5.671725 -3.005152 -177.036550
-5.638008 -3.105382 -177.037916
-5.604291 -3.205612 -177.039282
-5.570574 -3.305842 -177.040648
-5.536857 -3.406072 -177.042014
-5.503140 -3.506302 -177.043380
-5.375074 -3.568045 -177.047169
-5.341357 -3.668275 -177.048535
-5.307640 -3.768505 -177.049901
-5.273923 -3.868735 -177.051267
-5.240206 -3.968965 -177.052633
-5.206489 -4.069195 -177.053999
-5.172772 -4.169425 -177.055365
-5.044706 -4.231168 -177.059154
-5.010989 -4.331398 -177.060520
-4.977272 -4.431628 -177.061886
-4.849206 -4.493372 -177.065675
-4.815489 -4.593602 -177.067041
-4.781772 -4.693832 -177.068407
-4.748055 -4.794062 -177.069773
-4.714338 -4.894292 -177.071139
-4.586272 -4.956035 -177.074928
-4.552555 -5.056265 -177.076294
-4.518838 -5.156495 -177.077661
-4.485121 -5.256725 -177.079027
-4.451404 -5.356955 -177.080393
-4.323337 -5.418698 -177.084182
-4.289620 -5.518928 -177.085548
-4.255903 -5.619158 -177.086914
-4.127837 -5.680902 -177.090703
-4.094120 -5.781132 -177.092069
-4.060403 -5.881362 -177.093435
-4.026686 -5.981591 -177.094801
-3.992969 -6.081821 -177.096167
-3.959252 -6.182051 -177.097533
-3.831186 -6.243795 -177.101322
-3.797469 -6.344025 -177.102688
-3.669403 -6.405768 -177.106477
-3.635686 -6.505998 -177.107843
-3.601969 -6.606228 -177.109209
-3.473903 -6.667972 -177.112998
-3.440186 -6.768202 -177.114364
-3.406469 -6.868432 -177.115730
-3.372752 -6.968661 -177.117096
-3.244686 -7.030405 -177.120886
-3.210969 -7.130635 -177.122252
-3.177252 -7.230865 -177.123618
-3.049186 -7.292608 -177.127407
-3.015469 -7.392838 -177.128773
-2.981752 -7.493068 -177.130139
-2.948035 -7.593298 -177.131505
-2.914318 -7.693528 -177.132871
-2.880601 -7.793758 -177.134237
-2.846884 -7.893988 -177.135603
-2.813167 -7.994218 -177.136969
-2.685101 -8.055961 -177.140758
-2.651384 -8.156191 -177.142124
-2.617667 -8.256421 -177.143490
-2.489601 -8.318165 -177.147279
-2.455884 -8.418395 -177.148645
-2.422167 -8.518625 -177.150011
-2.294100 -8.580368 -177.153800
-2.260383 -8.680598 -177.155166
-2.226666 -8.780828 -177.156532
-2.098600 -8.842572 -177.160322
-2.064883 -8.942802 -177.161688
-1.936817 -9.004545 -177.165477
-1.808751 -9.066289 -177.169266
-1.775034 -9.166519 -177.170632
-1.646968 -9.228262 -177.174421
-1.518902 -9.290006 -177.178210
-1.296487 -9.313263 -177.184422
-1.168421 -9.375006 -177.188212
-1.134704 -9.475236 -177.189578
-1.006637 -9.536980 -177.193367
-0.972920 -9.637210 -177.194733
-0.939203 -9.737440 -177.196099
-0.905486 -9.837670 -177.197465
-0.871769 -9.937900 -177.198831
-0.743703 -9.999643 -177.202620
-0.709986 -10.099873 -177.203986
-0.676269 -10.200103 -177.205352
-0.548203 -10.261846 -177.209141
-0.420137 -10.323590 -177.212930
-6.692827 -0.373392 -177.001555
-6.738443 -0.604345 -176.998075
-6.721594 -0.754792 -176.997017
-6.642279 -0.824736 -176.998383
-6.625430 -0.975183 -176.997326
-6.608581 -1.125631 -176.996269
-6.529266 -1.195574 -176.997635
-6.512417 -1.346022 -176.996578
-6.433102 -1.415965 -176.997944
-6.416253 -1.566413 -176.996887
-6.399404 -1.716861 -176.995830
-6.382555 -1.867309 -176.994773
-6.303240 -1.937252 -176.996139
-6.223926 -2.007195 -176.997505
-6.207076 -2.157643 -176.996448
-6.190227 -2.308091 -176.995391
-6.173378 -2.458539 -176.994334
-6.094063 -2.528482 -176.995700
-6.077214 -2.678930 -176.994642
-6.060365 -2.829378 -176.993585
-6.105982 -3.060330 -176.990105
-6.089132 -3.210778 -176.989048
-6.072283 -3.361226 -176.987991
-5.992969 -3.431169 -176.989357
-5.976119 -3.581617 -176.988300
-5.896805 -3.651560 -176.989666
-5.817490 -3.721503 -176.991032
-5.800641 -3.871951 -176.989975
-5.721326 -3.941894 -176.991341
-5.642012 -4.011837 -176.992707
-5.625162 -4.162285 -176.991650
-5.545848 -4.232228 -176.993016
-5.466533 -4.302171 -176.994382
-5.449684 -4.452619 -176.993325
-5.370369 -4.522562 -176.994691
-5.291055 -4.592506 -176.996057
-5.211740 -4.662449 -176.997423
-5.132425 -4.732392 -176.998789
-5.053110 -4.802335 -177.000155
-5.036261 -4.952783 -176.999098
-4.956947 -5.022726 -177.000464
-4.877632 -5.092669 -177.001830
-4.798317 -5.162612 -177.003196
-4.719003 -5.232555 -177.004562
-4.639688 -5.302499 -177.005928
-4.622839 -5.452946 -177.004871
-4.543524 -5.522890 -177.006237
-4.464209 -5.592833 -177.007603
-4.384895 -5.662776 -177.008969
-4.305580 -5.732719 -177.010335
-4.226265 -5.802662 -177.011701
-4.146951 -5.872605 -177.013067
-4.067636 -5.942549 -177.014433
-3.988321 -6.012492 -177.015799
-3.909007 -6.082435 -177.017165
-3.892157 -6.232883 -177.016108
-3.812843 -6.302826 -177.017474
-3.795994 -6.453274 -177.016416
-3.716679 -6.523217 -177.017782
-3.699830 -6.673665 -177.016725
-3.620515 -6.743608 -177.018091
-3.541200 -6.813551 -177.019457
-3.461886 -6.883494 -177.020823
-3.382571 -6.953437 -177.022189
-3.303256 -7.023380 -177.023555
-3.223942 -7.093324 -177.024921
-3.144627 -7.163267 -177.026287
-3.127778 -7.313715 -177.025230
-3.048463 -7.383658 -177.026596
-2.969148 -7.453601 -177.027962
-2.889834 -7.523544 -177.029328
-2.872985 -7.673992 -177.028271
-2.856135 -7.824440 -177.027214
-2.776821 -7.894383 -177.028580
-2.759972 -8.044831 -177.027523
-2.680657 -8.114774 -177.028889
-2.601342 -8.184717 -177.030255
-2.522028 -8.254660 -177.031621
-2.442713 -8.324603 -177.032987
-2.363398 -8.394547 -177.034353
-2.284084 -8.464490 -177.035719
-2.267234 -8.614938 -177.034662
-2.187920 -8.684881 -177.036028
-2.108605 -8.754824 -177.037394
-2.029290 -8.824767 -177.038760
-1.949976 -8.894710 -177.040126
-1.870661 -8.964653 -177.041492
-1.791346 -9.034597 -177.042858
-1.712032 -9.104540 -177.044224
-1.632717 -9.174483 -177.045590
-1.615868 -9.324931 -177.044533
-1.536553 -9.394874 -177.045899
-1.457238 -9.464817 -177.047265
-1.377924 -9.534760 -177.048631
-1.298609 -9.604703 -177.049997
-1.281760 -9.755151 -177.048940
-1.202445 -9.825094 -177.050306
-1.123130 -9.895037 -177.051672
-1.043816 -9.964981 -177.053038
-0.964501 -10.034924 -177.054404
-0.885186 -10.104867 -177.055770
-0.805872 -10.174810 -177.057136
-0.789023 -10.325258 -177.056079
-0.709708 -10.395201 -177.057445
-0.630393 -10.465144 -177.058811
-0.551079 -10.535087 -177.060177
-0.471764 -10.605031 -177.061543
-0.392449 -10.674974 -177.062909
-0.313134 -10.744917 -177.064275
-0.233820 -10.814860 -177.065641
-0.154505 -10.884803 -177.067007
-0.075190 -10.954746 -177.068373
0.004124 -11.024690 -177.069739
0.083439 -11.094633 -177.071105
0.100288 -11.245080 -177.070048
0.179603 -11.315024 -177.071414
0.258917 -11.384967 -177.072780
0.338232 -11.454910 -177.074146
0.417547 -11.524853 -177.075512
0.496862 -11.594796 -177.076878
0.576176 -11.664739 -177.078244
0.655491 -11.734683 -177.079610
0.734806 -11.804626 -177.080976
0.876586 -11.794064 -177.084765
0.955900 -11.864007 -177.086131
1.035215 -11.933951 -177.087497
1.176995 -11.923389 -177.091287
1.256310 -11.993332 -177.092653
1.398090 -11.982771 -177.096442
1.477405 -12.052714 -177.097808
1.556720 -12.122657 -177.099174
1.636034 -12.192600 -177.100540
1.715349 -12.262543 -177.101906
1.794664 -12.332486 -177.103272
1.936444 -12.321925 -177.107061
2.015759 -12.391868 -177.108427
2.095073 -12.461811 -177.109793
2.174388 -12.531754 -177.111159
2.253703 -12.601698 -177.112525
2.333017 -12.671641 -177.113891
2.474798 -12.661079 -177.117680
2.554112 -12.731022 -177.119046
2.695893 -12.720461 -177.122835
2.775207 -12.790404 -177.124201
2.854522 -12.860347 -177.125567
2.933837 -12.930290 -177.126933
3.075617 -12.919729 -177.130723
3.154932 -12.989672 -177.132089
3.234246 -13.059615 -177.133455
3.376026 -13.049054 -177.137244
3.580272 -12.957987 -177.143456
3.846984 -12.786416 -177.152091
3.926298 -12.856360 -177.153457
4.005613 -12.926303 -177.154823
4.147393 -12.915741 -177.158613
4.289173 -12.905180 -177.162402
-1.401961 -9.498489 -176.949448
-1.325989 -9.721308 -176.945967
-1.222329 -9.742223 -176.947333
-1.132513 -9.864090 -176.946276
-1.042698 -9.985957 -176.945219
-0.939037 -10.006872 -176.946585
-0.849222 -10.128739 -176.945528
-0.759406 -10.250606 -176.944471
-0.669590 -10.372473 -176.943414
-0.565930 -10.393388 -176.944780
-0.476114 -10.515255 -176.943723
-0.386298 -10.637123 -176.942666
-0.282638 -10.658038 -176.944032
-0.192822 -10.779905 -176.942975
-0.089162 -10.800820 -176.944341
0.000654 -10.922687 -176.943283
0.104314 -10.943602 -176.944649
0.194130 -11.065469 -176.943592
0.297790 -11.086384 -176.944958
0.387606 -11.208251 -176.943901
0.477422 -11.330118 -176.942844
0.567238 -11.451985 -176.941787
0.670898 -11.472900 -176.943153
0.760714 -11.594767 -176.942096
0.864374 -11.615683 -176.943462
0.954190 -11.737550 -176.942405
1.057850 -11.758465 -176.943771
1.147666 -11.880332 -176.942714
1.237481 -12.002199 -176.941657
1.341142 -12.023114 -176.943023
1.430957 -12.144981 -176.941966
1.534618 -12.165896 -176.943332
1.638278 -12.186811 -176.944698
1.741938 -12.207726 -176.946064
1.845598 -12.228642 -176.947430
1.935414 -12.350509 -176.946373
2.039074 -12.371424 -176.947739
2.142734 -12.392339 -176.949105
2.232550 -12.514206 -176.948047
2.336210 -12.535121 -176.949413
2.426026 -12.656988 -176.948356
2.529686 -12.677903 -176.949722
2.633346 -12.698818 -176.951088
2.723162 -12.820685 -176.950031
2.826822 -12.841601 -176.951397
2.930482 -12.862516 -176.952763
3.034143 -12.883431 -176.954129
3.123958 -13.005298 -176.953072
3.227619 -13.026213 -176.954438
3.331279 -13.047128 -176.955804
3.421095 -13.168995 -176.954747
3.524755 -13.189910 -176.956113
3.628415 -13.210825 -176.957479
3.732075 -13.231741 -176.958845
3.849580 -13.151704 -176.962634
3.953240 -13.172619 -176.964000
4.056900 -13.193534 -176.965366
4.160560 -13.214449 -176.966732
4.264220 -13.235364 -176.968098
4.354036 -13.357231 -176.967041
4.457696 -13.378146 -176.968407
4.561356 -13.399062 -176.969773
4.665017 -13.419977 -176.971139
4.782521 -13.339940 -176.974928
4.886181 -13.360855 -176.976294
4.989841 -13.381770 -176.977661
5.093502 -13.402685 -176.979027
5.197162 -13.423600 -176.980393
5.300822 -13.444516 -176.981759
5.404482 -13.465431 -176.983125
5.508142 -13.486346 -176.984491
5.625647 -13.406309 -176.988280
5.729307 -13.427224 -176.989646
5.846811 -13.347187 -176.993435
5.978160 -13.166199 -176.999647
6.081820 -13.187114 -177.001013
6.199325 -13.107077 -177.004802
6.302985 -13.127992 -177.006168
6.434334 -12.947004 -177.012381
6.551838 -12.866967 -177.016170
6.669343 -12.786930 -177.019959
6.786847 -12.706893 -177.023748
6.904352 -12.626856 -177.027537
7.049545 -12.344916 -177.036173
7.167049 -12.264879 -177.039962
7.284554 -12.184842 -177.043751
7.415903 -12.003854 -177.049963
7.533407 -11.923817 -177.053752
7.650912 -11.843780 -177.057541
7.768416 -11.763743 -177.061330
7.872076 -11.784658 -177.062697
7.989581 -11.704622 -177.066486
8.107085 -11.624585 -177.070275
8.210745 -11.645500 -177.071641
8.342094 -11.464511 -177.077853
8.487287 -11.182571 -177.086488
8.604792 -11.102534 -177.090278
8.722296 -11.022497 -177.094067
8.839801 -10.942460 -177.097856
8.971150 -10.761472 -177.104068
9.088654 -10.681435 -177.107857
9.206159 -10.601398 -177.111646
9.323663 -10.521361 -177.115436
9.427323 -10.542276 -177.116802
9.544828 -10.462240 -177.120591
9.648488 -10.483155 -177.121957
9.752148 -10.504070 -177.123323
9.855808 -10.524985 -177.124689
9.959468 -10.545900 -177.126055
10.076973 -10.465863 -177.129844
10.194477 -10.385826 -177.133633
10.311982 -10.305790 -177.137422
10.443331 -10.124801 -177.143634
10.560835 -10.044764 -177.147424
10.678340 -9.964727 -177.151213
10.795844 -9.884691 -177.155002
10.913349 -9.804654 -177.158791
11.044697 -9.623665 -177.165003
11.162202 -9.543628 -177.168792
11.279706 -9.463592 -177.172582
11.383366 -9.484507 -177.173948
11.500871 -9.404470 -177.177737
11.618375 -9.324433 -177.181526
11.749724 -9.143444 -177.187738
11.950295 -8.457696 -177.206066
12.053955 -8.478611 -177.207432
12.171459 -8.398575 -177.211221
12.275120 -8.419490 -177.212587
12.392624 -8.339453 -177.216376
12.496284 -8.360368 -177.217742
-0.181428 -10.713624 -176.884057
-0.004226 -10.868605 -176.880577
0.134491 -10.929237 -176.879520
0.234721 -10.895520 -176.880886
0.373437 -10.956153 -176.879829
0.627612 -11.299832 -176.871502
0.804815 -11.454813 -176.868022
0.943531 -11.515445 -176.866965
1.043761 -11.481728 -176.868331
1.182477 -11.542360 -176.867274
1.436653 -11.886040 -176.858948
1.575369 -11.946672 -176.857890
1.752572 -12.101653 -176.854410
1.891288 -12.162285 -176.853353
2.068491 -12.317267 -176.849873
2.207207 -12.377899 -176.848816
2.307437 -12.344182 -176.850182
2.446153 -12.404814 -176.849125
2.584870 -12.465446 -176.848068
2.723586 -12.526078 -176.847010
2.939275 -12.775408 -176.841107
3.077991 -12.836041 -176.840050
3.216708 -12.896673 -176.838993
3.316938 -12.862956 -176.840359
3.455654 -12.923588 -176.839302
3.632856 -13.078569 -176.835822
3.771573 -13.139201 -176.834764
3.910289 -13.199833 -176.833707
4.010519 -13.166116 -176.835073
4.149235 -13.226748 -176.834016
4.287952 -13.287380 -176.832959
4.388182 -13.253663 -176.834325
4.488411 -13.219946 -176.835691
4.588641 -13.186229 -176.837057
4.727358 -13.246862 -176.836000
