ply
format ascii 1.0
element vertex 1513
property float x
property float y
property float z
element face 0
property list uchar uint vertex_indices
end_header
4.179636 -12.985816 -175.800209
4.330084 -12.968967 -175.799152
4.561037 -13.014583 -175.795671
4.952998 -13.185131 -175.787345
5.425465 -13.418144 -175.776595
5.575913 -13.401295 -175.775538
5.806865 -13.446911 -175.772058
6.037818 -13.492527 -175.768578
6.107761 -13.413213 -175.769944
6.258209 -13.396364 -175.768887
6.328152 -13.317049 -175.770253
6.639609 -13.425131 -175.764349
6.790057 -13.408282 -175.763292
6.860000 -13.328967 -175.764658
6.929943 -13.249652 -175.766024
6.999887 -13.170338 -175.767390
7.150334 -13.153489 -175.766333
7.220278 -13.074174 -175.767699
7.290221 -12.994859 -175.769065
7.440669 -12.978010 -175.768008
7.510612 -12.898695 -175.769374
7.661060 -12.881846 -175.768317
7.731003 -12.802532 -175.769683
7.881451 -12.785682 -175.768626
7.951394 -12.706368 -175.769992
8.021337 -12.627053 -175.771358
8.091280 -12.547738 -175.772724
8.161223 -12.468424 -175.774090
8.231166 -12.389109 -175.775456
8.301110 -12.309794 -175.776822
8.451557 -12.292945 -175.775765
8.521501 -12.213630 -175.777131
8.591444 -12.134316 -175.778497
8.661387 -12.055001 -175.779863
8.811835 -12.038152 -175.778806
8.881778 -11.958837 -175.780172
8.951721 -11.879523 -175.781538
9.021664 -11.800208 -175.782904
9.091607 -11.720893 -175.784270
9.161550 -11.641579 -175.785636
9.311998 -11.624729 -175.784579
9.381941 -11.545415 -175.785945
9.451885 -11.466100 -175.787311
9.521828 -11.386785 -175.788677
9.591771 -11.307471 -175.790043
9.661714 -11.228156 -175.791409
9.812162 -11.211307 -175.790352
9.962610 -11.194458 -175.789295
10.032553 -11.115143 -175.790661
10.102496 -11.035828 -175.792027
10.172439 -10.956514 -175.793393
10.242382 -10.877199 -175.794759
10.312326 -10.797884 -175.796125
10.382269 -10.718570 -175.797491
10.452212 -10.639255 -175.798857
10.522155 -10.559940 -175.800223
10.592098 -10.480625 -175.801589
10.742546 -10.463776 -175.800532
10.892994 -10.446927 -175.799475
11.043442 -10.430078 -175.798418
11.193890 -10.413229 -175.797360
11.263833 -10.333914 -175.798726
11.333776 -10.254600 -175.800092
11.484224 -10.237750 -175.799035
11.554167 -10.158436 -175.800401
11.704615 -10.141587 -175.799344
11.855063 -10.124737 -175.798287
11.925006 -10.045423 -175.799653
11.994949 -9.966108 -175.801019
12.064892 -9.886793 -175.802385
12.134835 -9.807479 -175.803751
12.285283 -9.790630 -175.802694
12.355226 -9.711315 -175.804060
12.425169 -9.632000 -175.805426
12.575617 -9.615151 -175.804369
12.645560 -9.535836 -175.805735
12.715503 -9.456522 -175.807101
12.785447 -9.377207 -175.808467
12.855390 -9.297892 -175.809833
12.925333 -9.218578 -175.811199
12.995276 -9.139263 -175.812565
13.145724 -9.122414 -175.811508
13.215667 -9.043099 -175.812874
13.285610 -8.963784 -175.814240
13.355553 -8.884470 -175.815606
13.425497 -8.805155 -175.816972
13.495440 -8.725840 -175.818338
13.565383 -8.646526 -175.819704
13.715831 -8.629676 -175.818647
13.785774 -8.550362 -175.820013
13.855717 -8.471047 -175.821379
14.006165 -8.454198 -175.820322
14.076108 -8.374883 -175.821688
14.226556 -8.358034 -175.820631
14.296499 -8.278719 -175.821997
14.446947 -8.261870 -175.820940
14.516890 -8.182556 -175.822306
14.667338 -8.165706 -175.821249
14.737281 -8.086392 -175.822615
14.807224 -8.007077 -175.823981
14.877167 -7.927762 -175.825347
15.027615 -7.910913 -175.824290
15.097558 -7.831599 -175.825656
15.167502 -7.752284 -175.827022
15.237445 -7.672969 -175.828388
15.307388 -7.593655 -175.829754
15.377331 -7.514340 -175.831120
15.447274 -7.435025 -175.832486
15.517217 -7.355710 -175.833852
15.587160 -7.276396 -175.835218
15.576599 -7.134616 -175.839007
15.646542 -7.055301 -175.840373
15.635981 -6.913521 -175.844162
15.705924 -6.834206 -175.845528
15.695362 -6.692426 -175.849317
15.684801 -6.550645 -175.853106
15.674239 -6.408865 -175.856895
15.744182 -6.329551 -175.858261
15.733621 -6.187770 -175.862051
15.803564 -6.108456 -175.863417
15.793002 -5.966675 -175.867206
15.621432 -5.699964 -175.875841
15.530365 -5.495718 -175.882053
7.155994 -13.011899 -175.796454
7.277861 -12.922083 -175.795397
7.399728 -12.832267 -175.794340
7.622547 -12.756296 -175.790859
7.845366 -12.680324 -175.787379
7.967233 -12.590508 -175.786322
7.988148 -12.486848 -175.787688
8.009063 -12.383188 -175.789054
8.433786 -12.334905 -175.780728
8.555653 -12.245089 -175.779670
8.576568 -12.141429 -175.781036
8.698435 -12.051613 -175.779979
8.820303 -11.961797 -175.778922
8.942170 -11.871982 -175.777865
9.064037 -11.782166 -175.776808
9.185904 -11.692350 -175.775751
9.408723 -11.616378 -175.772271
9.530590 -11.526563 -175.771214
9.652457 -11.436747 -175.770156
9.673372 -11.333087 -175.771522
9.795239 -11.243271 -175.770465
9.917106 -11.153455 -175.769408
10.038973 -11.063639 -175.768351
10.261792 -10.987668 -175.764871
10.383659 -10.897852 -175.763814
10.404574 -10.794192 -175.765180
10.425489 -10.690531 -175.766546
10.547356 -10.600716 -175.765489
10.568271 -10.497055 -175.766855
10.690138 -10.407240 -175.765798
11.114861 -10.358957 -175.757471
11.337680 -10.282985 -175.753991
11.459547 -10.193169 -175.752934
11.581414 -10.103354 -175.751877
11.703281 -10.013538 -175.750820
11.724196 -9.909878 -175.752186
11.846063 -9.820062 -175.751129
11.967931 -9.730246 -175.750071
12.291701 -9.668119 -175.744168
12.514520 -9.592147 -175.740688
12.535435 -9.488487 -175.742054
12.657303 -9.398671 -175.740997
12.779170 -9.308855 -175.739940
13.001989 -9.232884 -175.736459
13.123856 -9.143068 -175.735402
13.245723 -9.053252 -175.734345
13.367590 -8.963436 -175.733288
13.489457 -8.873621 -175.732231
13.510372 -8.769960 -175.733597
13.632239 -8.680145 -175.732540
13.653154 -8.576484 -175.733906
13.775021 -8.486669 -175.732849
13.896888 -8.396853 -175.731792
14.018755 -8.307037 -175.730735
14.039670 -8.203377 -175.732101
14.161537 -8.113561 -175.731043
14.182452 -8.009901 -175.732409
14.304319 -7.920085 -175.731352
14.426187 -7.830269 -175.730295
14.649005 -7.754298 -175.726815
14.871824 -7.678326 -175.723335
14.993691 -7.588510 -175.722278
15.115559 -7.498694 -175.721221
15.338377 -7.422723 -175.717740
15.460245 -7.332907 -175.716683
15.481160 -7.229247 -175.718049
15.502075 -7.125587 -175.719415
15.623942 -7.035771 -175.718358
15.644857 -6.932111 -175.719724
15.665772 -6.828451 -175.721090
15.686687 -6.724790 -175.722456
15.707602 -6.621130 -175.723822
15.728518 -6.517470 -175.725188
15.749433 -6.413810 -175.726554
15.770348 -6.310150 -175.727920
15.791263 -6.206490 -175.729286
15.812178 -6.102829 -175.730652
15.732141 -5.985325 -175.734441
15.753056 -5.881665 -175.735807
15.773972 -5.778005 -175.737173
15.794887 -5.674345 -175.738540
15.815802 -5.570684 -175.739906
15.836717 -5.467024 -175.741272
15.857632 -5.363364 -175.742638
15.777595 -5.245860 -175.746427
15.697558 -5.128355 -175.750216
15.718474 -5.024695 -175.751582
15.638437 -4.907190 -175.755371
15.558400 -4.789686 -175.759160
15.579315 -4.686026 -175.760526
15.398326 -4.554677 -175.766738
15.217338 -4.423328 -175.772951
14.733493 -4.250446 -175.786432
14.754408 -4.146786 -175.787798
14.674372 -4.029282 -175.791587
14.392431 -3.884089 -175.800223
14.211442 -3.752740 -175.806435
14.131406 -3.635235 -175.810224
14.051369 -3.517731 -175.814013
13.971332 -3.400226 -175.817803
13.891295 -3.282722 -175.821592
13.811258 -3.165217 -175.825381
13.630270 -3.033868 -175.831593
13.550233 -2.916364 -175.835382
13.571148 -2.812704 -175.836748
13.592063 -2.709044 -175.838114
13.512026 -2.591539 -175.841903
13.532942 -2.487879 -175.843269
13.553857 -2.384219 -175.844635
13.473820 -2.266714 -175.848425
13.494735 -2.163054 -175.849791
13.414698 -2.045550 -175.853580
12.930854 -1.872668 -175.867061
12.850817 -1.755163 -175.870850
12.770780 -1.637659 -175.874640
12.791695 -1.533999 -175.876006
12.711659 -1.416494 -175.879795
12.732574 -1.312834 -175.881161
12.753489 -1.209174 -175.882527
12.774404 -1.105514 -175.883893
12.694367 -0.988009 -175.887682
12.715282 -0.884349 -175.889048
12.736198 -0.780689 -175.890414
12.656161 -0.663185 -175.894203
12.576124 -0.545680 -175.897992
12.496087 -0.428176 -175.901781
12.416050 -0.310671 -175.905571
12.436966 -0.207011 -175.906937
12.457881 -0.103351 -175.908303
12.478796 0.000309 -175.909669
12.499711 0.103970 -175.911035
12.419674 0.221474 -175.914824
12.440589 0.325134 -175.916190
12.360553 0.442639 -175.919979
12.381468 0.546299 -175.921345
12.301431 0.663803 -175.925134
12.322346 0.767463 -175.926500
12.343261 0.871124 -175.927866
12.364176 0.974784 -175.929232
12.385091 1.078444 -175.930598
12.406007 1.182104 -175.931964
12.325970 1.299609 -175.935753
12.346885 1.403269 -175.937119
12.367800 1.506929 -175.938485
12.287763 1.624433 -175.942274
12.308678 1.728094 -175.943640
12.228642 1.845598 -175.947430
12.148605 1.963103 -175.951219
12.169520 2.066763 -175.952585
12.089483 2.184267 -175.956374
12.110398 2.287927 -175.957740
12.030361 2.405432 -175.961529
12.051277 2.509092 -175.962895
12.072192 2.612752 -175.964261
11.992155 2.730257 -175.968050
12.013070 2.833917 -175.969416
12.033985 2.937577 -175.970782
12.054900 3.041237 -175.972148
11.974864 3.158742 -175.975937
11.995779 3.262402 -175.977303
12.016694 3.366062 -175.978669
12.037609 3.469722 -175.980035
12.058524 3.573382 -175.981402
11.978487 3.690887 -175.985191
11.898451 3.808391 -175.988980
11.919366 3.912051 -175.990346
11.839329 4.029556 -175.994135
11.860244 4.133216 -175.995501
11.881159 4.236876 -175.996867
11.902074 4.340536 -175.998233
11.922989 4.444196 -175.999599
11.842953 4.561701 -176.003388
11.863868 4.665361 -176.004754
11.884783 4.769021 -176.006120
11.905698 4.872681 -176.007486
11.825661 4.990186 -176.011275
11.846576 5.093846 -176.012641
11.867491 5.197506 -176.014007
11.888407 5.301166 -176.015373
11.808370 5.418671 -176.019163
11.829285 5.522331 -176.020529
11.850200 5.625991 -176.021895
11.770163 5.743496 -176.025684
11.791078 5.847156 -176.027050
11.811994 5.950816 -176.028416
11.731957 6.068321 -176.032205
11.651920 6.185825 -176.035994
11.168076 6.358707 -176.049476
11.088039 6.476211 -176.053265
11.008002 6.593716 -176.057054
15.951608 -6.821514 -175.711027
16.012240 -6.682798 -175.709970
16.072872 -6.544081 -175.708912
16.039155 -6.443851 -175.710278
16.099788 -6.305135 -175.709221
16.066071 -6.204905 -175.710587
16.032354 -6.104675 -175.711953
15.998637 -6.004445 -175.713319
15.964920 -5.904215 -175.714685
15.931203 -5.803985 -175.716051
15.991835 -5.665269 -175.714994
15.958118 -5.565039 -175.716360
15.924401 -5.464809 -175.717726
15.890684 -5.364579 -175.719092
15.856967 -5.264349 -175.720458
16.294995 -4.971688 -175.709709
16.355627 -4.832971 -175.708652
16.321910 -4.732741 -175.710018
16.288193 -4.632512 -175.711384
16.254476 -4.532282 -175.712750
16.126410 -4.470538 -175.716539
16.092693 -4.370308 -175.717905
16.058976 -4.270078 -175.719271
15.930910 -4.208335 -175.723060
15.897193 -4.108105 -175.724426
15.674778 -4.084848 -175.730638
15.641061 -3.984618 -175.732004
15.512995 -3.922874 -175.735793
15.479278 -3.822644 -175.737159
15.351212 -3.760901 -175.740949
15.317495 -3.660671 -175.742315
15.095080 -3.637414 -175.748527
14.872664 -3.614156 -175.754739
14.744598 -3.552413 -175.758528
14.616532 -3.490669 -175.762317
14.582815 -3.390439 -175.763683
14.454749 -3.328696 -175.767473
14.421032 -3.228466 -175.768839
14.387315 -3.128236 -175.770205
14.353598 -3.028006 -175.771571
14.319881 -2.927776 -175.772937
14.191815 -2.866033 -175.776726
14.158098 -2.765803 -175.778092
14.124381 -2.665573 -175.779458
14.090664 -2.565343 -175.780824
13.962598 -2.503599 -175.784613
13.928881 -2.403369 -175.785979
13.895164 -2.303139 -175.787345
13.861447 -2.202909 -175.788711
13.827730 -2.102680 -175.790077
13.794013 -2.002450 -175.791443
13.760296 -1.902220 -175.792809
13.726579 -1.801990 -175.794175
13.692862 -1.701760 -175.795541
13.659145 -1.601530 -175.796907
13.625428 -1.501300 -175.798273
13.591711 -1.401070 -175.799639
13.652343 -1.262354 -175.798582
13.618626 -1.162124 -175.799948
13.490560 -1.100380 -175.803737
13.456843 -1.000150 -175.805103
13.423126 -0.899920 -175.806469
13.389409 -0.799691 -175.807835
13.355692 -0.699461 -175.809201
13.321975 -0.599231 -175.810567
13.288258 -0.499001 -175.811933
13.254541 -0.398771 -175.813299
13.220824 -0.298541 -175.814665
13.187107 -0.198311 -175.816031
13.153390 -0.098081 -175.817397
13.119673 0.002149 -175.818763
13.085956 0.102379 -175.820129
13.052239 0.202609 -175.821495
13.018522 0.302839 -175.822861
12.984805 0.403069 -175.824227
12.951088 0.503298 -175.825593
12.917371 0.603528 -175.826959
12.883654 0.703758 -175.828325
12.849937 0.803988 -175.829691
12.816220 0.904218 -175.831058
12.782503 1.004448 -175.832424
12.748786 1.104678 -175.833790
12.715069 1.204908 -175.835156
12.681352 1.305138 -175.836522
12.647635 1.405368 -175.837888
12.708267 1.544084 -175.836830
12.674550 1.644314 -175.838196
12.640833 1.744544 -175.839563
12.701465 1.883260 -175.838505
12.667748 1.983490 -175.839871
12.634031 2.083720 -175.841237
12.600314 2.183950 -175.842603
12.566597 2.284180 -175.843969
12.532880 2.384410 -175.845335
12.593512 2.523126 -175.844278
12.559795 2.623356 -175.845644
12.526078 2.723586 -175.847010
12.492361 2.823816 -175.848376
12.458644 2.924046 -175.849742
12.424927 3.024276 -175.851108
12.391210 3.124506 -175.852474
12.357493 3.224736 -175.853840
12.323776 3.324965 -175.855207
12.290059 3.425195 -175.856573
12.350691 3.563912 -175.855515
12.316974 3.664142 -175.856881
12.283257 3.764372 -175.858247
12.249540 3.864601 -175.859613
12.310172 4.003318 -175.858556
12.276455 4.103548 -175.859922
12.242738 4.203778 -175.861288
12.209021 4.304008 -175.862654
12.175304 4.404237 -175.864020
12.141587 4.504467 -175.865386
12.107870 4.604697 -175.866752
12.074153 4.704927 -175.868118
12.134785 4.843644 -175.867061
12.101068 4.943873 -175.868427
12.067351 5.044103 -175.869793
12.033634 5.144333 -175.871159
11.999917 5.244563 -175.872525
11.966200 5.344793 -175.873891
12.026833 5.483509 -175.872834
11.993116 5.583739 -175.874200
11.959399 5.683969 -175.875566
11.925682 5.784199 -175.876932
11.891965 5.884429 -175.878298
11.952597 6.023145 -175.877241
11.918880 6.123375 -175.878607
11.885163 6.223605 -175.879973
11.851446 6.323835 -175.881339
11.912078 6.462551 -175.880282
11.878361 6.562781 -175.881648
11.938993 6.701498 -175.880591
11.905276 6.801728 -175.881957
11.871559 6.901958 -175.883323
11.837842 7.002187 -175.884689
11.709776 7.063931 -175.888478
11.581710 7.125675 -175.892267
11.453644 7.187418 -175.896057
11.419927 7.287648 -175.897423
11.291860 7.349392 -175.901212
11.258143 7.449622 -175.902578
11.130077 7.511365 -175.906367
11.002011 7.573109 -175.910156
10.873945 7.634852 -175.913945
10.745879 7.696596 -175.917734
10.617813 7.758339 -175.921523
10.584096 7.858569 -175.922889
10.456030 7.920313 -175.926679
10.422313 8.020543 -175.928045
10.294247 8.082286 -175.931834
10.071831 8.105543 -175.938046
9.943765 8.167287 -175.941835
9.910048 8.267517 -175.943201
9.781982 8.329260 -175.946990
9.748265 8.429490 -175.948356
9.620199 8.491234 -175.952146
9.397784 8.514491 -175.958358
9.269718 8.576235 -175.962147
9.141652 8.637978 -175.965936
9.013586 8.699722 -175.969725
8.885519 8.761465 -175.973514
8.663104 8.784722 -175.979727
8.535038 8.846466 -175.983516
8.406972 8.908209 -175.987305
15.755677 -3.957688 -175.809091
15.738827 -3.807240 -175.808034
15.659513 -3.737297 -175.809400
15.642663 -3.586849 -175.808343
15.625814 -3.436401 -175.807286
15.546499 -3.366458 -175.808652
15.467184 -3.296515 -175.810018
15.387870 -3.226572 -175.811384
15.308555 -3.156628 -175.812750
15.229240 -3.086685 -175.814116
15.149925 -3.016742 -175.815482
15.070611 -2.946799 -175.816848
14.991296 -2.876856 -175.818214
14.911981 -2.806913 -175.819580
14.832666 -2.736969 -175.820946
14.753351 -2.667026 -175.822312
14.674037 -2.597083 -175.823678
14.594722 -2.527140 -175.825044
14.515407 -2.457197 -175.826410
14.436092 -2.387254 -175.827776
14.356777 -2.317311 -175.829142
14.277463 -2.247367 -175.830508
14.260613 -2.096919 -175.829451
14.181299 -2.026976 -175.830817
14.101984 -1.957033 -175.832183
14.085135 -1.806585 -175.831126
14.005820 -1.736642 -175.832492
13.926505 -1.666699 -175.833858
13.909656 -1.516251 -175.832801
13.892806 -1.365803 -175.831744
13.813492 -1.295860 -175.833110
13.796642 -1.145412 -175.832052
13.717328 -1.075469 -175.833418
13.638013 -1.005526 -175.834784
13.558698 -0.935582 -175.836150
13.479383 -0.865639 -175.837517
13.400068 -0.795696 -175.838883
13.320754 -0.725753 -175.840249
13.241439 -0.655810 -175.841615
13.224590 -0.505362 -175.840557
13.145275 -0.435419 -175.841923
13.128426 -0.284971 -175.840866
13.111576 -0.134523 -175.839809
13.032261 -0.064580 -175.841175
13.015412 0.085868 -175.840118
12.998563 0.236316 -175.839061
12.919248 0.306259 -175.840427
12.902399 0.456707 -175.839370
12.823084 0.526651 -175.840736
12.743769 0.596594 -175.842102
12.163908 4.497679 -175.818406
12.147059 4.648127 -175.817349
12.067744 4.718070 -175.818715
12.050895 4.868518 -175.817658
12.034046 5.018966 -175.816601
11.954731 5.088909 -175.817967
12.000347 5.319862 -175.814487
11.983498 5.470310 -175.813430
11.966649 5.620757 -175.812373
11.949800 5.771205 -175.811315
11.932950 5.921653 -175.810258
11.916101 6.072101 -175.809201
11.899252 6.222549 -175.808144
11.882403 6.372997 -175.807087
11.803088 6.442940 -175.808453
11.786239 6.593388 -175.807396
11.706924 6.663331 -175.808762
11.690074 6.813779 -175.807705
11.610760 6.883723 -175.809071
11.593910 7.034170 -175.808014
11.639527 7.265123 -175.804534
11.622677 7.415571 -175.803476
11.543363 7.485514 -175.804842
11.464048 7.555457 -175.806208
11.447199 7.705905 -175.805151
11.367884 7.775849 -175.806517
11.288569 7.845792 -175.807883
11.209254 7.915735 -175.809249
11.129939 7.985678 -175.810615
11.050625 8.055621 -175.811981
10.971310 8.125564 -175.813347
10.954461 8.276012 -175.812290
10.875146 8.345955 -175.813656
10.795831 8.415899 -175.815022
10.716516 8.485842 -175.816388
10.637201 8.555785 -175.817754
10.495421 8.545223 -175.821544
10.416106 8.615167 -175.822910
10.336792 8.685110 -175.824276
10.195011 8.674548 -175.828065
10.053231 8.663986 -175.831854
9.973916 8.733930 -175.833220
9.832136 8.723368 -175.837009
9.752821 8.793311 -175.838375
9.673506 8.863254 -175.839741
9.594191 8.933197 -175.841107
9.514877 9.003141 -175.842473
9.373096 8.992579 -175.846262
9.293781 9.062522 -175.847628
9.214467 9.132465 -175.848994
9.072686 9.121904 -175.852783
8.993372 9.191847 -175.854149
8.914057 9.261790 -175.855515
8.772276 9.251228 -175.859305
8.692962 9.321172 -175.860671
8.551181 9.310610 -175.864460
8.471867 9.380553 -175.865826
8.330086 9.369991 -175.869615
8.250771 9.439935 -175.870981
8.108991 9.429373 -175.874770
8.029676 9.499316 -175.876136
7.950362 9.569259 -175.877502
7.808581 9.558698 -175.881291
7.666801 9.548136 -175.885080
7.525021 9.537574 -175.888869
7.383240 9.527013 -175.892659
7.303925 9.596956 -175.894025
7.224611 9.666899 -175.895391
7.082830 9.656337 -175.899180
6.941050 9.645776 -175.902969
6.799270 9.635214 -175.906758
6.657489 9.624653 -175.910547
6.515709 9.614091 -175.914336
6.436394 9.684034 -175.915702
6.294614 9.673473 -175.919491
6.152834 9.662911 -175.923281
6.073519 9.732854 -175.924647
5.931738 9.722292 -175.928436
5.789958 9.711731 -175.932225
5.648178 9.701169 -175.936014
5.506397 9.690608 -175.939803
5.364617 9.680046 -175.943592
5.222837 9.669484 -175.947381
4.831194 9.336904 -175.960863
4.751879 9.406847 -175.962229
4.610099 9.396285 -175.966018
4.468319 9.385723 -175.969807
4.389004 9.455667 -175.971173
11.546812 7.347854 -175.818001
11.456996 7.469721 -175.816944
11.367180 7.591588 -175.815887
11.291209 7.814407 -175.812407
11.215237 8.037226 -175.808926
11.125422 8.159093 -175.807869
11.021761 8.180008 -175.809235
10.931946 8.301875 -175.808178
10.828285 8.322790 -175.809544
10.738470 8.444657 -175.808487
10.648654 8.566525 -175.807430
10.544994 8.587440 -175.808796
10.455178 8.709307 -175.807739
10.351518 8.730222 -175.809105
10.247857 8.751137 -175.810471
10.158042 8.873004 -175.809414
10.068226 8.994871 -175.808357
9.964566 9.015786 -175.809723
9.874750 9.137653 -175.808666
9.771090 9.158568 -175.810032
9.667430 9.179483 -175.811398
9.577614 9.301351 -175.810341
9.473954 9.322266 -175.811707
9.370293 9.343181 -175.813073
9.280478 9.465048 -175.812016
9.176817 9.485963 -175.813382
9.073157 9.506878 -175.814748
8.969497 9.527793 -175.816114
8.865837 9.548708 -175.817480
8.762177 9.569623 -175.818846
8.658517 9.590539 -175.820212
8.568701 9.712406 -175.819155
8.465041 9.733321 -175.820521
8.361380 9.754236 -175.821887
8.257720 9.775151 -175.823253
8.167904 9.897018 -175.822195
8.064244 9.917933 -175.823561
7.960584 9.938848 -175.824927
7.856924 9.959763 -175.826294
7.753264 9.980679 -175.827660
7.649604 10.001594 -175.829026
7.545943 10.022509 -175.830392
7.428439 9.942472 -175.834181
7.324779 9.963387 -175.835547
7.221119 9.984302 -175.836913
7.117459 10.005217 -175.838279
7.013798 10.026133 -175.839645
6.910138 10.047048 -175.841011
6.806478 10.067963 -175.842377
6.702818 10.088878 -175.843743
6.599158 10.109793 -175.845109
6.495498 10.130708 -175.846475
6.391837 10.151623 -175.847841
6.288177 10.172539 -175.849207
6.184517 10.193454 -175.850573
6.067013 10.113417 -175.854362
5.963352 10.134332 -175.855728
5.859692 10.155247 -175.857094
5.756032 10.176162 -175.858460
5.638528 10.096126 -175.862249
5.534867 10.117041 -175.863615
5.431207 10.137956 -175.864981
5.313703 10.057919 -175.868770
5.210043 10.078834 -175.870136
5.106383 10.099749 -175.871502
4.961189 9.817809 -175.880138
4.843685 9.737772 -175.883927
4.726180 9.657735 -175.887716
4.636365 9.779602 -175.886659
4.532704 9.800517 -175.888025
4.429044 9.821432 -175.889391
4.325384 9.842348 -175.890757
4.221724 9.863263 -175.892123
4.118064 9.884178 -175.893489
4.014404 9.905093 -175.894855
3.896899 9.825056 -175.898644
3.793239 9.845971 -175.900010
3.675734 9.765934 -175.903799
3.572074 9.786850 -175.905165
3.454570 9.706813 -175.908955
3.350910 9.727728 -175.910321
3.233405 9.647691 -175.914110
3.115901 9.567654 -175.917899
3.012241 9.588570 -175.919265
2.894736 9.508533 -175.923054
2.777232 9.428496 -175.926843
2.673571 9.449411 -175.928209
2.556067 9.369374 -175.931998
2.438562 9.289338 -175.935787
2.321058 9.209301 -175.939577
2.217398 9.230216 -175.940943
2.099893 9.150179 -175.944732
1.996233 9.171094 -175.946098
1.892573 9.192009 -175.947464
1.775068 9.111973 -175.951253
1.671408 9.132888 -175.952619
1.567748 9.153803 -175.953985
1.450244 9.073766 -175.957774
1.277362 8.589922 -175.971256
8.660005 9.488548 -175.880515
8.521289 9.549180 -175.879458
8.382573 9.609812 -175.878401
8.243856 9.670444 -175.877344
8.143626 9.636727 -175.878710
8.004910 9.697359 -175.877653
7.866194 9.757991 -175.876595
7.688991 9.912973 -175.873115
7.473302 10.162303 -175.867212
7.334586 10.222935 -175.866155
7.234356 10.189218 -175.867521
7.095640 10.249850 -175.866464
6.956923 10.310482 -175.865406
6.818207 10.371114 -175.864349
6.717977 10.337397 -175.865715
6.579261 10.398030 -175.864658
6.479031 10.364313 -175.866024
6.378801 10.330596 -175.867390
6.278571 10.296879 -175.868756
6.178341 10.263162 -175.870122
6.039625 10.323794 -175.869065
5.939395 10.290077 -175.870431
5.800679 10.350709 -175.869374
5.700449 10.316992 -175.870740
5.561732 10.377624 -175.869683
5.423016 10.438256 -175.868626
5.322786 10.404539 -175.869992
5.184070 10.465171 -175.868935
5.083840 10.431454 -175.870301
4.983610 10.397737 -175.871667
4.883380 10.364020 -175.873033
4.783150 10.330303 -175.874399
4.682920 10.296586 -175.875765
4.582690 10.262869 -175.877131
4.482460 10.229152 -175.878497
4.382230 10.195435 -175.879863
4.282000 10.161718 -175.881229
4.181771 10.128001 -175.882595
4.081541 10.094284 -175.883961
3.981311 10.060567 -175.885327
3.881081 10.026850 -175.886693
3.742364 10.087482 -175.885636
3.642135 10.053765 -175.887002
3.541905 10.020048 -175.888368
3.403188 10.080680 -175.887311
3.302958 10.046963 -175.888677
3.202729 10.013246 -175.890043
3.102499 9.979529 -175.891409
3.002269 9.945812 -175.892775
2.902039 9.912095 -175.894141
2.801809 9.878378 -175.895507
2.701579 9.844661 -175.896873
2.601349 9.810944 -175.898239
2.501119 9.777227 -175.899605
2.400889 9.743510 -175.900971
2.300659 9.709793 -175.902337
2.200429 9.676076 -175.903703
2.100199 9.642359 -175.905069
1.999969 9.608642 -175.906435
1.899740 9.574925 -175.907801
1.799510 9.541208 -175.909167
1.699280 9.507491 -175.910533
1.637536 9.379425 -175.914322
1.537306 9.345708 -175.915688
1.437076 9.311991 -175.917054
1.375333 9.183925 -175.920843
1.275103 9.150208 -175.922209
1.174873 9.116491 -175.923576
1.113129 8.988425 -175.927365
1.012899 8.954708 -175.928731
0.912669 8.920991 -175.930097
0.812440 8.887274 -175.931463
0.712210 8.853557 -175.932829
0.611980 8.819840 -175.934195
0.511750 8.786123 -175.935561
0.411520 8.752406 -175.936927
0.311290 8.718689 -175.938293
0.211060 8.684972 -175.939659
0.110830 8.651255 -175.941025
0.010600 8.617538 -175.942391
-0.089630 8.583821 -175.943757
-0.151373 8.455755 -175.947546
-0.251603 8.422038 -175.948912
-0.351833 8.388321 -175.950278
-0.413577 8.260255 -175.954067
-0.513807 8.226538 -175.955433
-0.575550 8.098472 -175.959222
2.312145 10.353220 -175.933124
2.161697 10.336371 -175.932066
1.850240 10.444453 -175.926163
1.699792 10.427604 -175.925106
1.549344 10.410755 -175.924049
1.479401 10.331440 -175.925415
1.328953 10.314591 -175.924358
1.259010 10.235276 -175.925724
1.189067 10.155962 -175.927090
1.038619 10.139112 -175.926033
0.968676 10.059798 -175.927399
0.898733 9.980483 -175.928765
0.828790 9.901168 -175.930131
0.678342 9.884319 -175.929074
0.608399 9.805005 -175.930440
0.538456 9.725690 -175.931806
0.388008 9.708841 -175.930749
0.318065 9.629526 -175.932115
0.248121 9.550211 -175.933481
0.097674 9.533362 -175.932424
0.027730 9.454048 -175.933790
-0.042213 9.374733 -175.935156
-0.192661 9.357884 -175.934098
-0.262604 9.278569 -175.935464
-0.332547 9.199254 -175.936830
-0.402490 9.119940 -175.938196
-0.472433 9.040625 -175.939563
-0.542376 8.961310 -175.940929
-0.612320 8.881996 -175.942295
-0.682263 8.802681 -175.943661
-0.752206 8.723366 -175.945027
-0.822149 8.644051 -175.946393
-0.972597 8.627202 -175.945335
-1.042540 8.547888 -175.946702
-1.112483 8.468573 -175.948068
-1.182426 8.389258 -175.949434
-1.252370 8.309944 -175.950800
-1.322313 8.230629 -175.952166
-1.392256 8.151314 -175.953532
-1.542704 8.134465 -175.952474
-1.612647 8.055150 -175.953840
-1.763095 8.038301 -175.952783
-1.833038 7.958987 -175.954149
-1.902981 7.879672 -175.955515
-1.972924 7.800357 -175.956881
-2.042867 7.721043 -175.958247
-2.112810 7.641728 -175.959613
-2.182754 7.562413 -175.960979
-2.252697 7.483098 -175.962345
-2.322640 7.403784 -175.963712
-2.392583 7.324469 -175.965078
-2.462526 7.245154 -175.966444
-2.532469 7.165840 -175.967810
-2.521908 7.024059 -175.971599
-2.591851 6.944745 -175.972965
-2.661794 6.865430 -175.974331
-2.731737 6.786115 -175.975697
-2.801680 6.706801 -175.977063
-2.871624 6.627486 -175.978429
-2.941567 6.548171 -175.979795
-2.931005 6.406391 -175.983584
-3.000948 6.327076 -175.984950
-3.070892 6.247762 -175.986316
-3.140835 6.168447 -175.987682
-3.210778 6.089132 -175.989048
-3.280721 6.009818 -175.990414
-3.350664 5.930503 -175.991780
-3.420607 5.851188 -175.993146
-3.490551 5.771874 -175.994512
-3.479989 5.630093 -175.998301
-3.549932 5.550779 -175.999667
-3.619875 5.471464 -176.001033
-3.609314 5.329684 -176.004822
-3.679257 5.250369 -176.006188
-3.668695 5.108589 -176.009978
-3.738639 5.029274 -176.011344
-3.808582 4.949960 -176.012710
-3.798020 4.808179 -176.016499
-3.787459 4.666399 -176.020288
-2.607565 7.274773 -175.995294
-2.830384 7.198802 -175.991814
-2.952251 7.108986 -175.990757
-3.074118 7.019170 -175.989700
-3.095033 6.915510 -175.991066
-3.216900 6.825694 -175.990009
-3.237816 6.722034 -175.991375
-3.359683 6.632218 -175.990318
-3.380598 6.528558 -175.991684
-3.401513 6.424898 -175.993050
-3.523380 6.335082 -175.991993
-3.544295 6.231422 -175.993359
-3.565210 6.127761 -175.994725
-3.687077 6.037946 -175.993668
-3.707992 5.934285 -175.995034
-3.728908 5.830625 -175.996400
-3.749823 5.726965 -175.997766
-3.770738 5.623305 -175.999132
-3.791653 5.519645 -176.000498
-3.913520 5.429829 -175.999441
-3.934435 5.326169 -176.000807
-4.056302 5.236353 -175.999749
-4.077217 5.132693 -176.001115
-4.199084 5.042877 -176.000058
-4.219999 4.939217 -176.001424
-4.341866 4.849401 -176.000367
-4.362782 4.745741 -176.001733
-4.383697 4.642081 -176.003099
-4.404612 4.538420 -176.004465
-4.425527 4.434760 -176.005831
-4.446442 4.331100 -176.007197
-4.568309 4.241284 -176.006140
-4.589224 4.137624 -176.007506
-4.711091 4.047808 -176.006449
-4.832958 3.957993 -176.005392
-4.954825 3.868177 -176.004335
-4.975741 3.764517 -176.005701
-5.097608 3.674701 -176.004644
-5.219475 3.584885 -176.003587
-5.240390 3.481225 -176.004953
-5.362257 3.391409 -176.003896
-5.383172 3.287749 -176.005262
-5.404087 3.184089 -176.006628
-5.425002 3.080428 -176.007994
-5.445917 2.976768 -176.009360
-5.466832 2.873108 -176.010726
-5.487748 2.769448 -176.012092
-5.508663 2.665788 -176.013458
-5.630530 2.575972 -176.012401
-5.752397 2.486156 -176.011344
-5.773312 2.382496 -176.012710
-5.794227 2.278836 -176.014076
-5.815142 2.175176 -176.015442
-5.836057 2.071515 -176.016808
-5.856972 1.967855 -176.018174
-5.877888 1.864195 -176.019540
-5.898803 1.760535 -176.020906
-5.919718 1.656875 -176.022272
-5.940633 1.553215 -176.023638
-5.860596 1.435710 -176.027427
-5.881511 1.332050 -176.028793
-5.801475 1.214546 -176.032582
-5.721438 1.097041 -176.036371
-5.641401 0.979537 -176.040160
-5.662316 0.875876 -176.041526
-5.784183 0.786061 -176.040469
-5.906050 0.696245 -176.039412
-5.926965 0.592585 -176.040778
-5.947880 0.488924 -176.042144
-5.968796 0.385264 -176.043510
-5.989711 0.281604 -176.044876
-5.909674 0.164100 -176.048665
-5.930589 0.060439 -176.050031
-5.951504 -0.043221 -176.051397
-5.972419 -0.146881 -176.052763
-5.993335 -0.250541 -176.054129
-5.913298 -0.368046 -176.057918
-5.934213 -0.471706 -176.059284
-5.955128 -0.575366 -176.060651
-5.875091 -0.692870 -176.064440
-5.896006 -0.796530 -176.065806
-5.715018 -0.927879 -176.072018
-5.634981 -1.045384 -176.075807
-5.655896 -1.149044 -176.077173
-5.575859 -1.266548 -176.080962
-5.596774 -1.370209 -176.082328
-5.516738 -1.487713 -176.086117
-5.436701 -1.605218 -176.089907
-5.356664 -1.722722 -176.093696
-5.276627 -1.840227 -176.097485
-5.297542 -1.943887 -176.098851
-5.217506 -2.061391 -176.102640
-5.238421 -2.165051 -176.104006
-5.259336 -2.268711 -176.105372
-5.179299 -2.386216 -176.109161
-5.200214 -2.489876 -176.110527
-5.221129 -2.593536 -176.111893
-5.141093 -2.711041 -176.115682
-6.777877 1.558910 -175.986137
-6.838509 1.420194 -175.985080
-6.804792 1.319964 -175.986446
-6.771075 1.219734 -175.987812
-6.831707 1.081017 -175.986755
-6.797990 0.980788 -175.988121
-6.764273 0.880558 -175.989487
-6.730556 0.780328 -175.990853
-6.696839 0.680098 -175.992219
-6.663122 0.579868 -175.993585
-6.629405 0.479638 -175.994951
-6.595688 0.379408 -175.996317
-6.561971 0.279178 -175.997683
-6.528254 0.178948 -175.999049
-6.588886 0.040232 -175.997992
-6.555169 -0.059998 -175.999358
-6.521452 -0.160228 -176.000724
-6.487735 -0.260458 -176.002090
-6.454018 -0.360688 -176.003456
-6.514650 -0.499404 -176.002399
-6.480933 -0.599634 -176.003765
-6.447216 -0.699864 -176.005131
-6.413499 -0.800094 -176.006497
-6.379782 -0.900324 -176.007863
-6.346065 -1.000554 -176.009229
-6.312348 -1.100784 -176.010595
-6.278631 -1.201014 -176.011961
-6.244914 -1.301244 -176.013327
-6.211197 -1.401473 -176.014693
-6.177480 -1.501703 -176.016059
-6.238112 -1.640420 -176.015002
-6.204395 -1.740650 -176.016368
-6.170678 -1.840879 -176.017734
-6.136961 -1.941109 -176.019100
-6.103244 -2.041339 -176.020466
-6.069527 -2.141569 -176.021832
-6.035810 -2.241799 -176.023198
-6.002093 -2.342029 -176.024564
-5.968376 -2.442259 -176.025930
-5.840310 -2.504003 -176.029720
-5.806593 -2.604233 -176.031086
-5.772876 -2.704462 -176.032452
-5.739159 -2.804692 -176.033818
-5.705442 -2.904922 -176.035184
-5.671725 -3.005152 -176.036550
-5.543659 -3.066896 -176.040339
-5.509942 -3.167126 -176.041705
-5.476225 -3.267356 -176.043071
-5.442508 -3.367586 -176.044437
-5.408791 -3.467815 -176.045803
-5.375074 -3.568045 -176.047169
-5.341357 -3.668275 -176.048535
-5.307640 -3.768505 -176.049901
-5.179574 -3.830249 -176.053690
-5.145857 -3.930479 -176.055056
-5.112140 -4.030709 -176.056422
-5.078423 -4.130939 -176.057788
-5.044706 -4.231168 -176.059154
-4.916640 -4.292912 -176.062943
-4.882923 -4.393142 -176.064309
-4.754857 -4.454885 -176.068098
-4.721140 -4.555115 -176.069464
-4.687423 -4.655345 -176.070830
-4.559356 -4.717089 -176.074620
-4.525639 -4.817319 -176.075986
-4.491922 -4.917549 -176.077352
-4.458205 -5.017779 -176.078718
-4.330139 -5.079522 -176.082507
-4.296422 -5.179752 -176.083873
-4.262705 -5.279982 -176.085239
-4.228988 -5.380212 -176.086605
-4.100922 -5.441955 -176.090394
-4.067205 -5.542185 -176.091760
-4.033488 -5.642415 -176.093126
-3.999771 -5.742645 -176.094492
-3.871705 -5.804389 -176.098281
-3.837988 -5.904619 -176.099647
-3.709922 -5.966362 -176.103436
-3.676205 -6.066592 -176.104802
-3.642488 -6.166822 -176.106168
-3.608771 -6.267052 -176.107534
-3.575054 -6.367282 -176.108900
-3.541337 -6.467512 -176.110266
-3.413271 -6.529255 -176.114056
-3.379554 -6.629485 -176.115422
-3.345837 -6.729715 -176.116788
-3.312120 -6.829945 -176.118154
-3.184054 -6.891689 -176.121943
-3.150337 -6.991919 -176.123309
-3.116620 -7.092149 -176.124675
-3.082903 -7.192379 -176.126041
-3.049186 -7.292608 -176.127407
-2.921120 -7.354352 -176.131196
-2.887403 -7.454582 -176.132562
-2.853686 -7.554812 -176.133928
-2.725620 -7.616555 -176.137717
-2.691903 -7.716785 -176.139083
-2.563836 -7.778529 -176.142872
-2.530119 -7.878759 -176.144238
-2.496402 -7.978989 -176.145604
-2.462685 -8.079219 -176.146970
-2.334619 -8.140962 -176.150759
-2.112204 -8.164219 -176.156972
-1.984138 -8.225963 -176.160761
-1.950421 -8.326193 -176.162127
-1.916704 -8.426423 -176.163493
-1.882987 -8.526653 -176.164859
-1.849270 -8.626883 -176.166225
-1.815553 -8.727112 -176.167591
-1.687487 -8.788856 -176.171380
-1.653770 -8.889086 -176.172746
-1.525704 -8.950830 -176.176535
-1.491987 -9.051059 -176.177901
-1.363921 -9.112803 -176.181690
-1.330204 -9.213033 -176.183056
-1.296487 -9.313263 -176.184422
-1.168421 -9.375006 -176.188212
-1.134704 -9.475236 -176.189578
-1.100987 -9.575466 -176.190944
-1.067270 -9.675696 -176.192310
-0.939203 -9.737440 -176.196099
-0.811137 -9.799183 -176.199888
-6.846525 -0.915802 -175.992171
-6.829676 -1.066250 -175.991114
-6.812827 -1.216697 -175.990057
-6.733512 -1.286641 -175.991423
-6.716663 -1.437088 -175.990366
-6.637348 -1.507032 -175.991732
-6.558033 -1.576975 -175.993098
-6.478719 -1.646918 -175.994464
-6.461870 -1.797366 -175.993407
-6.382555 -1.867309 -175.994773
-6.428171 -2.098261 -175.991293
-6.411322 -2.248709 -175.990235
-6.394473 -2.399157 -175.989178
-6.315158 -2.469100 -175.990544
-6.235844 -2.539043 -175.991910
-6.218995 -2.689491 -175.990853
-6.139680 -2.759434 -175.992219
-6.122831 -2.909882 -175.991162
-6.043516 -2.979825 -175.992528
-6.026667 -3.130273 -175.991471
-6.009818 -3.280721 -175.990414
-5.930503 -3.350664 -175.991780
-5.913654 -3.501112 -175.990723
-5.834339 -3.571055 -175.992089
-5.755025 -3.640998 -175.993455
-5.675710 -3.710942 -175.994821
-5.658861 -3.861389 -175.993764
-5.579546 -3.931333 -175.995130
-5.500231 -4.001276 -175.996496
-5.483382 -4.151724 -175.995439
-5.404067 -4.221667 -175.996805
-5.387218 -4.372115 -175.995748
-5.370369 -4.522562 -175.994691
-5.291055 -4.592506 -175.996057
-5.211740 -4.662449 -175.997423
-5.132425 -4.732392 -175.998789
-5.053110 -4.802335 -176.000155
-4.973796 -4.872278 -176.001521
-4.894481 -4.942221 -176.002887
-4.877632 -5.092669 -176.001830
-4.798317 -5.162612 -176.003196
-4.719003 -5.232555 -176.004562
-4.702153 -5.383003 -176.003504
-4.622839 -5.452946 -176.004871
-4.543524 -5.522890 -176.006237
-4.464209 -5.592833 -176.007603
-4.384895 -5.662776 -176.008969
-4.368046 -5.813224 -176.007911
-4.288731 -5.883167 -176.009277
-4.209416 -5.953110 -176.010643
-4.130101 -6.023053 -176.012010
-4.050787 -6.092996 -176.013376
-3.971472 -6.162940 -176.014742
-3.954623 -6.313387 -176.013684
-3.875308 -6.383331 -176.015050
-3.795994 -6.453274 -176.016416
-3.716679 -6.523217 -176.017782
-3.637364 -6.593160 -176.019148
-3.558050 -6.663103 -176.020515
-3.478735 -6.733046 -176.021881
-3.461886 -6.883494 -176.020823
-3.382571 -6.953437 -176.022189
-3.303256 -7.023380 -176.023555
-3.223942 -7.093324 -176.024921
-3.207092 -7.243771 -176.023864
-3.127778 -7.313715 -176.025230
-2.985998 -7.303153 -176.029020
-2.906683 -7.373096 -176.030386
-2.827368 -7.443039 -176.031752
-2.810519 -7.593487 -176.030694
-2.731204 -7.663430 -176.032060
-2.714355 -7.813878 -176.031003
-2.635041 -7.883821 -176.032369
-2.618191 -8.034269 -176.031312
-2.538877 -8.104212 -176.032678
-2.459562 -8.174156 -176.034044
-2.442713 -8.324603 -176.032987
-2.363398 -8.394547 -176.034353
-2.284084 -8.464490 -176.035719
-2.204769 -8.534433 -176.037085
-2.125454 -8.604376 -176.038451
-2.046139 -8.674319 -176.039817
-2.029290 -8.824767 -176.038760
-1.949976 -8.894710 -176.040126
-1.870661 -8.964653 -176.041492
-1.791346 -9.034597 -176.042858
-1.712032 -9.104540 -176.044224
-1.632717 -9.174483 -176.045590
-1.615868 -9.324931 -176.044533
-1.536553 -9.394874 -176.045899
-1.457238 -9.464817 -176.047265
-1.377924 -9.534760 -176.048631
-1.298609 -9.604703 -176.049997
-1.219294 -9.674646 -176.051363
-1.139980 -9.744590 -176.052729
-1.060665 -9.814533 -176.054095
-0.981350 -9.884476 -176.055461
-0.902036 -9.954419 -176.056827
-0.822721 -10.024362 -176.058193
-0.743406 -10.094305 -176.059559
-0.664092 -10.164249 -176.060925
-0.647242 -10.314696 -176.059868
-0.567928 -10.384640 -176.061234
-0.488613 -10.454583 -176.062600
-0.409298 -10.524526 -176.063966
-0.329984 -10.594469 -176.065332
-0.250669 -10.664412 -176.066698
-0.171354 -10.734355 -176.068064
-0.092040 -10.804299 -176.069430
-0.012725 -10.874242 -176.070796
0.066590 -10.944185 -176.072162
0.145904 -11.014128 -176.073528
0.225219 -11.084071 -176.074894
0.304534 -11.154014 -176.076260
0.383849 -11.223957 -176.077626
0.463163 -11.293901 -176.078992
0.542478 -11.363844 -176.080358
0.621793 -11.433787 -176.081724
0.701107 -11.503730 -176.083090
0.780422 -11.573673 -176.084456
0.859737 -11.643616 -176.085823
0.939051 -11.713560 -176.087189
1.018366 -11.783503 -176.088555
1.160146 -11.772941 -176.092344
1.239461 -11.842884 -176.093710
1.318776 -11.912827 -176.095076
1.398090 -11.982771 -176.096442
1.477405 -12.052714 -176.097808
1.556720 -12.122657 -176.099174
1.698500 -12.112095 -176.102963
1.777815 -12.182039 -176.104329
1.857129 -12.251982 -176.105695
1.936444 -12.321925 -176.107061
2.015759 -12.391868 -176.108427
2.095073 -12.461811 -176.109793
2.236854 -12.451250 -176.113582
2.316168 -12.521193 -176.114948
2.395483 -12.591136 -176.116314
2.537263 -12.580574 -176.120103
2.616578 -12.650518 -176.121469
2.758358 -12.639956 -176.125258
2.837673 -12.709899 -176.126624
2.979453 -12.699338 -176.130414
3.121233 -12.688776 -176.134203
3.200548 -12.758719 -176.135569
3.342328 -12.748158 -176.139358
3.421643 -12.818101 -176.140724
3.563423 -12.807539 -176.144513
3.705203 -12.796978 -176.148302
3.909449 -12.705912 -176.154514
4.113695 -12.614846 -176.160727
4.317941 -12.523779 -176.166939
0.207974 -10.964517 -175.946015
0.311634 -10.985432 -175.947381
0.415295 -11.006347 -175.948748
0.518955 -11.027263 -175.950114
0.608771 -11.149130 -175.949056
0.698586 -11.270997 -175.947999
0.788402 -11.392864 -175.946942
0.878218 -11.514731 -175.945885
0.968034 -11.636598 -175.944828
1.071694 -11.657513 -175.946194
1.161510 -11.779380 -175.945137
1.265170 -11.800295 -175.946503
1.354986 -11.922162 -175.945446
1.458646 -11.943077 -175.946812
1.548462 -12.064944 -175.945755
1.652122 -12.085859 -175.947121
1.755782 -12.106775 -175.948487
1.859442 -12.127690 -175.949853
1.949258 -12.249557 -175.948796
2.052918 -12.270472 -175.950162
2.142734 -12.392339 -175.949105
2.246394 -12.413254 -175.950471
2.336210 -12.535121 -175.949413
2.439870 -12.556036 -175.950779
2.543531 -12.576951 -175.952146
2.647191 -12.597866 -175.953512
2.737006 -12.719733 -175.952454
2.840667 -12.740649 -175.953820
2.944327 -12.761564 -175.955186
3.047987 -12.782479 -175.956552
3.151647 -12.803394 -175.957918
3.241463 -12.925261 -175.956861
3.345123 -12.946176 -175.958227
3.448783 -12.967091 -175.959593
3.552443 -12.988006 -175.960959
3.656104 -13.008922 -175.962325
3.759764 -13.029837 -175.963691
3.863424 -13.050752 -175.965057
3.967084 -13.071667 -175.966423
4.070744 -13.092582 -175.967789
4.174404 -13.113497 -175.969156
4.278065 -13.134412 -175.970522
4.381725 -13.155327 -175.971888
4.485385 -13.176243 -175.973254
4.589045 -13.197158 -175.974620
4.692705 -13.218073 -175.975986
4.796365 -13.238988 -175.977352
4.900026 -13.259903 -175.978718
5.017530 -13.179866 -175.982507
5.121190 -13.200781 -175.983873
5.224850 -13.221697 -175.985239
5.328510 -13.242612 -175.986605
5.446015 -13.162575 -175.990394
5.549675 -13.183490 -175.991760
5.653335 -13.204405 -175.993126
5.770840 -13.124368 -175.996915
5.888344 -13.044332 -176.000704
6.005849 -12.964295 -176.004493
6.123353 -12.884258 -176.008283
6.227013 -12.905173 -176.009649
6.344518 -12.825136 -176.013438
6.462022 -12.745100 -176.017227
6.593371 -12.564111 -176.023439
6.710876 -12.484074 -176.027228
6.828380 -12.404037 -176.031017
6.945885 -12.324001 -176.034807
7.063389 -12.243964 -176.038596
7.180894 -12.163927 -176.042385
7.298398 -12.083890 -176.046174
7.415903 -12.003854 -176.049963
7.574940 -11.620961 -176.061022
7.692445 -11.540924 -176.064811
7.823793 -11.359936 -176.071023
7.941298 -11.279899 -176.074812
8.058802 -11.199862 -176.078601
8.176307 -11.119825 -176.082390
8.293811 -11.039788 -176.086180
8.397471 -11.060704 -176.087546
8.528820 -10.879715 -176.093758
8.646325 -10.799678 -176.097547
8.763829 -10.719641 -176.101336
8.867489 -10.740556 -176.102702
8.984994 -10.660520 -176.106491
9.102498 -10.580483 -176.110280
9.220003 -10.500446 -176.114070
9.337507 -10.420409 -176.117859
9.441168 -10.441324 -176.119225
9.558672 -10.361288 -176.123014
9.662332 -10.382203 -176.124380
9.779837 -10.302166 -176.128169
9.911185 -10.121177 -176.134381
10.028690 -10.041140 -176.138170
10.146194 -9.961104 -176.141960
10.249855 -9.982019 -176.143326
10.353515 -10.002934 -176.144692
10.471019 -9.922897 -176.148481
10.588524 -9.842860 -176.152270
10.706028 -9.762824 -176.156059
10.823533 -9.682787 -176.159848
10.941037 -9.602750 -176.163637
11.058542 -9.522713 -176.167426
11.176046 -9.442676 -176.171216
11.293551 -9.362640 -176.175005
11.480277 -8.777843 -176.190909
11.583937 -8.798758 -176.192275
11.701441 -8.718722 -176.196065
11.832790 -8.537733 -176.202277
11.950295 -8.457696 -176.206066
12.053955 -8.478611 -176.207432
12.171459 -8.398575 -176.211221
12.288964 -8.318538 -176.215010
12.406468 -8.238501 -176.218799
-0.628036 -9.898199 -175.904499
-0.450833 -10.053180 -175.901019
-0.312117 -10.113812 -175.899962
-0.211887 -10.080095 -175.901328
-0.073170 -10.140728 -175.900271
0.219491 -10.578756 -175.889521
0.396694 -10.733737 -175.886041
0.535410 -10.794369 -175.884984
0.828072 -11.232398 -175.874234
0.966788 -11.293030 -175.873177
1.105505 -11.353662 -175.872120
1.244221 -11.414294 -175.871063
1.344451 -11.380577 -175.872429
1.675599 -11.912955 -175.859256
1.814315 -11.973587 -175.858199
1.953032 -12.034219 -175.857142
2.091748 -12.094851 -175.856085
2.230464 -12.155484 -175.855028
2.407667 -12.310465 -175.851548
2.584870 -12.465446 -175.848068
2.723586 -12.526078 -175.847010
2.862302 -12.586710 -175.845953
3.001019 -12.647342 -175.844896
3.139735 -12.707974 -175.843839
3.278451 -12.768607 -175.842782
3.378681 -12.734890 -175.844148
3.517397 -12.795522 -175.843091
3.656114 -12.856154 -175.842034
3.794830 -12.916786 -175.840977
3.933546 -12.977418 -175.839920
4.072263 -13.038050 -175.838862
4.172492 -13.004333 -175.840228
4.311209 -13.064965 -175.839171
4.411439 -13.031248 -175.840537
4.511669 -12.997531 -175.841903
4.650385 -13.058163 -175.840846
4.750615 -13.024446 -175.842212
4.889331 -13.085078 -175.841155
4.989561 -13.051361 -175.842521
5.089791 -13.017644 -175.843887
5.228507 -13.078277 -175.842830
5.328737 -13.044560 -175.844196
5.428967 -13.010843 -175.845562
5.567683 -13.071475 -175.844505
5.667913 -13.037758 -175.845871
5.768143 -13.004041 -175.847237
5.868373 -12.970324 -175.848603
5.968603 -12.936607 -175.849969
6.107319 -12.997239 -175.848912
6.207549 -12.963522 -175.850278
6.307779 -12.929805 -175.851644
6.446496 -12.990437 -175.850587
6.546725 -12.956720 -175.851953
6.646955 -12.923003 -175.853319
6.747185 -12.889286 -175.854685
6.847415 -12.855569 -175.856051
6.947645 -12.821852 -175.857417
7.009389 -12.693786 -175.861206
7.071132 -12.565720 -175.864995
7.171362 -12.532003 -175.866361
7.271592 -12.498286 -175.867727
7.333336 -12.370220 -175.871516
7.433566 -12.336503 -175.872882
7.533796 -12.302786 -175.874248
7.634025 -12.269069 -175.875614
7.695769 -12.141002 -175.879404
7.795999 -12.107285 -175.880770
7.896229 -12.073568 -175.882136
7.957972 -11.945502 -175.885925
8.058202 -11.911785 -175.887291
8.119946 -11.783719 -175.891080
8.220176 -11.750002 -175.892446
8.320406 -11.716285 -175.893812
8.382149 -11.588219 -175.897601
8.482379 -11.554502 -175.898967
8.582609 -11.520785 -175.900333
8.682839 -11.487068 -175.901699
8.744583 -11.359002 -175.905488
8.844812 -11.325285 -175.906854
8.945042 -11.291568 -175.908220
9.006786 -11.163502 -175.912009
9.107016 -11.129785 -175.913376
9.168759 -11.001719 -175.917165
9.268989 -10.968002 -175.918531
9.369219 -10.934285 -175.919897
9.430963 -10.806219 -175.923686
9.531193 -10.772502 -175.925052
9.631423 -10.738785 -175.926418
9.731653 -10.705068 -175.927784
9.831882 -10.671351 -175.929150
9.932112 -10.637634 -175.930516
10.032342 -10.603917 -175.931882
10.132572 -10.570200 -175.933248
10.232802 -10.536483 -175.934614
10.333032 -10.502766 -175.935980
10.433262 -10.469049 -175.937346
10.533492 -10.435332 -175.938712
10.633722 -10.401615 -175.940078
10.733952 -10.367898 -175.941444
10.834182 -10.334181 -175.942810
10.934412 -10.300464 -175.944176
10.996155 -10.172398 -175.947965
11.096385 -10.138681 -175.949331
11.196615 -10.104964 -175.950697
11.258359 -9.976897 -175.954486
11.358589 -9.943180 -175.955852
11.458818 -9.909463 -175.957218
11.559048 -9.875746 -175.958584
11.659278 -9.842029 -175.959950
11.759508 -9.808312 -175.961316
11.859738 -9.774595 -175.962682
11.959968 -9.740878 -175.964048
12.021712 -9.612812 -175.967838
12.121942 -9.579095 -175.969204
12.222171 -9.545378 -175.970570
12.322401 -9.511661 -175.971936
12.384145 -9.383595 -175.975725
12.484375 -9.349878 -175.977091
12.546118 -9.221812 -175.980880
12.646348 -9.188095 -175.982246
12.708092 -9.060029 -175.986035
12.808322 -9.026312 -175.987401
12.870065 -8.898246 -175.991190
12.970295 -8.864529 -175.992556
13.070525 -8.830812 -175.993922
13.170755 -8.797095 -175.995288
13.270985 -8.763378 -175.996654
13.371215 -8.729661 -175.998020
13.432958 -8.601595 -176.001810
13.533188 -8.567878 -176.003176
13.633418 -8.534161 -176.004542
13.695162 -8.406095 -176.008331
13.795392 -8.372378 -176.009697
13.895622 -8.338661 -176.011063
13.995852 -8.304944 -176.012429
14.096082 -8.271227 -176.013795
14.196311 -8.237510 -176.015161
14.296541 -8.203793 -176.016527
14.396771 -8.170076 -176.017893
14.458515 -8.042010 -176.021682
14.558745 -8.008293 -176.023048
14.620488 -7.880226 -176.026837
14.682232 -7.752160 -176.030626
14.705489 -7.529745 -176.036838
14.574801 -6.929933 -176.052743
14.636544 -6.801867 -176.056532
14.659801 -6.579452 -176.062745
