ply
format ascii 1.0
element vertex 1443
property float x
property float y
property float z
element face 0
property list uchar uint vertex_indices
end_header
3.997504 -12.577325 -172.812633
4.147952 -12.560475 -172.811576
4.298399 -12.543626 -172.810519
4.448847 -12.526777 -172.809462
4.679800 -12.572394 -172.805982
5.071762 -12.742941 -172.797655
5.302714 -12.788557 -172.794175
5.533667 -12.834174 -172.790695
5.684115 -12.817325 -172.789638
5.834562 -12.800476 -172.788581
5.985010 -12.783626 -172.787524
6.135458 -12.766777 -172.786466
6.366411 -12.812394 -172.782986
6.436354 -12.733079 -172.784352
6.586802 -12.716230 -172.783295
6.656745 -12.636915 -172.784661
6.726688 -12.557600 -172.786027
6.877136 -12.540751 -172.784970
6.947079 -12.461437 -172.786336
7.097527 -12.444587 -172.785279
7.167470 -12.365273 -172.786645
7.237413 -12.285958 -172.788011
7.387861 -12.269109 -172.786954
7.457804 -12.189794 -172.788320
7.608252 -12.172945 -172.787263
7.678195 -12.093630 -172.788629
7.828643 -12.076781 -172.787572
7.898586 -11.997467 -172.788938
7.968529 -11.918152 -172.790304
8.118977 -11.901303 -172.789247
8.188920 -11.821988 -172.790613
8.339368 -11.805139 -172.789555
8.409311 -11.725824 -172.790922
8.479254 -11.646510 -172.792288
8.629702 -11.629660 -172.791230
8.699645 -11.550346 -172.792596
8.769589 -11.471031 -172.793962
8.759027 -11.329251 -172.797752
8.828970 -11.249936 -172.799118
8.898913 -11.170621 -172.800484
8.968857 -11.091307 -172.801850
9.038800 -11.011992 -172.803216
9.189248 -10.995143 -172.802159
9.259191 -10.915828 -172.803525
9.409639 -10.898979 -172.802467
9.479582 -10.819664 -172.803833
9.549525 -10.740350 -172.805199
9.619468 -10.661035 -172.806565
9.689411 -10.581720 -172.807932
9.759354 -10.502406 -172.809298
9.829297 -10.423091 -172.810664
9.899241 -10.343776 -172.812030
10.049688 -10.326927 -172.810972
10.119632 -10.247612 -172.812338
10.270079 -10.230763 -172.811281
10.340023 -10.151449 -172.812647
10.409966 -10.072134 -172.814013
10.560414 -10.055285 -172.812956
10.710861 -10.038436 -172.811899
10.780805 -9.959121 -172.813265
10.931252 -9.942272 -172.812208
11.081700 -9.925423 -172.811151
11.232148 -9.908574 -172.810094
11.382596 -9.891724 -172.809037
11.452539 -9.812410 -172.810403
11.602987 -9.795561 -172.809346
11.672930 -9.716246 -172.810712
11.742873 -9.636931 -172.812078
11.893321 -9.620082 -172.811021
11.963264 -9.540767 -172.812387
12.033207 -9.461453 -172.813753
12.103151 -9.382138 -172.815119
12.173094 -9.302823 -172.816485
12.243037 -9.223509 -172.817851
12.312980 -9.144194 -172.819217
12.463428 -9.127345 -172.818160
12.533371 -9.048030 -172.819526
12.603314 -8.968715 -172.820892
12.753762 -8.951866 -172.819835
12.823705 -8.872552 -172.821201
12.893648 -8.793237 -172.822567
13.044096 -8.776388 -172.821509
13.114039 -8.697073 -172.822875
13.183983 -8.617758 -172.824241
13.253926 -8.538444 -172.825607
13.323869 -8.459129 -172.826973
13.313307 -8.317349 -172.830763
13.383250 -8.238034 -172.832129
13.453194 -8.158719 -172.833495
13.523137 -8.079405 -172.834861
13.673585 -8.062556 -172.833804
13.743528 -7.983241 -172.835170
13.813471 -7.903926 -172.836536
13.963919 -7.887077 -172.835478
14.033862 -7.807762 -172.836845
14.103805 -7.728448 -172.838211
14.173748 -7.649133 -172.839577
14.243691 -7.569818 -172.840943
14.313635 -7.490504 -172.842309
14.464082 -7.473654 -172.841251
14.534026 -7.394340 -172.842617
14.684473 -7.377491 -172.841560
14.754417 -7.298176 -172.842926
14.824360 -7.218861 -172.844292
14.813798 -7.077081 -172.848082
14.803237 -6.935301 -172.851871
14.712170 -6.731055 -172.858083
14.701609 -6.589275 -172.861872
14.691047 -6.447495 -172.865661
14.680486 -6.305714 -172.869450
14.589420 -6.101469 -172.875663
14.578858 -5.959688 -172.879452
14.568297 -5.817908 -172.883241
14.396726 -5.551197 -172.891876
14.064145 -5.159554 -172.905358
13.973079 -4.955309 -172.911570
13.640499 -4.563666 -172.925052
13.549433 -4.359421 -172.931264
13.458367 -4.155175 -172.937476
7.218740 -12.700918 -172.800552
7.340607 -12.611102 -172.799495
7.361522 -12.507442 -172.800861
7.483389 -12.417626 -172.799804
7.504304 -12.313966 -172.801170
7.626171 -12.224150 -172.800113
7.949942 -12.162023 -172.794209
7.970857 -12.058363 -172.795575
8.092724 -11.968547 -172.794518
8.113639 -11.864887 -172.795884
8.134554 -11.761227 -172.797250
8.256421 -11.671411 -172.796193
8.277336 -11.567751 -172.797559
8.399203 -11.477935 -172.796502
8.420119 -11.374275 -172.797868
8.541986 -11.284459 -172.796811
8.562901 -11.180799 -172.798177
8.684768 -11.090983 -172.797120
8.705683 -10.987323 -172.798486
8.928502 -10.911351 -172.795006
9.050369 -10.821536 -172.793948
9.273188 -10.745564 -172.790468
9.798863 -10.711126 -172.779719
9.819778 -10.607465 -172.781085
9.941645 -10.517650 -172.780027
10.063512 -10.427834 -172.778970
10.185379 -10.338018 -172.777913
10.307246 -10.248202 -172.776856
10.429113 -10.158386 -172.775799
10.550980 -10.068570 -172.774742
10.672847 -9.978755 -172.773685
10.794714 -9.888939 -172.772628
11.017533 -9.812967 -172.769147
11.341304 -9.750840 -172.763244
11.564123 -9.674869 -172.759764
11.786942 -9.598897 -172.756284
11.908809 -9.509081 -172.755227
12.030676 -9.419265 -172.754169
12.152543 -9.329450 -172.753112
12.274410 -9.239634 -172.752055
12.295325 -9.135974 -172.753421
12.417192 -9.046158 -172.752364
12.438107 -8.942498 -172.753730
12.660926 -8.866526 -172.750250
12.782793 -8.776710 -172.749193
12.904660 -8.686894 -172.748136
13.026527 -8.597079 -172.747079
13.148394 -8.507263 -172.746022
13.371213 -8.431291 -172.742541
13.392129 -8.327631 -172.743907
13.513996 -8.237815 -172.742850
13.534911 -8.134155 -172.744216
13.555826 -8.030495 -172.745582
13.677693 -7.940679 -172.744525
13.799560 -7.850863 -172.743468
13.921427 -7.761047 -172.742411
13.942342 -7.657387 -172.743777
14.064209 -7.567571 -172.742720
14.085124 -7.463911 -172.744086
14.206991 -7.374095 -172.743029
14.530762 -7.311968 -172.737125
14.652629 -7.222152 -172.736068
14.774496 -7.132337 -172.735011
14.795411 -7.028676 -172.736377
14.917278 -6.938861 -172.735320
14.938194 -6.835200 -172.736686
14.959109 -6.731540 -172.738052
14.879072 -6.614036 -172.741841
14.899987 -6.510376 -172.743207
14.920902 -6.406715 -172.744573
14.941817 -6.303055 -172.745939
14.962732 -6.199395 -172.747305
14.983648 -6.095735 -172.748671
14.903611 -5.978231 -172.752460
14.924526 -5.874570 -172.753826
14.844489 -5.757066 -172.757616
14.865404 -5.653406 -172.758982
14.785368 -5.535901 -172.762771
14.705331 -5.418397 -172.766560
14.625294 -5.300892 -172.770349
14.545257 -5.183388 -172.774138
14.566172 -5.079728 -172.775504
14.486136 -4.962223 -172.779293
14.406099 -4.844719 -172.783082
14.326062 -4.727214 -172.786872
14.346977 -4.623554 -172.788238
14.266940 -4.506050 -172.792027
14.186904 -4.388545 -172.795816
14.106867 -4.271041 -172.799605
14.026830 -4.153536 -172.803394
14.047745 -4.049876 -172.804760
13.967708 -3.932371 -172.808549
13.887672 -3.814867 -172.812338
13.807635 -3.697362 -172.816128
13.727598 -3.579858 -172.819917
13.647561 -3.462353 -172.823706
13.567524 -3.344849 -172.827495
13.487488 -3.227344 -172.831284
13.407451 -3.109840 -172.835073
13.428366 -3.006180 -172.836439
13.348329 -2.888675 -172.840228
13.268292 -2.771171 -172.844018
13.188256 -2.653666 -172.847807
13.108219 -2.536162 -172.851596
13.028182 -2.418657 -172.855385
12.948145 -2.301153 -172.859174
12.868108 -2.183648 -172.862963
12.788072 -2.066144 -172.866752
12.708035 -1.948639 -172.870542
12.627998 -1.831135 -172.874331
12.648913 -1.727475 -172.875697
12.568876 -1.609970 -172.879486
12.488840 -1.492466 -172.883275
12.509755 -1.388806 -172.884641
12.530670 -1.285146 -172.886007
12.450633 -1.167641 -172.889796
12.471548 -1.063981 -172.891162
12.391512 -0.946476 -172.894951
12.412427 -0.842816 -172.896317
12.433342 -0.739156 -172.897683
12.353305 -0.621652 -172.901473
12.374220 -0.517991 -172.902839
12.294183 -0.400487 -172.906628
12.214147 -0.282982 -172.910417
12.235062 -0.179322 -172.911783
12.155025 -0.061818 -172.915572
12.175940 0.041842 -172.916938
12.196855 0.145503 -172.918304
12.217770 0.249163 -172.919670
12.137734 0.366667 -172.923459
12.158649 0.470327 -172.924825
12.179564 0.573987 -172.926191
12.200479 0.677648 -172.927557
12.120442 0.795152 -172.931346
12.141357 0.898812 -172.932712
12.162272 1.002472 -172.934078
12.082236 1.119977 -172.937868
12.103151 1.223637 -172.939234
12.124066 1.327297 -172.940600
12.044029 1.444802 -172.944389
12.064944 1.548462 -172.945755
11.984907 1.665966 -172.949544
11.904871 1.783471 -172.953333
11.925786 1.887131 -172.954699
11.845749 2.004636 -172.958488
11.866664 2.108296 -172.959854
11.786627 2.225800 -172.963643
11.807543 2.329460 -172.965009
11.828458 2.433120 -172.966375
11.849373 2.536781 -172.967741
11.769336 2.654285 -172.971530
11.790251 2.757945 -172.972897
11.811166 2.861605 -172.974263
11.731129 2.979110 -172.978052
11.752045 3.082770 -172.979418
11.672008 3.200275 -172.983207
11.692923 3.303935 -172.984573
11.713838 3.407595 -172.985939
11.734753 3.511255 -172.987305
11.654716 3.628760 -172.991094
11.675632 3.732420 -172.992460
11.696547 3.836080 -172.993826
11.616510 3.953584 -172.997615
11.637425 4.057245 -172.998981
11.658340 4.160905 -173.000347
11.679255 4.264565 -173.001713
11.599219 4.382069 -173.005502
11.620134 4.485729 -173.006868
11.641049 4.589390 -173.008234
11.561012 4.706894 -173.012024
11.581927 4.810554 -173.013390
11.602842 4.914214 -173.014756
11.623757 5.017875 -173.016122
11.644673 5.121535 -173.017488
11.564636 5.239039 -173.021277
11.585551 5.342699 -173.022643
11.606466 5.446360 -173.024009
11.526429 5.563864 -173.027798
11.547344 5.667524 -173.029164
11.063500 5.840406 -173.042646
10.983463 5.957910 -173.046435
10.903426 6.075415 -173.050224
10.823390 6.192919 -173.054013
10.743353 6.310424 -173.057802
10.360460 6.469461 -173.068861
10.280424 6.586966 -173.072650
10.200387 6.704470 -173.076439
15.190013 -6.790229 -172.732087
15.250646 -6.651512 -172.731029
15.216929 -6.551283 -172.732395
15.277561 -6.412566 -172.731338
15.243844 -6.312336 -172.732704
15.210127 -6.212106 -172.734070
15.176410 -6.111876 -172.735436
15.237042 -5.973160 -172.734379
15.203325 -5.872930 -172.735745
15.169608 -5.772700 -172.737111
15.230240 -5.633984 -172.736054
15.196523 -5.533754 -172.737420
15.162806 -5.433524 -172.738786
15.129089 -5.333294 -172.740152
15.095372 -5.233064 -172.741518
15.061655 -5.132834 -172.742884
15.027938 -5.032604 -172.744250
14.994221 -4.932375 -172.745616
15.054853 -4.793658 -172.744559
15.021136 -4.693428 -172.745925
14.987419 -4.593198 -172.747291
14.953702 -4.492968 -172.748657
14.919985 -4.392739 -172.750023
14.886268 -4.292509 -172.751389
14.758202 -4.230765 -172.755178
14.630136 -4.169022 -172.758968
14.502070 -4.107278 -172.762757
14.468353 -4.007048 -172.764123
14.340287 -3.945305 -172.767912
14.306570 -3.845075 -172.769278
14.272853 -3.744845 -172.770644
14.239136 -3.644615 -172.772010
14.205419 -3.544385 -172.773376
14.077352 -3.482641 -172.777165
14.043635 -3.382411 -172.778531
14.009918 -3.282181 -172.779897
13.976201 -3.181952 -172.781263
13.942484 -3.081722 -172.782629
13.814418 -3.019978 -172.786418
13.780701 -2.919748 -172.787784
13.746984 -2.819518 -172.789150
13.713267 -2.719288 -172.790516
13.679550 -2.619058 -172.791882
13.645833 -2.518828 -172.793248
13.612116 -2.418599 -172.794614
13.484050 -2.356855 -172.798404
13.450333 -2.256625 -172.799770
13.416616 -2.156395 -172.801136
13.382899 -2.056165 -172.802502
13.349182 -1.955935 -172.803868
13.315465 -1.855705 -172.805234
13.281748 -1.755475 -172.806600
13.248031 -1.655246 -172.807966
13.214314 -1.555016 -172.809332
13.180597 -1.454786 -172.810698
13.241229 -1.316069 -172.809641
13.207512 -1.215839 -172.811007
13.173795 -1.115610 -172.812373
13.140078 -1.015380 -172.813739
13.012012 -0.953636 -172.817528
12.978295 -0.853406 -172.818894
12.944578 -0.753176 -172.820260
12.910861 -0.652946 -172.821626
12.971493 -0.514230 -172.820569
12.937776 -0.414000 -172.821935
12.904059 -0.313770 -172.823301
12.870342 -0.213540 -172.824667
12.836625 -0.113310 -172.826033
12.802908 -0.013080 -172.827399
12.769191 0.087150 -172.828765
12.735474 0.187379 -172.830131
12.701757 0.287609 -172.831497
12.668040 0.387839 -172.832863
12.539974 0.449583 -172.836652
12.506257 0.549813 -172.838018
12.472540 0.650043 -172.839384
12.438823 0.750273 -172.840750
12.405106 0.850503 -172.842116
12.371389 0.950732 -172.843482
12.337672 1.050962 -172.844848
12.303955 1.151192 -172.846214
12.364587 1.289909 -172.845157
12.330870 1.390139 -172.846523
12.297153 1.490368 -172.847889
12.263436 1.590598 -172.849255
12.229719 1.690828 -172.850621
12.196002 1.791058 -172.851987
12.256635 1.929775 -172.850930
12.222918 2.030004 -172.852296
12.189201 2.130234 -172.853662
12.155484 2.230464 -172.855028
12.216116 2.369181 -172.853971
12.182399 2.469411 -172.855337
12.148682 2.569640 -172.856703
12.114965 2.669870 -172.858069
12.081248 2.770100 -172.859435
12.141880 2.908817 -172.858378
12.108163 3.009047 -172.859744
12.074446 3.109276 -172.861110
12.040729 3.209506 -172.862476
12.007012 3.309736 -172.863842
12.067644 3.448453 -172.862785
12.033927 3.548683 -172.864151
12.000210 3.648912 -172.865517
11.966493 3.749142 -172.866883
11.932776 3.849372 -172.868249
11.899059 3.949602 -172.869615
11.865342 4.049832 -172.870981
11.925974 4.188548 -172.869924
11.892257 4.288778 -172.871290
11.952889 4.427495 -172.870233
11.919172 4.527725 -172.871599
11.885455 4.627954 -172.872965
11.851738 4.728184 -172.874331
11.818021 4.828414 -172.875697
11.784304 4.928644 -172.877063
11.750587 5.028874 -172.878429
11.716870 5.129104 -172.879795
11.683153 5.229334 -172.881161
11.649436 5.329564 -172.882527
11.615719 5.429794 -172.883893
11.582002 5.530024 -172.885259
11.548285 5.630254 -172.886625
11.608917 5.768970 -172.885568
11.575200 5.869200 -172.886934
11.541483 5.969430 -172.888300
11.507766 6.069660 -172.889666
11.474049 6.169890 -172.891032
11.440332 6.270120 -172.892398
11.312266 6.331863 -172.896187
11.278549 6.432093 -172.897553
11.244832 6.532323 -172.898919
11.211115 6.632553 -172.900285
11.083049 6.694296 -172.904074
11.049332 6.794526 -172.905440
10.921266 6.856270 -172.909229
10.887549 6.956500 -172.910595
10.759483 7.018243 -172.914384
10.725766 7.118473 -172.915751
10.597700 7.180217 -172.919540
10.563983 7.280447 -172.920906
10.435917 7.342190 -172.924695
10.307850 7.403934 -172.928484
10.274133 7.504164 -172.929850
10.051718 7.527421 -172.936062
9.829303 7.550678 -172.942274
9.795586 7.650908 -172.943640
9.667520 7.712652 -172.947430
9.633803 7.812882 -172.948796
9.505737 7.874625 -172.952585
9.377671 7.936369 -172.956374
9.249605 7.998112 -172.960163
9.121538 8.059856 -172.963952
8.993472 8.121599 -172.967741
8.771057 8.144856 -172.973954
8.642991 8.206600 -172.977743
8.514925 8.268344 -172.981532
8.386859 8.330087 -172.985321
8.258793 8.391831 -172.989110
8.225076 8.492061 -172.990476
8.097010 8.553804 -172.994265
7.497198 8.423116 -173.010170
7.369132 8.484859 -173.013959
7.052367 8.469630 -173.022595
12.760619 0.446146 -172.843159
12.743769 0.596594 -172.842102
12.726920 0.747042 -172.841045
12.710071 0.897490 -172.839988
12.630756 0.967433 -172.841354
12.613907 1.117881 -172.840297
12.534592 1.187824 -172.841663
12.455277 1.257767 -172.843029
12.438428 1.408215 -172.841972
12.359113 1.478158 -172.843338
12.279798 1.548101 -172.844704
12.262949 1.698549 -172.843647
12.246100 1.848997 -172.842589
12.291716 2.079950 -172.839109
12.274867 2.230398 -172.838052
12.195552 2.300341 -172.839418
12.178703 2.450789 -172.838361
12.161854 2.601237 -172.837304
12.082539 2.671180 -172.838670
12.003224 2.741123 -172.840036
11.923909 2.811066 -172.841402
11.844594 2.881010 -172.842768
11.765280 2.950953 -172.844134
11.873361 3.262410 -172.838231
11.856512 3.412858 -172.837173
11.839663 3.563306 -172.836116
11.947745 3.874764 -172.830213
11.930896 4.025212 -172.829156
11.914046 4.175660 -172.828099
11.897197 4.326107 -172.827042
11.817882 4.396051 -172.828408
11.801033 4.546499 -172.827351
11.721718 4.616442 -172.828717
11.829800 4.927899 -172.822813
11.812951 5.078347 -172.821756
11.796101 5.228795 -172.820699
11.716787 5.298738 -172.822065
11.699937 5.449186 -172.821008
11.620623 5.519129 -172.822374
11.603773 5.669577 -172.821317
11.586924 5.820025 -172.820260
11.570075 5.970473 -172.819203
11.490760 6.040416 -172.820569
11.473911 6.190864 -172.819512
11.457062 6.341312 -172.818454
11.377747 6.411255 -172.819820
11.360898 6.561703 -172.818763
11.281583 6.631647 -172.820129
11.264733 6.782095 -172.819072
11.247884 6.932542 -172.818015
11.168569 7.002486 -172.819381
11.151720 7.152934 -172.818324
11.134871 7.303382 -172.817267
11.055556 7.373325 -172.818633
11.038707 7.523773 -172.817576
10.959392 7.593716 -172.818942
10.942543 7.744164 -172.817885
10.863228 7.814107 -172.819251
10.783913 7.884050 -172.820617
10.642133 7.873488 -172.824406
10.562818 7.943432 -172.825772
10.421038 7.932870 -172.829561
10.341723 8.002813 -172.830927
10.199943 7.992251 -172.834716
10.120628 8.062195 -172.836082
9.978848 8.051633 -172.839871
9.899533 8.121576 -172.841237
9.820218 8.191519 -172.842603
9.740903 8.261462 -172.843969
9.661588 8.331406 -172.845335
9.582274 8.401349 -172.846701
9.440493 8.390787 -172.850491
9.361178 8.460730 -172.851857
9.281864 8.530674 -172.853223
9.140083 8.520112 -172.857012
9.060769 8.590055 -172.858378
8.981454 8.659998 -172.859744
8.839673 8.649437 -172.863533
8.760359 8.719380 -172.864899
8.681044 8.789323 -172.866265
8.539264 8.778761 -172.870054
8.459949 8.848704 -172.871420
8.380634 8.918648 -172.872786
8.301319 8.988591 -172.874152
8.159539 8.978029 -172.877941
8.080224 9.047972 -172.879307
7.938444 9.037411 -172.883096
7.859129 9.107354 -172.884463
7.717349 9.096792 -172.888252
7.450637 8.925221 -172.896887
7.308857 8.914659 -172.900676
7.229542 8.984603 -172.902042
7.150227 9.054546 -172.903408
7.070913 9.124489 -172.904774
6.929132 9.113927 -172.908563
6.849817 9.183870 -172.909929
6.770503 9.253814 -172.911295
6.628722 9.243252 -172.915085
6.549407 9.313195 -172.916451
6.470093 9.383138 -172.917817
6.328312 9.372577 -172.921606
6.186532 9.362015 -172.925395
6.044752 9.351453 -172.929184
5.902971 9.340892 -172.932973
5.761191 9.330330 -172.936762
5.619411 9.319768 -172.940551
5.415165 9.228702 -172.946764
5.273385 9.218140 -172.950553
5.131604 9.207579 -172.954342
4.989824 9.197017 -172.958131
4.848044 9.186456 -172.961920
4.643798 9.095389 -172.968133
4.377086 8.923818 -172.976768
4.235306 8.913256 -172.980557
4.093526 8.902695 -172.984346
3.951745 8.892133 -172.988135
3.435172 8.398543 -173.006463
3.355857 8.468486 -173.007829
3.214077 8.457924 -173.011618
3.072296 8.447363 -173.015407
10.973134 7.048622 -172.834524
10.911007 7.372393 -172.828620
10.835035 7.595212 -172.825140
10.759064 7.818031 -172.821660
10.669248 7.939898 -172.820603
10.579432 8.061765 -172.819546
10.475772 8.082680 -172.820912
10.372112 8.103595 -172.822278
10.268452 8.124510 -172.823644
10.178636 8.246377 -172.822587
10.074976 8.267293 -172.823953
9.985160 8.389160 -172.822896
9.881500 8.410075 -172.824262
9.777840 8.430990 -172.825628
9.688024 8.552857 -172.824570
9.584364 8.573772 -172.825936
9.494548 8.695639 -172.824879
9.390888 8.716554 -172.826245
9.301072 8.838421 -172.825188
9.197412 8.859336 -172.826554
9.093751 8.880251 -172.827920
8.990091 8.901167 -172.829286
8.886431 8.922082 -172.830652
8.782771 8.942997 -172.832018
8.692955 9.064864 -172.830961
8.589295 9.085779 -172.832327
8.499479 9.207646 -172.831270
8.395819 9.228561 -172.832636
8.306003 9.350428 -172.831579
8.202343 9.371343 -172.832945
8.098683 9.392259 -172.834311
7.995023 9.413174 -172.835677
7.905207 9.535041 -172.834620
7.801547 9.555956 -172.835986
7.697886 9.576871 -172.837352
7.594226 9.597786 -172.838718
7.490566 9.618701 -172.840084
7.386906 9.639616 -172.841450
7.283246 9.660531 -172.842816
7.179586 9.681447 -172.844182
7.075926 9.702362 -172.845548
6.958421 9.622325 -172.849337
6.854761 9.643240 -172.850703
6.751101 9.664155 -172.852069
6.647441 9.685070 -172.853435
6.557625 9.806937 -172.852378
6.453965 9.827853 -172.853744
6.350304 9.848768 -172.855110
6.232800 9.768731 -172.858899
6.129140 9.789646 -172.860265
6.025480 9.810561 -172.861631
5.921819 9.831476 -172.862997
5.818159 9.852391 -172.864363
5.714499 9.873307 -172.865729
5.596995 9.793270 -172.869519
5.493334 9.814185 -172.870885
5.375830 9.734148 -172.874674
5.272170 9.755063 -172.876040
5.154665 9.675026 -172.879829
5.051005 9.695942 -172.881195
4.947345 9.716857 -172.882561
4.843685 9.737772 -172.883927
4.740025 9.758687 -172.885293
4.636365 9.779602 -172.886659
4.518860 9.699565 -172.890448
4.415200 9.720480 -172.891814
4.311540 9.741396 -172.893180
4.194035 9.661359 -172.896969
4.090375 9.682274 -172.898335
3.972871 9.602237 -172.902124
3.869210 9.623152 -172.903490
3.751706 9.543116 -172.907280
3.648046 9.564031 -172.908646
3.530541 9.483994 -172.912435
3.385348 9.202053 -172.921070
3.281688 9.222968 -172.922436
3.178028 9.243884 -172.923802
3.074368 9.264799 -172.925168
2.956863 9.184762 -172.928957
2.853203 9.205677 -172.930323
2.735699 9.125640 -172.934112
2.632038 9.146555 -172.935479
2.514534 9.066519 -172.939268
2.410874 9.087434 -172.940634
2.293369 9.007397 -172.944423
2.189709 9.028312 -172.945789
2.072205 8.948275 -172.949578
1.954700 8.868238 -172.953367
1.837196 8.788202 -172.957156
1.719691 8.708165 -172.960945
1.602187 8.628128 -172.964735
1.484682 8.548091 -172.968524
1.381022 8.569006 -172.969890
1.263518 8.488970 -172.973679
1.146013 8.408933 -172.977468
0.973131 7.925088 -172.990950
0.869471 7.946004 -172.992316
0.751967 7.865967 -172.996105
0.648306 7.886882 -172.997471
0.544646 7.907797 -172.998837
0.440986 7.928712 -173.000203
0.323482 7.848675 -173.003992
8.829180 8.794387 -172.898843
8.536518 9.232416 -172.888093
8.397802 9.293048 -172.887036
8.297572 9.259331 -172.888402
8.197342 9.225614 -172.889768
8.058626 9.286246 -172.888711
7.958396 9.252529 -172.890077
7.781193 9.407510 -172.886597
7.642477 9.468142 -172.885540
7.503760 9.528774 -172.884483
7.172612 10.061152 -172.871310
7.072382 10.027435 -172.872676
6.933666 10.088067 -172.871619
6.833436 10.054350 -172.872985
6.694720 10.114982 -172.871928
6.594490 10.081265 -172.873294
6.494260 10.047548 -172.874660
6.355544 10.108180 -172.873603
6.255314 10.074463 -172.874969
6.155084 10.040746 -172.876335
6.054854 10.007029 -172.877701
5.916138 10.067661 -172.876644
5.815908 10.033944 -172.878010
5.677191 10.094577 -172.876952
5.576962 10.060860 -172.878318
5.476732 10.027143 -172.879684
5.376502 9.993426 -172.881050
5.237785 10.054058 -172.879993
5.137555 10.020341 -172.881359
5.037326 9.986624 -172.882725
4.937096 9.952907 -172.884091
4.836866 9.919190 -172.885457
4.736636 9.885473 -172.886823
4.636406 9.851756 -172.888189
4.536176 9.818039 -172.889555
4.435946 9.784322 -172.890922
4.335716 9.750605 -172.892288
4.197000 9.811237 -172.891230
4.096770 9.777520 -172.892596
3.958054 9.838152 -172.891539
3.857824 9.804435 -172.892905
3.757594 9.770718 -172.894271
3.657364 9.737001 -172.895637
3.557134 9.703284 -172.897003
3.456904 9.669567 -172.898369
3.356674 9.635850 -172.899735
3.256444 9.602133 -172.901101
3.156214 9.568416 -172.902467
3.055984 9.534699 -172.903833
2.955754 9.500982 -172.905199
2.855524 9.467265 -172.906566
2.755294 9.433548 -172.907932
2.655065 9.399831 -172.909298
2.554835 9.366114 -172.910664
2.454605 9.332397 -172.912030
2.354375 9.298680 -172.913396
2.254145 9.264963 -172.914762
2.153915 9.231246 -172.916128
2.053685 9.197529 -172.917494
1.953455 9.163812 -172.918860
1.853225 9.130095 -172.920226
1.752995 9.096378 -172.921592
1.652765 9.062661 -172.922958
1.552535 9.028944 -172.924324
1.452305 8.995227 -172.925690
1.352076 8.961510 -172.927056
1.251846 8.927793 -172.928422
1.190102 8.799727 -172.932211
1.089872 8.766010 -172.933577
0.989642 8.732293 -172.934943
0.889412 8.698576 -172.936309
0.789182 8.664859 -172.937675
0.727439 8.536793 -172.941464
0.627209 8.503076 -172.942830
0.526979 8.469359 -172.944196
0.426749 8.435642 -172.945562
0.326519 8.401925 -172.946928
0.264776 8.273859 -172.950717
0.164546 8.240142 -172.952083
0.064316 8.206425 -172.953449
0.002572 8.078358 -172.957238
-0.097658 8.044641 -172.958604
-0.159401 7.916575 -172.962394
-0.221145 7.788509 -172.966183
-0.282888 7.660443 -172.969972
-0.383118 7.626726 -172.971338
3.466908 10.125138 -172.950525
3.316460 10.108289 -172.949468
3.166012 10.091440 -172.948411
3.015564 10.074591 -172.947353
2.945621 9.995276 -172.948719
2.795173 9.978427 -172.947662
2.725230 9.899112 -172.949028
2.574782 9.882263 -172.947971
2.504839 9.802949 -172.949337
2.354391 9.786099 -172.948280
2.203943 9.769250 -172.947223
1.892486 9.877332 -172.941320
1.742038 9.860483 -172.940263
1.591590 9.843634 -172.939205
1.521647 9.764319 -172.940571
1.451704 9.685004 -172.941937
1.381761 9.605690 -172.943304
1.231313 9.588841 -172.942246
1.161370 9.509526 -172.943612
1.091427 9.430211 -172.944978
0.940979 9.413362 -172.943921
0.871036 9.334047 -172.945287
0.720588 9.317198 -172.944230
0.650645 9.237884 -172.945596
0.500197 9.221034 -172.944539
0.188740 9.329116 -172.938636
0.118797 9.249802 -172.940002
-0.031651 9.232953 -172.938945
-0.101594 9.153638 -172.940311
-0.171538 9.074323 -172.941677
-0.321985 9.057474 -172.940620
-0.391929 8.978159 -172.941986
-0.461872 8.898845 -172.943352
-0.531815 8.819530 -172.944718
-0.601758 8.740215 -172.946084
-0.671701 8.660901 -172.947450
-0.741644 8.581586 -172.948816
-0.892092 8.564737 -172.947759
-0.962035 8.485422 -172.949125
-1.031979 8.406107 -172.950491
-1.101922 8.326793 -172.951857
-1.171865 8.247478 -172.953223
-1.241808 8.168163 -172.954589
-1.311751 8.088849 -172.955955
-1.381694 8.009534 -172.957321
-1.451637 7.930219 -172.958687
-1.521581 7.850905 -172.960053
-1.672028 7.834055 -172.958996
-1.741972 7.754741 -172.960362
-1.811915 7.675426 -172.961728
-1.881858 7.596111 -172.963094
-1.951801 7.516797 -172.964460
-2.021744 7.437482 -172.965826
-2.091687 7.358167 -172.967192
-2.161631 7.278853 -172.968558
-2.231574 7.199538 -172.969924
-2.301517 7.120223 -172.971290
-2.371460 7.040909 -172.972656
-2.441403 6.961594 -172.974022
-2.511346 6.882279 -172.975388
-2.581289 6.802965 -172.976754
-2.570728 6.661184 -172.980543
-2.640671 6.581870 -172.981909
-2.710614 6.502555 -172.983275
-2.780557 6.423240 -172.984641
-2.850501 6.343926 -172.986007
-2.920444 6.264611 -172.987373
-2.990387 6.185296 -172.988739
-3.060330 6.105982 -172.990105
-3.130273 6.026667 -172.991471
-3.200216 5.947352 -172.992837
-3.189655 5.805572 -172.996626
-3.259598 5.726257 -172.997992
-3.329541 5.646943 -172.999358
-3.399484 5.567628 -173.000724
-3.388923 5.425848 -173.004513
-3.458866 5.346533 -173.005879
-3.528809 5.267218 -173.007245
-3.598752 5.187904 -173.008612
-3.588191 5.046123 -173.012401
-3.658134 4.966809 -173.013767
-3.728077 4.887494 -173.015133
-3.717516 4.745714 -173.018922
-3.787459 4.666399 -173.020288
-3.857402 4.587084 -173.021654
-3.846840 4.445304 -173.025443
-3.916783 4.365989 -173.026809
-3.986727 4.286675 -173.028175
-4.056670 4.207360 -173.029541
-4.046108 4.065580 -173.033330
-4.116051 3.986265 -173.034696
-4.185995 3.906951 -173.036062
-4.175433 3.765170 -173.039851
-4.245376 3.685856 -173.041217
-4.315319 3.606541 -173.042583
-3.443343 6.217577 -172.995782
-3.464258 6.113917 -172.997148
-3.586125 6.024101 -172.996091
-3.607040 5.920441 -172.997457
-3.627956 5.816781 -172.998823
-3.648871 5.713121 -173.000189
-3.770738 5.623305 -172.999132
-3.791653 5.519645 -173.000498
-3.913520 5.429829 -172.999441
-3.934435 5.326169 -173.000807
-3.955350 5.222509 -173.002173
-3.976265 5.118848 -173.003539
-3.997180 5.015188 -173.004905
-4.018096 4.911528 -173.006271
-4.039011 4.807868 -173.007637
-4.160878 4.718052 -173.006580
-4.181793 4.614392 -173.007946
-4.202708 4.510732 -173.009312
-4.324575 4.420916 -173.008254
-4.446442 4.331100 -173.007197
-4.467357 4.227440 -173.008563
-4.589224 4.137624 -173.007506
-4.610139 4.033964 -173.008872
-4.631055 3.930304 -173.010238
-4.651970 3.826644 -173.011604
-4.773837 3.736828 -173.010547
-4.794752 3.633168 -173.011913
-4.815667 3.529508 -173.013279
-4.937534 3.439692 -173.012222
-4.958449 3.336032 -173.013588
-4.979364 3.232371 -173.014954
-5.000279 3.128711 -173.016320
-5.021195 3.025051 -173.017686
-5.042110 2.921391 -173.019052
-5.163977 2.831575 -173.017995
-5.184892 2.727915 -173.019361
-5.205807 2.624255 -173.020727
-5.327674 2.534439 -173.019670
-5.348589 2.430779 -173.021036
-5.470456 2.340963 -173.019979
-5.491371 2.237303 -173.021345
-5.512286 2.133643 -173.022711
-5.533202 2.029982 -173.024077
-5.554117 1.926322 -173.025443
-5.575032 1.822662 -173.026809
-5.494995 1.705158 -173.030598
-5.414958 1.587653 -173.034387
-5.435873 1.483993 -173.035753
-5.456789 1.380333 -173.037119
-5.477704 1.276673 -173.038485
-5.397667 1.159168 -173.042274
-5.418582 1.055508 -173.043640
-5.439497 0.951848 -173.045007
-5.561364 0.862032 -173.043949
-5.582279 0.758372 -173.045315
-5.603194 0.654712 -173.046681
-5.725062 0.564896 -173.045624
-5.745977 0.461236 -173.046990
-5.665940 0.343731 -173.050779
-5.686855 0.240071 -173.052146
-5.707770 0.136411 -173.053512
-5.728685 0.032751 -173.054878
-5.749600 -0.070909 -173.056244
-5.669564 -0.188414 -173.060033
-5.690479 -0.292074 -173.061399
-5.711394 -0.395734 -173.062765
-5.631357 -0.513239 -173.066554
-5.652272 -0.616899 -173.067920
-5.572235 -0.734403 -173.071709
-5.492199 -0.851908 -173.075498
-5.513114 -0.955568 -173.076864
-5.534029 -1.059228 -173.078230
-5.554944 -1.162888 -173.079596
-5.575859 -1.266548 -173.080962
-5.596774 -1.370209 -173.082328
-5.516738 -1.487713 -173.086117
-5.537653 -1.591373 -173.087483
-5.457616 -1.708878 -173.091273
-5.377579 -1.826382 -173.095062
-5.297542 -1.943887 -173.098851
-5.318457 -2.047547 -173.100217
-5.238421 -2.165051 -173.104006
-5.259336 -2.268711 -173.105372
-5.179299 -2.386216 -173.109161
-5.200214 -2.489876 -173.110527
-5.120177 -2.607381 -173.114316
-5.141093 -2.711041 -173.115682
-5.162008 -2.814701 -173.117048
-5.081971 -2.932205 -173.120837
-5.102886 -3.035866 -173.122203
-6.501339 0.417894 -172.998740
-6.467622 0.317664 -173.000107
-6.528254 0.178948 -172.999049
-6.494537 0.078718 -173.000415
-6.460820 -0.021512 -173.001781
-6.427103 -0.121742 -173.003147
-6.393386 -0.221972 -173.004513
-6.359669 -0.322201 -173.005879
-6.325952 -0.422431 -173.007245
-6.292235 -0.522661 -173.008612
-6.258518 -0.622891 -173.009978
-6.224801 -0.723121 -173.011344
-6.285433 -0.861837 -173.010286
-6.251716 -0.962067 -173.011652
-6.217999 -1.062297 -173.013018
-6.184282 -1.162527 -173.014384
-6.150565 -1.262757 -173.015751
-6.116848 -1.362987 -173.017117
-6.083131 -1.463217 -173.018483
-6.049414 -1.563447 -173.019849
-6.015697 -1.663677 -173.021215
-5.981980 -1.763907 -173.022581
-5.948263 -1.864137 -173.023947
-5.914546 -1.964367 -173.025313
-5.880829 -2.064597 -173.026679
-5.847112 -2.164826 -173.028045
-5.813395 -2.265056 -173.029411
-5.779678 -2.365286 -173.030777
-5.745961 -2.465516 -173.032143
-5.712244 -2.565746 -173.033509
-5.678527 -2.665976 -173.034875
-5.644810 -2.766206 -173.036241
-5.611093 -2.866436 -173.037607
-5.483027 -2.928179 -173.041396
-5.449310 -3.028409 -173.042762
-5.415593 -3.128639 -173.044128
-5.381876 -3.228869 -173.045494
-5.348159 -3.329099 -173.046860
-5.314442 -3.429329 -173.048226
-5.280725 -3.529559 -173.049592
-5.247008 -3.629789 -173.050958
-5.213291 -3.730019 -173.052324
-5.179574 -3.830249 -173.053690
-5.145857 -3.930479 -173.055056
-5.112140 -4.030709 -173.056422
-4.984074 -4.092452 -173.060211
-4.950357 -4.192682 -173.061577
-4.916640 -4.292912 -173.062943
-4.882923 -4.393142 -173.064309
-4.849206 -4.493372 -173.065675
-4.815489 -4.593602 -173.067041
-4.781772 -4.693832 -173.068407
-4.748055 -4.794062 -173.069773
-4.714338 -4.894292 -173.071139
-4.680621 -4.994521 -173.072505
-4.552555 -5.056265 -173.076294
-4.518838 -5.156495 -173.077661
-4.390771 -5.218238 -173.081450
-4.262705 -5.279982 -173.085239
-4.134639 -5.341726 -173.089028
-4.100922 -5.441955 -173.090394
-3.972856 -5.503699 -173.094183
-3.939139 -5.603929 -173.095549
-3.811073 -5.665672 -173.099338
-3.777356 -5.765902 -173.100704
-3.743639 -5.866132 -173.102070
-3.615573 -5.927876 -173.105859
-3.581856 -6.028106 -173.107225
-3.548139 -6.128336 -173.108591
-3.420073 -6.190079 -173.112381
-3.386356 -6.290309 -173.113747
-3.258290 -6.352053 -173.117536
-3.224573 -6.452283 -173.118902
-3.190856 -6.552513 -173.120268
-3.157139 -6.652743 -173.121634
-3.123422 -6.752972 -173.123000
-3.089705 -6.853202 -173.124366
-2.961639 -6.914946 -173.128155
-2.927922 -7.015176 -173.129521
-2.894205 -7.115406 -173.130887
-2.766138 -7.177149 -173.134676
-2.732421 -7.277379 -173.136042
-2.698704 -7.377609 -173.137408
-2.570638 -7.439353 -173.141197
-2.536921 -7.539583 -173.142563
-2.503204 -7.639813 -173.143929
-2.375138 -7.701556 -173.147718
-2.341421 -7.801786 -173.149084
-2.213355 -7.863530 -173.152874
-6.098994 -1.846186 -173.002351
-6.207076 -2.157643 -172.996448
-6.190227 -2.308091 -172.995391
-6.110913 -2.378034 -172.996757
-6.094063 -2.528482 -172.995700
-6.014749 -2.598425 -172.997066
-5.997900 -2.748873 -172.996008
-5.918585 -2.818816 -172.997374
-5.901736 -2.969264 -172.996317
-5.884887 -3.119712 -172.995260
-5.930503 -3.350664 -172.991780
-5.913654 -3.501112 -172.990723
-5.896805 -3.651560 -172.989666
-5.817490 -3.721503 -172.991032
-5.738175 -3.791446 -172.992398
-5.658861 -3.861389 -172.993764
-5.642012 -4.011837 -172.992707
-5.562697 -4.081780 -172.994073
-5.483382 -4.151724 -172.995439
-5.466533 -4.302171 -172.994382
-5.387218 -4.372115 -172.995748
-5.307904 -4.442058 -172.997114
-5.228589 -4.512001 -172.998480
-5.149274 -4.581944 -172.999846
-5.069960 -4.651887 -173.001212
-4.990645 -4.721830 -173.002578
-4.973796 -4.872278 -173.001521
-4.894481 -4.942221 -173.002887
-4.815166 -5.012164 -173.004253
-4.735852 -5.082108 -173.005619
-4.656537 -5.152051 -173.006985
-4.577222 -5.221994 -173.008351
-4.560373 -5.372442 -173.007294
-4.481059 -5.442385 -173.008660
-4.401744 -5.512328 -173.010026
-4.322429 -5.582271 -173.011392
-4.243114 -5.652214 -173.012758
-4.163800 -5.722158 -173.014124
-4.146951 -5.872605 -173.013067
-4.067636 -5.942549 -173.014433
-3.988321 -6.012492 -173.015799
-3.909007 -6.082435 -173.017165
-3.892157 -6.232883 -173.016108
-3.812843 -6.302826 -173.017474
-3.733528 -6.372769 -173.018840
-3.716679 -6.523217 -173.017782
-3.637364 -6.593160 -173.019148
-3.558050 -6.663103 -173.020515
-3.478735 -6.733046 -173.021881
-3.399420 -6.802989 -173.023247
-3.320105 -6.872933 -173.024613
-3.240791 -6.942876 -173.025979
-3.161476 -7.012819 -173.027345
-3.144627 -7.163267 -173.026287
-3.065312 -7.233210 -173.027653
-3.048463 -7.383658 -173.026596
-2.969148 -7.453601 -173.027962
-2.889834 -7.523544 -173.029328
-2.810519 -7.593487 -173.030694
-2.793670 -7.743935 -173.029637
-2.714355 -7.813878 -173.031003
-2.635041 -7.883821 -173.032369
-2.555726 -7.953765 -173.033735
-2.476411 -8.023708 -173.035101
-2.397096 -8.093651 -173.036467
-2.317782 -8.163594 -173.037833
-2.238467 -8.233537 -173.039199
-2.221618 -8.383985 -173.038142
-2.142303 -8.453928 -173.039508
-2.062989 -8.523871 -173.040874
-1.983674 -8.593815 -173.042240
-1.904359 -8.663758 -173.043606
-1.825045 -8.733701 -173.044972
-1.745730 -8.803644 -173.046338
-1.666415 -8.873587 -173.047704
-1.587100 -8.943530 -173.049070
-1.507786 -9.013473 -173.050436
-1.428471 -9.083417 -173.051802
-1.349156 -9.153360 -173.053169
-1.332307 -9.303808 -173.052111
-1.252993 -9.373751 -173.053477
-1.173678 -9.443694 -173.054843
-1.094363 -9.513637 -173.056209
-1.015049 -9.583580 -173.057575
-0.935734 -9.653523 -173.058941
-0.856419 -9.723467 -173.060307
-0.777104 -9.793410 -173.061674
-0.697790 -9.863353 -173.063040
-0.618475 -9.933296 -173.064406
-0.539160 -10.003239 -173.065772
-0.459846 -10.073182 -173.067138
-0.380531 -10.143126 -173.068504
-0.301216 -10.213069 -173.069870
-0.221902 -10.283012 -173.071236
-0.142587 -10.352955 -173.072602
-0.063272 -10.422898 -173.073968
0.016042 -10.492841 -173.075334
0.032892 -10.643289 -173.074277
0.112206 -10.713232 -173.075643
0.191521 -10.783175 -173.077009
0.270836 -10.853119 -173.078375
0.350150 -10.923062 -173.079741
0.491930 -10.912500 -173.083530
0.571245 -10.982443 -173.084896
0.650560 -11.052387 -173.086262
0.729875 -11.122330 -173.087628
0.809189 -11.192273 -173.088994
0.888504 -11.262216 -173.090360
0.967819 -11.332159 -173.091726
1.047133 -11.402102 -173.093092
1.126448 -11.472045 -173.094458
1.205763 -11.541989 -173.095824
1.347543 -11.531427 -173.099613
1.426858 -11.601370 -173.100979
1.506172 -11.671313 -173.102345
1.585487 -11.741257 -173.103711
1.664802 -11.811200 -173.105077
1.806582 -11.800638 -173.108866
1.885897 -11.870581 -173.110232
2.027677 -11.860020 -173.114021
2.106991 -11.929963 -173.115387
2.186306 -11.999906 -173.116753
2.328086 -11.989345 -173.120543
2.407401 -12.059288 -173.121909
2.486716 -12.129231 -173.123275
2.566030 -12.199174 -173.124641
2.707811 -12.188613 -173.128430
2.787125 -12.258556 -173.129796
2.928906 -12.247994 -173.133585
3.070686 -12.237433 -173.137374
3.212466 -12.226871 -173.141163
3.354246 -12.216310 -173.144952
3.496026 -12.205748 -173.148741
3.762738 -12.034177 -173.157377
3.842052 -12.104120 -173.158743
3.858902 -12.254568 -173.157686
4.000682 -12.244007 -173.161475
4.079997 -12.313950 -173.162841
4.221777 -12.303388 -173.166630
4.426023 -12.212322 -173.172842
-1.823351 -8.687250 -172.959579
-1.733536 -8.809117 -172.958522
-1.643720 -8.930984 -172.957465
-1.540060 -8.951899 -172.958831
-1.450244 -9.073766 -172.957774
-1.360428 -9.195633 -172.956717
-1.256768 -9.216548 -172.958083
-1.166952 -9.338415 -172.957026
-1.077136 -9.460282 -172.955969
-0.987320 -9.582149 -172.954912
-0.897504 -9.704016 -172.953855
-0.793844 -9.724932 -172.955221
-0.704028 -9.846799 -172.954163
-0.614213 -9.968666 -172.953106
-0.524397 -10.090533 -172.952049
-0.420737 -10.111448 -172.953415
-0.330921 -10.233315 -172.952358
-0.227261 -10.254230 -172.953724
-0.123600 -10.275145 -172.955090
-0.019940 -10.296060 -172.956456
0.083720 -10.316975 -172.957822
0.173536 -10.438842 -172.956765
0.263352 -10.560709 -172.955708
0.353167 -10.682577 -172.954651
0.442983 -10.804444 -172.953594
0.532799 -10.926311 -172.952537
0.622615 -11.048178 -172.951480
0.726275 -11.069093 -172.952846
0.816091 -11.190960 -172.951788
0.919751 -11.211875 -172.953154
1.023411 -11.232790 -172.954520
1.113227 -11.354657 -172.953463
1.216887 -11.375572 -172.954829
1.306703 -11.497439 -172.953772
1.410363 -11.518354 -172.955138
1.500179 -11.640221 -172.954081
1.589995 -11.762089 -172.953024
1.693655 -11.783004 -172.954390
1.797315 -11.803919 -172.955756
1.900975 -11.824834 -172.957122
1.990791 -11.946701 -172.956065
2.094451 -11.967616 -172.957431
2.184267 -12.089483 -172.956374
2.287927 -12.110398 -172.957740
2.391587 -12.131313 -172.959106
2.495248 -12.152229 -172.960472
2.598908 -12.173144 -172.961838
2.702568 -12.194059 -172.963204
2.806228 -12.214974 -172.964570
2.909888 -12.235889 -172.965936
3.013548 -12.256804 -172.967302
3.103364 -12.378671 -172.966245
3.207024 -12.399586 -172.967611
3.310685 -12.420501 -172.968977
3.414345 -12.441417 -172.970343
3.518005 -12.462332 -172.971709
3.621665 -12.483247 -172.973075
3.725325 -12.504162 -172.974441
3.828985 -12.525077 -172.975807
3.932646 -12.545992 -172.977173
4.036306 -12.566907 -172.978539
4.139966 -12.587823 -172.979905
4.229782 -12.709690 -172.978848
4.333442 -12.730605 -172.980214
4.437102 -12.751520 -172.981580
4.540762 -12.772435 -172.982946
4.644422 -12.793350 -172.984312
4.748083 -12.814265 -172.985678
4.851743 -12.835180 -172.987044
4.969247 -12.755144 -172.990833
5.072907 -12.776059 -172.992199
5.176567 -12.796974 -172.993565
5.294072 -12.716937 -172.997354
5.397732 -12.737852 -172.998720
5.515237 -12.657815 -173.002510
5.632741 -12.577779 -173.006299
5.750246 -12.497742 -173.010088
5.853906 -12.518657 -173.011454
5.957566 -12.539572 -173.012820
6.061226 -12.560487 -173.014186
6.178731 -12.480450 -173.017975
6.310079 -12.299462 -173.024187
6.455272 -12.017521 -173.032823
6.572777 -11.937484 -173.036612
6.690281 -11.857448 -173.040401
6.807786 -11.777411 -173.044190
6.994512 -11.192614 -173.060095
7.112017 -11.112578 -173.063884
7.215677 -11.133493 -173.065250
7.319337 -11.154408 -173.066616
7.422997 -11.175323 -173.067982
7.568190 -10.893382 -173.076617
7.699539 -10.712394 -173.082830
7.817043 -10.632357 -173.086619
7.920704 -10.653272 -173.087985
8.038208 -10.573235 -173.091774
8.155713 -10.493199 -173.095563
8.273217 -10.413162 -173.099352
8.390722 -10.333125 -173.103141
8.508226 -10.253088 -173.106931
8.611886 -10.274003 -173.108297
8.715546 -10.294918 -173.109663
8.833051 -10.214882 -173.113452
8.950555 -10.134845 -173.117241
9.068060 -10.054808 -173.121030
9.185564 -9.974771 -173.124819
9.289225 -9.995686 -173.126185
9.406729 -9.915650 -173.129974
9.510389 -9.936565 -173.131340
9.627894 -9.856528 -173.135129
9.731554 -9.877443 -173.136495
9.849058 -9.797406 -173.140285
9.952718 -9.818322 -173.141651
10.084067 -9.637333 -173.147863
10.201572 -9.557296 -173.151652
10.319076 -9.477259 -173.155441
10.436581 -9.397222 -173.159230
10.540241 -9.418138 -173.160596
10.657745 -9.338101 -173.164385
10.789094 -9.157112 -173.170598
10.920443 -8.976123 -173.176810
11.037947 -8.896087 -173.180599
11.155452 -8.816050 -173.184388
0.597154 -10.666303 -172.888773
0.735870 -10.726935 -172.887716
0.951559 -10.976266 -172.881813
1.128762 -11.131247 -172.878332
1.267478 -11.191879 -172.877275
1.406194 -11.252511 -172.876218
1.621884 -11.501842 -172.870315
1.760600 -11.562474 -172.869258
1.899316 -11.623106 -172.868201
2.076519 -11.778087 -172.864720
2.215235 -11.838719 -172.863663
2.353951 -11.899351 -172.862606
2.492668 -11.959983 -172.861549
2.669870 -12.114965 -172.858069
2.770100 -12.081248 -172.859435
2.908817 -12.141880 -172.858378
3.047533 -12.202512 -172.857321
3.147763 -12.168795 -172.858687
3.247993 -12.135078 -172.860053
3.386709 -12.195710 -172.858996
3.486939 -12.161993 -172.860362
3.587169 -12.128276 -172.861728
3.725885 -12.188908 -172.860671
3.864601 -12.249540 -172.859613
4.003318 -12.310172 -172.858556
4.142034 -12.370804 -172.857499
4.280750 -12.431437 -172.856442
4.419467 -12.492069 -172.855385
4.558183 -12.552701 -172.854328
4.658413 -12.518984 -172.855694
4.758643 -12.485267 -172.857060
4.897359 -12.545899 -172.856003
4.997589 -12.512182 -172.857369
5.136305 -12.572814 -172.856312
5.236535 -12.539097 -172.857678
5.336765 -12.505380 -172.859044
5.475481 -12.566012 -172.857987
5.575711 -12.532295 -172.859353
5.675941 -12.498578 -172.860719
5.776171 -12.464861 -172.862085
5.876401 -12.431144 -172.863451
6.015117 -12.491776 -172.862394
6.115347 -12.458059 -172.863760
6.215577 -12.424342 -172.865126
6.315807 -12.390625 -172.866492
6.416037 -12.356908 -172.867858
6.477781 -12.228842 -172.871647
6.578011 -12.195125 -172.873013
6.678241 -12.161408 -172.874379
6.778470 -12.127691 -172.875745
6.840214 -11.999625 -172.879534
6.940444 -11.965908 -172.880900
7.002187 -11.837842 -172.884689
7.102417 -11.804125 -172.886055
7.164161 -11.676059 -172.889844
7.264391 -11.642342 -172.891210
7.326134 -11.514276 -172.894999
7.426364 -11.480559 -172.896366
7.526594 -11.446842 -172.897732
7.626824 -11.413125 -172.899098
7.727054 -11.379408 -172.900464
7.788798 -11.251342 -172.904253
7.889028 -11.217625 -172.905619
7.989258 -11.183908 -172.906985
8.089487 -11.150191 -172.908351
8.189717 -11.116474 -172.909717
8.251461 -10.988407 -172.913506
8.351691 -10.954690 -172.914872
8.451921 -10.920973 -172.916238
8.552151 -10.887256 -172.917604
8.613894 -10.759190 -172.921393
8.714124 -10.725473 -172.922759
8.814354 -10.691756 -172.924125
8.876098 -10.563690 -172.927914
8.976328 -10.529973 -172.929280
9.076557 -10.496256 -172.930646
9.138301 -10.368190 -172.934435
9.238531 -10.334473 -172.935801
9.338761 -10.300756 -172.937167
9.438991 -10.267039 -172.938533
9.539221 -10.233322 -172.939899
9.639451 -10.199605 -172.941266
9.739681 -10.165888 -172.942632
9.839910 -10.132171 -172.943998
9.940140 -10.098454 -172.945364
10.040370 -10.064737 -172.946730
10.140600 -10.031020 -172.948096
10.240830 -9.997303 -172.949462
10.341060 -9.963586 -172.950828
10.441290 -9.929869 -172.952194
10.541520 -9.896152 -172.953560
10.603263 -9.768086 -172.957349
10.703493 -9.734369 -172.958715
10.803723 -9.700652 -172.960081
10.903953 -9.666935 -172.961447
10.965697 -9.538869 -172.965236
11.065927 -9.505152 -172.966602
11.166157 -9.471435 -172.967968
11.266387 -9.437718 -172.969334
11.328130 -9.309652 -172.973123
11.428360 -9.275935 -172.974489
11.528590 -9.242218 -172.975855
11.628820 -9.208501 -172.977221
11.729050 -9.174784 -172.978587
11.829280 -9.141067 -172.979953
11.891023 -9.013001 -172.983742
11.991253 -8.979284 -172.985108
12.091483 -8.945567 -172.986474
12.191713 -8.911850 -172.987840
12.291943 -8.878133 -172.989206
12.392173 -8.844416 -172.990572
12.492403 -8.810699 -172.991938
12.554146 -8.682633 -172.995728
12.654376 -8.648916 -172.997094
12.716120 -8.520849 -173.000883
12.777863 -8.392783 -173.004672
12.839607 -8.264717 -173.008461
12.901350 -8.136651 -173.012250
13.001580 -8.102934 -173.013616
13.101810 -8.069217 -173.014982
13.163554 -7.941151 -173.018771
13.263784 -7.907434 -173.020137
13.364014 -7.873717 -173.021503
13.464244 -7.840000 -173.022869
13.525987 -7.711934 -173.026659
13.626217 -7.678217 -173.028025
13.687961 -7.550151 -173.031814
13.788191 -7.516434 -173.033180
