ply
format ascii 1.0
element vertex 1429
property float x
property float y
property float z
element face 0
property list uchar uint vertex_indices
end_header
3.444533 -12.281846 -171.825806
3.594980 -12.264997 -171.824749
4.147952 -12.560475 -171.811576
4.378904 -12.606092 -171.808096
4.690361 -12.714174 -171.802193
4.921314 -12.759790 -171.798712
5.071762 -12.742941 -171.797655
5.302714 -12.788557 -171.794175
5.453162 -12.771708 -171.793118
5.603610 -12.754859 -171.792061
5.754058 -12.738010 -171.791004
5.985010 -12.783626 -171.787524
6.135458 -12.766777 -171.786466
6.205401 -12.687463 -171.787832
6.355849 -12.670613 -171.786775
6.506297 -12.653764 -171.785718
6.576240 -12.574450 -171.787084
6.726688 -12.557600 -171.786027
6.796631 -12.478286 -171.787393
6.866574 -12.398971 -171.788759
7.017022 -12.382122 -171.787702
7.086965 -12.302807 -171.789068
7.237413 -12.285958 -171.788011
7.307356 -12.206643 -171.789377
7.377299 -12.127329 -171.790743
7.447243 -12.048014 -171.792109
7.517186 -11.968699 -171.793475
7.667634 -11.951850 -171.792418
7.737577 -11.872535 -171.793784
7.888025 -11.855686 -171.792727
7.957968 -11.776372 -171.794093
8.027911 -11.697057 -171.795459
8.097854 -11.617742 -171.796825
8.167797 -11.538428 -171.798191
8.237740 -11.459113 -171.799557
8.307684 -11.379798 -171.800923
8.377627 -11.300484 -171.802289
8.528075 -11.283634 -171.801232
8.598018 -11.204320 -171.802598
8.748466 -11.187471 -171.801541
8.818409 -11.108156 -171.802907
8.888352 -11.028841 -171.804273
8.958295 -10.949527 -171.805639
9.108743 -10.932677 -171.804582
9.178686 -10.853363 -171.805948
9.248629 -10.774048 -171.807314
9.318572 -10.694733 -171.808680
9.388515 -10.615419 -171.810046
9.458459 -10.536104 -171.811412
9.608906 -10.519255 -171.810355
9.678850 -10.439940 -171.811721
9.748793 -10.360625 -171.813087
9.899241 -10.343776 -171.812030
9.969184 -10.264462 -171.813396
10.119632 -10.247612 -171.812338
10.189575 -10.168298 -171.813704
10.259518 -10.088983 -171.815071
10.329461 -10.009668 -171.816437
10.479909 -9.992819 -171.815379
10.549852 -9.913505 -171.816745
10.700300 -9.896655 -171.815688
10.770243 -9.817341 -171.817054
10.920691 -9.800492 -171.815997
11.071139 -9.783642 -171.814940
11.141082 -9.704328 -171.816306
11.291530 -9.687479 -171.815249
11.361473 -9.608164 -171.816615
11.431416 -9.528849 -171.817981
11.581864 -9.512000 -171.816924
11.651807 -9.432685 -171.818290
11.721750 -9.353371 -171.819656
11.872198 -9.336522 -171.818599
11.942141 -9.257207 -171.819965
12.012084 -9.177892 -171.821331
12.162532 -9.161043 -171.820274
12.232475 -9.081728 -171.821640
12.302419 -9.002414 -171.823006
12.452866 -8.985565 -171.821949
12.522810 -8.906250 -171.823315
12.592753 -8.826935 -171.824681
12.743201 -8.810086 -171.823624
12.813144 -8.730771 -171.824990
12.883087 -8.651457 -171.826356
12.953030 -8.572142 -171.827722
13.022973 -8.492827 -171.829088
13.092916 -8.413513 -171.830454
13.162859 -8.334198 -171.831820
13.232803 -8.254883 -171.833186
13.302746 -8.175569 -171.834552
13.372689 -8.096254 -171.835918
13.442632 -8.016939 -171.837284
13.512575 -7.937624 -171.838650
13.582518 -7.858310 -171.840016
13.652462 -7.778995 -171.841382
13.722405 -7.699680 -171.842748
13.792348 -7.620366 -171.844114
13.862291 -7.541051 -171.845480
13.932234 -7.461736 -171.846846
14.002177 -7.382422 -171.848212
14.152625 -7.365573 -171.847155
14.222568 -7.286258 -171.848521
14.292512 -7.206943 -171.849887
14.362455 -7.127628 -171.851253
14.432398 -7.048314 -171.852619
14.421836 -6.906534 -171.856408
14.491779 -6.827219 -171.857774
14.481218 -6.685439 -171.861563
14.470656 -6.543658 -171.865352
14.218581 -6.214482 -171.876411
14.208019 -6.072701 -171.880200
14.197458 -5.930921 -171.883989
14.186896 -5.789141 -171.887778
14.095830 -5.584895 -171.893991
14.085269 -5.443115 -171.897780
13.833193 -5.113938 -171.908838
13.742127 -4.909692 -171.915050
13.248537 -4.393119 -171.933378
13.318480 -4.313804 -171.934744
13.307919 -4.172024 -171.938533
12.894834 -3.717916 -171.954438
6.654858 -12.410532 -171.817823
6.776725 -12.320716 -171.816765
7.302400 -12.286278 -171.806016
7.424267 -12.196462 -171.804959
7.647086 -12.120490 -171.801479
7.668001 -12.016830 -171.802845
7.789868 -11.927014 -171.801787
7.911735 -11.837198 -171.800730
8.033602 -11.747383 -171.799673
8.155469 -11.657567 -171.798616
8.277336 -11.567751 -171.797559
8.298252 -11.464091 -171.798925
8.420119 -11.374275 -171.797868
8.541986 -11.284459 -171.796811
8.663853 -11.194643 -171.795754
8.785720 -11.104827 -171.794697
8.907587 -11.015012 -171.793640
9.029454 -10.925196 -171.792582
9.151321 -10.835380 -171.791525
9.273188 -10.745564 -171.790468
9.294103 -10.641904 -171.791834
9.315018 -10.538244 -171.793200
9.436885 -10.448428 -171.792143
9.861608 -10.400145 -171.783817
9.983475 -10.310329 -171.782760
10.105342 -10.220513 -171.781702
10.227209 -10.130698 -171.780645
10.349076 -10.040882 -171.779588
10.571895 -9.964910 -171.776108
10.693762 -9.875094 -171.775051
10.916581 -9.799123 -171.771571
11.038448 -9.709307 -171.770514
11.160315 -9.619491 -171.769456
11.383134 -9.543520 -171.765976
11.505001 -9.453704 -171.764919
11.727820 -9.377732 -171.761439
11.849687 -9.287917 -171.760382
11.971554 -9.198101 -171.759325
12.093421 -9.108285 -171.758268
12.316240 -9.032313 -171.754787
12.438107 -8.942498 -171.753730
12.559974 -8.852682 -171.752673
12.782793 -8.776710 -171.749193
12.904660 -8.686894 -171.748136
12.925575 -8.583234 -171.749502
13.047443 -8.493418 -171.748445
13.169310 -8.403603 -171.747388
13.190225 -8.299942 -171.748754
13.312092 -8.210127 -171.747696
13.433959 -8.120311 -171.746639
13.454874 -8.016651 -171.748005
13.475789 -7.912990 -171.749371
13.496704 -7.809330 -171.750737
13.618571 -7.719514 -171.749680
13.639486 -7.615854 -171.751046
13.761353 -7.526038 -171.749989
13.782269 -7.422378 -171.751355
13.904136 -7.332562 -171.750298
13.925051 -7.228902 -171.751664
13.945966 -7.125242 -171.753030
14.067833 -7.035426 -171.751973
14.088748 -6.931766 -171.753339
14.210615 -6.841950 -171.752282
14.635338 -6.793667 -171.743955
14.656253 -6.690007 -171.745321
14.576216 -6.572503 -171.749111
14.496179 -6.454998 -171.752900
14.517095 -6.351338 -171.754266
14.538010 -6.247678 -171.755632
14.457973 -6.130174 -171.759421
14.478888 -6.026513 -171.760787
14.499803 -5.922853 -171.762153
14.520718 -5.819193 -171.763519
14.440682 -5.701689 -171.767308
14.461597 -5.598028 -171.768674
14.381560 -5.480524 -171.772463
14.402475 -5.376864 -171.773829
14.322438 -5.259359 -171.777618
14.242401 -5.141855 -171.781408
14.162365 -5.024350 -171.785197
14.082328 -4.906846 -171.788986
14.002291 -4.789341 -171.792775
13.922254 -4.671837 -171.796564
13.842218 -4.554332 -171.800353
13.863133 -4.450672 -171.801719
13.783096 -4.333168 -171.805508
13.804011 -4.229508 -171.806874
13.824926 -4.125847 -171.808240
13.744889 -4.008343 -171.812030
13.664853 -3.890838 -171.815819
13.685768 -3.787178 -171.817185
13.605731 -3.669674 -171.820974
13.525694 -3.552169 -171.824763
13.445657 -3.434665 -171.828552
13.466572 -3.331005 -171.829918
13.386536 -3.213500 -171.833707
13.306499 -3.095996 -171.837496
13.226462 -2.978491 -171.841286
13.045473 -2.847142 -171.847498
12.965437 -2.729638 -171.851287
12.885400 -2.612133 -171.855076
12.805363 -2.494629 -171.858865
12.826278 -2.390969 -171.860231
12.746241 -2.273464 -171.864020
12.767157 -2.169804 -171.865386
12.687120 -2.052300 -171.869176
12.607083 -1.934795 -171.872965
12.627998 -1.831135 -171.874331
12.547961 -1.713630 -171.878120
12.568876 -1.609970 -171.879486
12.589792 -1.506310 -171.880852
12.610707 -1.402650 -171.882218
12.631622 -1.298990 -171.883584
12.551585 -1.181485 -171.887373
12.572500 -1.077825 -171.888739
12.492463 -0.960321 -171.892528
12.412427 -0.842816 -171.896317
12.433342 -0.739156 -171.897683
12.454257 -0.635496 -171.899049
12.475172 -0.531836 -171.900415
12.395135 -0.414331 -171.904205
12.315099 -0.296827 -171.907994
12.134110 -0.165478 -171.914206
12.054073 -0.047973 -171.917995
12.074988 0.055687 -171.919361
12.095903 0.159347 -171.920727
12.116818 0.263007 -171.922093
12.036782 0.380511 -171.925882
12.057697 0.484172 -171.927248
12.078612 0.587832 -171.928614
11.998575 0.705336 -171.932403
12.019490 0.808996 -171.933769
12.040405 0.912657 -171.935135
11.960369 1.030161 -171.938925
11.981284 1.133821 -171.940291
11.901247 1.251326 -171.944080
11.922162 1.354986 -171.945446
11.943077 1.458646 -171.946812
11.863040 1.576151 -171.950601
11.883956 1.679811 -171.951967
11.803919 1.797315 -171.955756
11.723882 1.914820 -171.959545
11.744797 2.018480 -171.960911
11.664760 2.135984 -171.964700
11.685675 2.239644 -171.966066
11.706591 2.343305 -171.967432
11.626554 2.460809 -171.971222
11.647469 2.564469 -171.972588
11.668384 2.668129 -171.973954
11.689299 2.771790 -171.975320
11.609262 2.889294 -171.979109
11.630178 2.992954 -171.980475
11.651093 3.096614 -171.981841
11.672008 3.200275 -171.983207
11.692923 3.303935 -171.984573
11.612886 3.421439 -171.988362
11.633801 3.525099 -171.989728
11.654716 3.628760 -171.991094
11.574680 3.746264 -171.994883
11.595595 3.849924 -171.996249
11.616510 3.953584 -171.997615
11.637425 4.057245 -171.998981
11.658340 4.160905 -172.000347
11.679255 4.264565 -172.001713
11.599219 4.382069 -172.005502
11.620134 4.485729 -172.006868
11.540097 4.603234 -172.010658
11.460060 4.720738 -172.014447
11.480975 4.824399 -172.015813
11.501890 4.928059 -172.017179
11.421854 5.045563 -172.020968
11.442769 5.149223 -172.022334
11.362732 5.266728 -172.026123
11.282695 5.384232 -172.029912
11.101706 5.515581 -172.036124
11.021670 5.633086 -172.039914
10.941633 5.750590 -172.043703
10.760644 5.881939 -172.049915
10.478704 6.027132 -172.058550
10.398667 6.144637 -172.062339
10.318630 6.262141 -172.066129
10.238593 6.379646 -172.069918
10.259508 6.483306 -172.071284
10.078520 6.614655 -172.077496
13.505333 -8.161336 -171.772353
13.565965 -8.022619 -171.771296
13.626597 -7.883903 -171.770239
13.687230 -7.745187 -171.769182
13.936560 -7.529498 -171.763278
13.997192 -7.390782 -171.762221
14.057824 -7.252065 -171.761164
14.118456 -7.113349 -171.760107
14.179088 -6.974633 -171.759050
14.239720 -6.835916 -171.757993
14.489051 -6.620227 -171.752089
14.832730 -6.366052 -171.743763
14.987711 -6.188849 -171.740283
14.953994 -6.088619 -171.741649
15.014627 -5.949903 -171.740592
14.980910 -5.849673 -171.741958
14.852843 -5.787930 -171.745747
14.819126 -5.687700 -171.747113
14.785409 -5.587470 -171.748479
14.751692 -5.487240 -171.749845
14.812325 -5.348523 -171.748788
14.778608 -5.248294 -171.750154
14.839240 -5.109577 -171.749097
14.805523 -5.009347 -171.750463
14.771806 -4.909117 -171.751829
14.738089 -4.808887 -171.753195
14.704372 -4.708658 -171.754561
14.670655 -4.608428 -171.755927
14.636938 -4.508198 -171.757293
14.603221 -4.407968 -171.758659
14.475155 -4.346224 -171.762448
14.441438 -4.245994 -171.763814
14.407721 -4.145764 -171.765180
14.374004 -4.045534 -171.766546
14.245937 -3.983791 -171.770335
14.212220 -3.883561 -171.771701
14.178503 -3.783331 -171.773067
14.144786 -3.683101 -171.774433
14.111069 -3.582871 -171.775799
13.983003 -3.521128 -171.779588
13.949286 -3.420898 -171.780954
13.915569 -3.320668 -171.782320
13.881852 -3.220438 -171.783686
13.753786 -3.158694 -171.787475
13.720069 -3.058464 -171.788841
13.686352 -2.958235 -171.790207
13.652635 -2.858005 -171.791573
13.618918 -2.757775 -171.792939
13.585201 -2.657545 -171.794305
13.551484 -2.557315 -171.795671
13.517767 -2.457085 -171.797037
13.484050 -2.356855 -171.798404
13.450333 -2.256625 -171.799770
13.416616 -2.156395 -171.801136
13.288550 -2.094652 -171.804925
13.254833 -1.994422 -171.806291
13.221116 -1.894192 -171.807657
13.187399 -1.793962 -171.809023
13.153682 -1.693732 -171.810389
13.119965 -1.593502 -171.811755
13.086248 -1.493272 -171.813121
13.146880 -1.354556 -171.812064
13.113163 -1.254326 -171.813430
13.079446 -1.154096 -171.814796
13.045729 -1.053866 -171.816162
13.012012 -0.953636 -171.817528
12.978295 -0.853406 -171.818894
12.944578 -0.753176 -171.820260
12.910861 -0.652946 -171.821626
12.877144 -0.552716 -171.822992
12.843427 -0.452486 -171.824358
12.809710 -0.352257 -171.825724
12.775993 -0.252027 -171.827090
12.742276 -0.151797 -171.828456
12.708559 -0.051567 -171.829822
12.674842 0.048663 -171.831188
12.546776 0.110407 -171.834977
12.513059 0.210637 -171.836343
12.479342 0.310867 -171.837709
12.445625 0.411096 -171.839075
12.411908 0.511326 -171.840441
12.378191 0.611556 -171.841807
12.344474 0.711786 -171.843173
12.405106 0.850503 -171.842116
12.371389 0.950732 -171.843482
12.337672 1.050962 -171.844848
12.398304 1.189679 -171.843791
12.364587 1.289909 -171.845157
12.330870 1.390139 -171.846523
12.297153 1.490368 -171.847889
12.263436 1.590598 -171.849255
12.229719 1.690828 -171.850621
12.196002 1.791058 -171.851987
12.162285 1.891288 -171.853353
12.128568 1.991518 -171.854719
12.189201 2.130234 -171.853662
12.155484 2.230464 -171.855028
12.121767 2.330694 -171.856394
12.088050 2.430924 -171.857760
12.054333 2.531154 -171.859126
12.020616 2.631384 -171.860492
11.986899 2.731614 -171.861858
11.953182 2.831844 -171.863224
11.919465 2.932074 -171.864590
11.885748 3.032304 -171.865956
11.946380 3.171020 -171.864899
11.912663 3.271250 -171.866265
11.878946 3.371480 -171.867631
11.939578 3.510196 -171.866574
11.905861 3.610426 -171.867940
11.872144 3.710656 -171.869306
11.838427 3.810886 -171.870672
11.899059 3.949602 -171.869615
11.865342 4.049832 -171.870981
11.831625 4.150062 -171.872347
11.797908 4.250292 -171.873713
11.764191 4.350522 -171.875079
11.730474 4.450752 -171.876445
11.696757 4.550982 -171.877811
11.663040 4.651212 -171.879177
11.629323 4.751442 -171.880543
11.595606 4.851671 -171.881909
11.561889 4.951901 -171.883275
11.528172 5.052131 -171.884641
11.494455 5.152361 -171.886007
11.460738 5.252591 -171.887373
11.427021 5.352821 -171.888739
11.393304 5.453051 -171.890105
11.453936 5.591767 -171.889048
11.420219 5.691997 -171.890414
11.386502 5.792227 -171.891780
11.352785 5.892457 -171.893146
11.319068 5.992687 -171.894512
11.191002 6.054431 -171.898301
11.157285 6.154660 -171.899667
11.123568 6.254890 -171.901033
11.089851 6.355120 -171.902399
11.056134 6.455350 -171.903765
10.928068 6.517094 -171.907554
10.894351 6.617324 -171.908920
10.766285 6.679067 -171.912710
10.732568 6.779297 -171.914076
10.604502 6.841041 -171.917865
10.570785 6.941271 -171.919231
10.537068 7.041501 -171.920597
10.503351 7.141731 -171.921963
10.469634 7.241960 -171.923329
10.341567 7.303704 -171.927118
10.307850 7.403934 -171.928484
10.179784 7.465677 -171.932273
9.957369 7.488935 -171.938485
9.734954 7.512192 -171.944698
9.606888 7.573935 -171.948487
9.573171 7.674165 -171.949853
9.445105 7.735909 -171.953642
9.317039 7.797652 -171.957431
9.188972 7.859396 -171.961220
9.060906 7.921139 -171.965009
8.932840 7.982883 -171.968798
8.804774 8.044627 -171.972588
8.676708 8.106370 -171.976377
8.548642 8.168114 -171.980166
8.420576 8.229857 -171.983955
8.292510 8.291601 -171.987744
8.164444 8.353344 -171.991533
8.036377 8.415088 -171.995322
7.908311 8.476831 -171.999112
7.402849 8.384629 -172.012593
7.274783 8.446373 -172.016382
14.864310 -4.934307 -171.841958
14.847461 -4.783859 -171.840900
14.768146 -4.713916 -171.842266
14.688831 -4.643973 -171.843632
14.671982 -4.493525 -171.842575
14.904995 -4.021058 -171.831826
14.888145 -3.870610 -171.830769
14.808831 -3.800667 -171.832135
14.791981 -3.650219 -171.831078
14.712667 -3.580276 -171.832444
14.633352 -3.510332 -171.833810
14.554037 -3.440389 -171.835176
14.474722 -3.370446 -171.836542
14.395407 -3.300503 -171.837908
14.316093 -3.230560 -171.839274
14.299243 -3.080112 -171.838217
14.219929 -3.010169 -171.839583
14.203079 -2.859721 -171.838525
14.123765 -2.789778 -171.839891
14.106915 -2.639330 -171.838834
14.027600 -2.569387 -171.840200
13.948286 -2.499443 -171.841566
13.868971 -2.429500 -171.842932
13.852122 -2.279052 -171.841875
13.772807 -2.209109 -171.843241
13.693492 -2.139166 -171.844607
13.551712 -2.149728 -171.848396
13.472397 -2.079784 -171.849763
13.455548 -1.929336 -171.848705
13.376233 -1.859393 -171.850071
13.359384 -1.708945 -171.849014
13.342534 -1.558497 -171.847957
13.263220 -1.488554 -171.849323
13.246370 -1.338106 -171.848266
13.167056 -1.268163 -171.849632
13.150206 -1.117715 -171.848575
13.070891 -1.047772 -171.849941
13.054042 -0.897324 -171.848884
12.974727 -0.827381 -171.850250
12.957878 -0.676933 -171.849193
12.941029 -0.526485 -171.848136
12.924180 -0.376037 -171.847079
12.907330 -0.225589 -171.846022
12.890481 -0.075141 -171.844964
12.811166 -0.005198 -171.846330
12.731852 0.064745 -171.847696
12.715002 0.215193 -171.846639
12.573222 0.204631 -171.850428
12.493907 0.274575 -171.851794
12.601989 0.586032 -171.845891
12.585140 0.736480 -171.844834
12.568291 0.886928 -171.843777
12.551441 1.037376 -171.842720
12.472126 1.107319 -171.844086
12.455277 1.257767 -171.843029
12.375962 1.327710 -171.844395
12.296648 1.397653 -171.845761
12.217333 1.467597 -171.847127
12.200484 1.618044 -171.846070
12.308565 1.929502 -171.840166
12.229251 1.999445 -171.841532
12.212401 2.149893 -171.840475
12.133087 2.219836 -171.841841
12.053772 2.289779 -171.843207
12.036923 2.440227 -171.842150
12.020073 2.590675 -171.841093
12.003224 2.741123 -171.840036
11.986375 2.891571 -171.838979
12.031991 3.122524 -171.835499
11.952676 3.192467 -171.836865
11.935827 3.342915 -171.835807
11.856512 3.412858 -171.837173
11.839663 3.563306 -171.836116
11.822814 3.713754 -171.835059
11.868430 3.944707 -171.831579
11.851581 4.095155 -171.830522
11.772266 4.165098 -171.831888
11.755417 4.315546 -171.830831
11.738567 4.465994 -171.829774
11.721718 4.616442 -171.828717
11.642403 4.686385 -171.830083
11.625554 4.836833 -171.829026
11.608705 4.987281 -171.827968
11.591856 5.137729 -171.826911
11.512541 5.207672 -171.828277
11.433226 5.277615 -171.829643
11.353911 5.347558 -171.831009
11.274596 5.417501 -171.832375
11.257747 5.567949 -171.831318
11.240898 5.718397 -171.830261
11.224049 5.868845 -171.829204
11.332131 6.180303 -171.823301
11.315281 6.330751 -171.822244
11.235966 6.400694 -171.823610
11.156652 6.470637 -171.824976
11.139802 6.621085 -171.823919
11.060488 6.691028 -171.825285
11.043638 6.841476 -171.824227
10.964324 6.911419 -171.825593
10.947474 7.061867 -171.824536
10.930625 7.212315 -171.823479
10.851310 7.282258 -171.824845
10.771995 7.352201 -171.826211
10.692681 7.422145 -171.827577
10.613366 7.492088 -171.828943
10.534051 7.562031 -171.830309
10.454736 7.631974 -171.831675
10.375422 7.701917 -171.833041
10.296107 7.771860 -171.834407
10.154326 7.761299 -171.838196
10.075012 7.831242 -171.839563
9.995697 7.901185 -171.840929
9.916382 7.971128 -171.842295
9.837067 8.041071 -171.843661
9.757752 8.111015 -171.845027
9.678438 8.180958 -171.846393
9.599123 8.250901 -171.847759
9.457343 8.240339 -171.851548
9.378028 8.310282 -171.852914
9.298713 8.380226 -171.854280
9.156933 8.369664 -171.858069
9.077618 8.439607 -171.859435
8.998303 8.509550 -171.860801
8.918988 8.579493 -171.862167
8.839673 8.649437 -171.863533
8.697893 8.638875 -171.867322
8.618578 8.708818 -171.868688
8.539264 8.778761 -171.870054
8.397483 8.768200 -171.873843
8.318168 8.838143 -171.875209
8.238854 8.908086 -171.876575
8.159539 8.978029 -171.877941
8.017759 8.967467 -171.881730
7.875978 8.956906 -171.885520
7.734198 8.946344 -171.889309
7.654883 9.016287 -171.890675
7.513103 9.005726 -171.894464
7.371322 8.995164 -171.898253
7.292008 9.065107 -171.899619
7.150227 9.054546 -171.903408
7.070913 9.124489 -171.904774
6.929132 9.113927 -171.908563
6.787352 9.103366 -171.912353
6.645572 9.092804 -171.916142
6.503791 9.082242 -171.919931
6.424476 9.152186 -171.921297
6.282696 9.141624 -171.925086
6.140916 9.131062 -171.928875
6.061601 9.201005 -171.930241
5.919821 9.190444 -171.934030
5.840506 9.260387 -171.935396
5.698725 9.249825 -171.939185
5.369549 8.997749 -171.950244
5.227768 8.987188 -171.954033
11.249331 5.955442 -171.853291
11.159516 6.077309 -171.852234
11.138921 6.703936 -171.839061
11.049106 6.825803 -171.838004
10.959290 6.947670 -171.836947
10.869474 7.069537 -171.835890
10.765814 7.090452 -171.837256
10.675998 7.212319 -171.836199
10.613871 7.536090 -171.830295
10.537899 7.758909 -171.826815
10.448083 7.880776 -171.825758
10.358268 8.002643 -171.824701
10.254607 8.023558 -171.826067
10.164792 8.145425 -171.825010
10.061131 8.166341 -171.826376
9.957471 8.187256 -171.827742
9.867655 8.309123 -171.826685
9.763995 8.330038 -171.828051
9.674179 8.451905 -171.826994
9.570519 8.472820 -171.828360
9.466859 8.493735 -171.829726
9.363199 8.514650 -171.831092
9.273383 8.636517 -171.830035
9.169723 8.657433 -171.831401
9.079907 8.779300 -171.830343
8.990091 8.901167 -171.829286
8.886431 8.922082 -171.830652
8.782771 8.942997 -171.832018
8.679111 8.963912 -171.833384
8.589295 9.085779 -171.832327
8.485635 9.106694 -171.833693
8.381975 9.127609 -171.835059
8.278314 9.148524 -171.836425
8.174654 9.169440 -171.837791
8.070994 9.190355 -171.839157
7.981178 9.312222 -171.838100
7.877518 9.333137 -171.839466
7.773858 9.354052 -171.840832
7.670198 9.374967 -171.842198
7.566538 9.395882 -171.843564
7.462878 9.416797 -171.844930
7.359217 9.437713 -171.846296
7.255557 9.458628 -171.847662
7.151897 9.479543 -171.849028
7.048237 9.500458 -171.850394
6.944577 9.521373 -171.851760
6.840917 9.542288 -171.853126
6.737256 9.563203 -171.854492
6.633596 9.584118 -171.855858
6.529936 9.605034 -171.857224
6.426276 9.625949 -171.858590
6.322616 9.646864 -171.859956
6.218956 9.667779 -171.861322
6.115295 9.688694 -171.862689
6.011635 9.709609 -171.864055
5.894131 9.629572 -171.867844
5.790471 9.650488 -171.869210
5.686810 9.671403 -171.870576
5.583150 9.692318 -171.871942
5.479490 9.713233 -171.873308
5.375830 9.734148 -171.874674
5.258326 9.654111 -171.878463
5.154665 9.675026 -171.879829
5.051005 9.695942 -171.881195
4.947345 9.716857 -171.882561
4.843685 9.737772 -171.883927
4.726180 9.657735 -171.887716
4.622520 9.678650 -171.889082
4.505016 9.598613 -171.892871
4.401356 9.619529 -171.894237
4.297695 9.640444 -171.895603
4.180191 9.560407 -171.899392
4.076531 9.581322 -171.900758
3.945182 9.400333 -171.906971
3.827677 9.320297 -171.910760
3.724017 9.341212 -171.912126
3.620357 9.362127 -171.913492
3.502853 9.282090 -171.917281
3.399193 9.303005 -171.918647
3.281688 9.222968 -171.922436
3.150339 9.041980 -171.928648
3.018990 8.860991 -171.934861
2.915330 8.881906 -171.936227
2.811670 8.902821 -171.937593
2.708010 8.923736 -171.938959
2.590505 8.843700 -171.942748
2.486845 8.864615 -171.944114
2.383185 8.885530 -171.945480
2.279525 8.906445 -171.946846
2.162020 8.826408 -171.950635
2.044516 8.746371 -171.954424
1.940856 8.767287 -171.955790
1.823351 8.687250 -171.959579
1.705847 8.607213 -171.963369
1.588342 8.527176 -171.967158
1.484682 8.548091 -171.968524
1.367178 8.468055 -171.972313
1.249673 8.388018 -171.976102
8.297572 9.259331 -171.888402
8.158856 9.319963 -171.887345
8.020139 9.380595 -171.886288
7.919909 9.346878 -171.887654
7.781193 9.407510 -171.886597
7.642477 9.468142 -171.885540
7.503760 9.528774 -171.884483
7.365044 9.589406 -171.883425
7.264814 9.555689 -171.884791
7.126098 9.616322 -171.883734
7.025868 9.582605 -171.885100
6.887152 9.643237 -171.884043
6.748435 9.703869 -171.882986
6.609719 9.764501 -171.881929
6.471003 9.825133 -171.880872
6.370773 9.791416 -171.882238
6.232057 9.852048 -171.881181
6.131827 9.818331 -171.882547
6.031597 9.784614 -171.883913
5.892880 9.845246 -171.882856
5.715678 10.000227 -171.879376
5.615448 9.966510 -171.880742
5.476732 10.027143 -171.879684
5.376502 9.993426 -171.881050
5.276272 9.959709 -171.882417
5.137555 10.020341 -171.881359
5.037326 9.986624 -171.882725
4.937096 9.952907 -171.884091
4.836866 9.919190 -171.885457
4.698149 9.979822 -171.884400
4.597919 9.946105 -171.885766
4.497690 9.912388 -171.887132
4.397460 9.878671 -171.888498
4.297230 9.844954 -171.889864
4.197000 9.811237 -171.891230
4.096770 9.777520 -171.892596
3.958054 9.838152 -171.891539
3.857824 9.804435 -171.892905
3.757594 9.770718 -171.894271
3.657364 9.737001 -171.895637
3.557134 9.703284 -171.897003
3.456904 9.669567 -171.898369
3.356674 9.635850 -171.899735
3.256444 9.602133 -171.901101
3.156214 9.568416 -171.902467
3.055984 9.534699 -171.903833
2.955754 9.500982 -171.905199
2.817038 9.561614 -171.904142
2.716808 9.527897 -171.905508
2.616578 9.494180 -171.906874
2.516348 9.460463 -171.908240
2.416118 9.426746 -171.909606
2.315888 9.393029 -171.910972
2.254145 9.264963 -171.914762
2.153915 9.231246 -171.916128
2.053685 9.197529 -171.917494
1.953455 9.163812 -171.918860
1.853225 9.130095 -171.920226
1.752995 9.096378 -171.921592
1.652765 9.062661 -171.922958
1.552535 9.028944 -171.924324
1.452305 8.995227 -171.925690
1.352076 8.961510 -171.927056
1.251846 8.927793 -171.928422
1.151616 8.894076 -171.929788
1.089872 8.766010 -171.933577
0.989642 8.732293 -171.934943
0.889412 8.698576 -171.936309
0.789182 8.664859 -171.937675
0.727439 8.536793 -171.941464
0.627209 8.503076 -171.942830
0.526979 8.469359 -171.944196
0.465235 8.341293 -171.947985
0.365006 8.307576 -171.949351
0.303262 8.179509 -171.953140
0.203032 8.145792 -171.954506
0.102802 8.112075 -171.955872
0.002572 8.078358 -171.957238
-0.097658 8.044641 -171.958604
-0.197888 8.010924 -171.959971
-0.298118 7.977207 -171.961337
-0.359861 7.849141 -171.965126
-0.460091 7.815424 -171.966492
-0.521835 7.687358 -171.970281
-0.583578 7.559292 -171.974070
-0.683808 7.525575 -171.975436
-0.745552 7.397509 -171.979225
-0.845782 7.363792 -171.980591
-0.907525 7.235726 -171.984380
0.951540 9.271582 -171.947710
0.801093 9.254733 -171.946653
0.650645 9.237884 -171.945596
0.580702 9.158569 -171.946962
0.430254 9.141720 -171.945905
0.360311 9.062405 -171.947271
0.209863 9.045556 -171.946214
-0.021090 9.091172 -171.942734
-0.171538 9.074323 -171.941677
-0.241481 8.995009 -171.943043
-0.311424 8.915694 -171.944409
-0.381367 8.836379 -171.945775
-0.531815 8.819530 -171.944718
-0.601758 8.740215 -171.946084
-0.671701 8.660901 -171.947450
-0.741644 8.581586 -171.948816
-0.811588 8.502271 -171.950182
-0.881531 8.422957 -171.951548
-0.951474 8.343642 -171.952914
-1.021417 8.264327 -171.954280
-1.091360 8.185013 -171.955646
-1.161303 8.105698 -171.957012
-1.231246 8.026383 -171.958378
-1.301190 7.947068 -171.959744
-1.451637 7.930219 -171.958687
-1.521581 7.850905 -171.960053
-1.591524 7.771590 -171.961419
-1.661467 7.692275 -171.962785
-1.731410 7.612961 -171.964151
-1.801353 7.533646 -171.965517
-1.871296 7.454331 -171.966883
-1.941240 7.375017 -171.968249
-2.011183 7.295702 -171.969615
-2.081126 7.216387 -171.970981
-2.151069 7.137072 -171.972347
-2.221012 7.057758 -171.973713
-2.290955 6.978443 -171.975079
-2.360898 6.899128 -171.976445
-2.430842 6.819814 -171.977811
-2.500785 6.740499 -171.979177
-2.570728 6.661184 -171.980543
-2.640671 6.581870 -171.981909
-2.630110 6.440089 -171.985698
-2.700053 6.360775 -171.987064
-2.769996 6.281460 -171.988430
-2.839939 6.202145 -171.989796
-2.909882 6.122831 -171.991162
-2.979825 6.043516 -171.992528
-3.049769 5.964201 -171.993894
-3.119712 5.884887 -171.995260
-3.189655 5.805572 -171.996626
-3.259598 5.726257 -171.997992
-3.249036 5.584477 -172.001781
-3.318980 5.505162 -172.003147
-3.388923 5.425848 -172.004513
-3.378361 5.284067 -172.008303
-3.448304 5.204753 -172.009669
-3.518248 5.125438 -172.011035
-3.507686 4.983658 -172.014824
-3.577629 4.904343 -172.016190
-3.647572 4.825028 -172.017556
-3.637011 4.683248 -172.021345
-3.706954 4.603934 -172.022711
-3.696392 4.462153 -172.026500
-3.766336 4.382839 -172.027866
-3.836279 4.303524 -172.029232
-3.825717 4.161744 -172.033021
-3.895660 4.082429 -172.034387
-3.965604 4.003114 -172.035753
-3.955042 3.861334 -172.039542
-4.024985 3.782019 -172.040908
-4.014424 3.640239 -172.044698
-3.279646 6.514713 -171.994107
-3.300561 6.411053 -171.995473
-3.422428 6.321237 -171.994416
-3.443343 6.217577 -171.995782
-3.464258 6.113917 -171.997148
-3.586125 6.024101 -171.996091
-3.607040 5.920441 -171.997457
-3.627956 5.816781 -171.998823
-3.648871 5.713121 -172.000189
-3.669786 5.609461 -172.001555
-3.791653 5.519645 -172.000498
-3.812568 5.415985 -172.001864
-3.833483 5.312324 -172.003230
-3.854398 5.208664 -172.004596
-3.976265 5.118848 -172.003539
-3.997180 5.015188 -172.004905
-4.018096 4.911528 -172.006271
-4.039011 4.807868 -172.007637
-4.059926 4.704208 -172.009003
-4.181793 4.614392 -172.007946
-4.303660 4.524576 -172.006888
-4.324575 4.420916 -172.008254
-4.345490 4.317256 -172.009620
-4.366405 4.213596 -172.010987
-4.488272 4.123780 -172.009929
-4.509188 4.020120 -172.011295
-4.530103 3.916460 -172.012661
-4.551018 3.812799 -172.014027
-4.672885 3.722984 -172.012970
-4.693800 3.619323 -172.014336
-4.714715 3.515663 -172.015702
-4.836582 3.425847 -172.014645
-4.857497 3.322187 -172.016011
-4.878412 3.218527 -172.017377
-4.899328 3.114867 -172.018743
-4.920243 3.011207 -172.020109
-5.042110 2.921391 -172.019052
-5.063025 2.817731 -172.020418
-5.083940 2.714071 -172.021784
-5.104855 2.610410 -172.023150
-5.125770 2.506750 -172.024516
-5.146685 2.403090 -172.025882
-5.268552 2.313274 -172.024825
-5.289468 2.209614 -172.026191
-5.310383 2.105954 -172.027557
-5.331298 2.002294 -172.028923
-5.352213 1.898634 -172.030289
-5.373128 1.794974 -172.031655
-5.394043 1.691313 -172.033021
-5.414958 1.587653 -172.034387
-5.334922 1.470149 -172.038176
-5.355837 1.366489 -172.039542
-5.376752 1.262828 -172.040908
-5.397667 1.159168 -172.042274
-5.418582 1.055508 -172.043640
-5.439497 0.951848 -172.045007
-5.460412 0.848188 -172.046373
-5.481327 0.744528 -172.047739
-5.502243 0.640867 -172.049105
-5.523158 0.537207 -172.050471
-5.544073 0.433547 -172.051837
-5.564988 0.329887 -172.053203
-5.585903 0.226227 -172.054569
-5.505866 0.108722 -172.058358
-5.526781 0.005062 -172.059724
-5.547697 -0.098598 -172.061090
-5.568612 -0.202258 -172.062456
-5.589527 -0.305918 -172.063822
-5.509490 -0.423423 -172.067611
-5.530405 -0.527083 -172.068977
-5.551320 -0.630743 -172.070343
-5.471284 -0.748248 -172.074132
-5.492199 -0.851908 -172.075498
-5.513114 -0.955568 -172.076864
-5.433077 -1.073072 -172.080653
-5.453992 -1.176733 -172.082019
-5.373955 -1.294237 -172.085808
-5.394871 -1.397897 -172.087174
-5.314834 -1.515402 -172.090964
-5.335749 -1.619062 -172.092330
-5.356664 -1.722722 -172.093696
-5.377579 -1.826382 -172.095062
-5.297542 -1.943887 -172.098851
-5.318457 -2.047547 -172.100217
-5.238421 -2.165051 -172.104006
-5.158384 -2.282556 -172.107795
-5.179299 -2.386216 -172.109161
-5.099262 -2.503720 -172.112950
-5.019225 -2.621225 -172.116739
-4.939189 -2.738729 -172.120529
-4.758200 -2.870078 -172.126741
-4.678163 -2.987583 -172.130530
-5.706319 1.882030 -172.014158
-5.766951 1.743314 -172.013101
-5.827584 1.604598 -172.012044
-5.888216 1.465881 -172.010987
-5.854499 1.365651 -172.012353
-5.915131 1.226935 -172.011295
-5.975763 1.088219 -172.010238
-6.036395 0.949502 -172.009181
-6.097027 0.810786 -172.008124
-6.157659 0.672070 -172.007067
-6.218291 0.533354 -172.006010
-6.278923 0.394637 -172.004953
-6.245206 0.294407 -172.006319
-6.211489 0.194177 -172.007685
-6.272122 0.055461 -172.006628
-6.238405 -0.044769 -172.007994
-6.299037 -0.183485 -172.006937
-6.265320 -0.283715 -172.008303
-6.325952 -0.422431 -172.007245
-6.292235 -0.522661 -172.008612
-6.258518 -0.622891 -172.009978
-6.224801 -0.723121 -172.011344
-6.191084 -0.823351 -172.012710
-6.157367 -0.923581 -172.014076
-6.123650 -1.023811 -172.015442
-6.089933 -1.124041 -172.016808
-6.056216 -1.224271 -172.018174
-6.022499 -1.324501 -172.019540
-6.083131 -1.463217 -172.018483
-6.049414 -1.563447 -172.019849
-6.015697 -1.663677 -172.021215
-5.981980 -1.763907 -172.022581
-5.948263 -1.864137 -172.023947
-5.914546 -1.964367 -172.025313
-5.880829 -2.064597 -172.026679
-5.847112 -2.164826 -172.028045
-5.813395 -2.265056 -172.029411
-5.779678 -2.365286 -172.030777
-5.745961 -2.465516 -172.032143
-5.712244 -2.565746 -172.033509
-5.678527 -2.665976 -172.034875
-5.550461 -2.727720 -172.038664
-5.516744 -2.827950 -172.040030
-5.483027 -2.928179 -172.041396
-5.449310 -3.028409 -172.042762
-5.415593 -3.128639 -172.044128
-5.381876 -3.228869 -172.045494
-5.348159 -3.329099 -172.046860
-5.314442 -3.429329 -172.048226
-5.280725 -3.529559 -172.049592
-5.247008 -3.629789 -172.050958
-5.213291 -3.730019 -172.052324
-5.179574 -3.830249 -172.053690
-5.145857 -3.930479 -172.055056
-5.112140 -4.030709 -172.056422
-5.078423 -4.130939 -172.057788
-4.950357 -4.192682 -172.061577
-4.916640 -4.292912 -172.062943
-4.882923 -4.393142 -172.064309
-4.849206 -4.493372 -172.065675
-4.815489 -4.593602 -172.067041
-4.781772 -4.693832 -172.068407
-4.748055 -4.794062 -172.069773
-4.714338 -4.894292 -172.071139
-4.586272 -4.956035 -172.074928
-4.552555 -5.056265 -172.076294
-4.518838 -5.156495 -172.077661
-4.390771 -5.218238 -172.081450
-4.262705 -5.279982 -172.085239
-4.134639 -5.341726 -172.089028
-4.100922 -5.441955 -172.090394
-4.067205 -5.542185 -172.091760
-3.939139 -5.603929 -172.095549
-3.905422 -5.704159 -172.096915
-3.777356 -5.765902 -172.100704
-3.743639 -5.866132 -172.102070
-3.709922 -5.966362 -172.103436
-3.676205 -6.066592 -172.104802
-3.642488 -6.166822 -172.106168
-3.514422 -6.228566 -172.109957
-3.480705 -6.328796 -172.111323
-6.161460 -1.926690 -171.999928
-6.207076 -2.157643 -171.996448
-6.190227 -2.308091 -171.995391
-6.110913 -2.378034 -171.996757
-6.094063 -2.528482 -171.995700
-6.077214 -2.678930 -171.994642
-5.997900 -2.748873 -171.996008
-5.981050 -2.899321 -171.994951
-5.901736 -2.969264 -171.996317
-5.884887 -3.119712 -171.995260
-5.868037 -3.270160 -171.994203
-5.851188 -3.420607 -171.993146
-5.771874 -3.490551 -171.994512
-5.755025 -3.640998 -171.993455
-5.738175 -3.791446 -171.992398
-5.658861 -3.861389 -171.993764
-5.579546 -3.931333 -171.995130
-5.500231 -4.001276 -171.996496
-5.483382 -4.151724 -171.995439
-5.404067 -4.221667 -171.996805
-5.387218 -4.372115 -171.995748
-5.307904 -4.442058 -171.997114
-5.228589 -4.512001 -171.998480
-5.149274 -4.581944 -171.999846
-5.069960 -4.651887 -172.001212
-4.990645 -4.721830 -172.002578
-4.911330 -4.791773 -172.003944
-4.894481 -4.942221 -172.002887
-4.815166 -5.012164 -172.004253
-4.735852 -5.082108 -172.005619
-4.719003 -5.232555 -172.004562
-4.639688 -5.302499 -172.005928
-4.560373 -5.372442 -172.007294
-4.481059 -5.442385 -172.008660
-4.401744 -5.512328 -172.010026
-4.322429 -5.582271 -172.011392
-4.305580 -5.732719 -172.010335
-4.226265 -5.802662 -172.011701
-4.146951 -5.872605 -172.013067
-4.130101 -6.023053 -172.012010
-4.050787 -6.092996 -172.013376
-3.971472 -6.162940 -172.014742
-3.892157 -6.232883 -172.016108
-3.812843 -6.302826 -172.017474
-3.795994 -6.453274 -172.016416
-3.716679 -6.523217 -172.017782
-3.637364 -6.593160 -172.019148
-3.558050 -6.663103 -172.020515
-3.478735 -6.733046 -172.021881
-3.399420 -6.802989 -172.023247
-3.320105 -6.872933 -172.024613
-3.303256 -7.023380 -172.023555
-3.223942 -7.093324 -172.024921
-3.144627 -7.163267 -172.026287
-3.127778 -7.313715 -172.025230
-3.048463 -7.383658 -172.026596
-2.969148 -7.453601 -172.027962
-2.889834 -7.523544 -172.029328
-2.810519 -7.593487 -172.030694
-2.793670 -7.743935 -172.029637
-2.714355 -7.813878 -172.031003
-2.635041 -7.883821 -172.032369
-2.555726 -7.953765 -172.033735
-2.476411 -8.023708 -172.035101
-2.397096 -8.093651 -172.036467
-2.380247 -8.244099 -172.035410
-2.300933 -8.314042 -172.036776
-2.221618 -8.383985 -172.038142
-2.142303 -8.453928 -172.039508
-2.062989 -8.523871 -172.040874
-1.983674 -8.593815 -172.042240
-1.904359 -8.663758 -172.043606
-1.825045 -8.733701 -172.044972
-1.745730 -8.803644 -172.046338
-1.666415 -8.873587 -172.047704
-1.587100 -8.943530 -172.049070
-1.507786 -9.013473 -172.050436
-1.428471 -9.083417 -172.051802
-1.411622 -9.233864 -172.050745
-1.332307 -9.303808 -172.052111
-1.252993 -9.373751 -172.053477
-1.173678 -9.443694 -172.054843
-1.094363 -9.513637 -172.056209
-1.015049 -9.583580 -172.057575
-0.935734 -9.653523 -172.058941
-0.856419 -9.723467 -172.060307
-0.777104 -9.793410 -172.061674
-0.697790 -9.863353 -172.063040
-0.618475 -9.933296 -172.064406
-0.539160 -10.003239 -172.065772
-0.459846 -10.073182 -172.067138
-0.380531 -10.143126 -172.068504
-0.301216 -10.213069 -172.069870
-0.221902 -10.283012 -172.071236
-0.142587 -10.352955 -172.072602
-0.063272 -10.422898 -172.073968
0.016042 -10.492841 -172.075334
0.095357 -10.562784 -172.076700
0.174672 -10.632728 -172.078066
0.253986 -10.702671 -172.079432
0.333301 -10.772614 -172.080798
0.412616 -10.842557 -172.082164
0.491930 -10.912500 -172.083530
0.571245 -10.982443 -172.084896
0.713025 -10.971882 -172.088685
0.792340 -11.041825 -172.090051
0.871655 -11.111768 -172.091417
0.950969 -11.181711 -172.092783
1.030284 -11.251654 -172.094149
1.109599 -11.321598 -172.095515
1.188914 -11.391541 -172.096881
1.268228 -11.461484 -172.098247
1.347543 -11.531427 -172.099613
1.426858 -11.601370 -172.100979
1.568638 -11.590809 -172.104768
1.647952 -11.660752 -172.106134
1.789733 -11.650190 -172.109923
1.869047 -11.720134 -172.111289
1.948362 -11.790077 -172.112655
2.090142 -11.779515 -172.116445
2.169457 -11.849458 -172.117811
2.248772 -11.919401 -172.119177
2.328086 -11.989345 -172.120543
2.407401 -12.059288 -172.121909
2.486716 -12.129231 -172.123275
2.566030 -12.199174 -172.124641
2.707811 -12.188613 -172.128430
2.849591 -12.178051 -172.132219
2.991371 -12.167490 -172.136008
3.133151 -12.156928 -172.139797
3.274932 -12.146366 -172.143586
3.541643 -11.974796 -172.152222
3.683423 -11.964234 -172.156011
3.825203 -11.953673 -172.159800
3.966984 -11.943111 -172.163589
4.108764 -11.932549 -172.167378
4.250544 -11.921988 -172.171167
4.392324 -11.911426 -172.174957
4.534104 -11.900865 -172.178746
-1.899323 -8.464431 -171.963060
-1.823351 -8.687250 -171.959579
-1.733536 -8.809117 -171.958522
-1.643720 -8.930984 -171.957465
-1.553904 -9.052851 -171.956408
-1.450244 -9.073766 -171.957774
-1.360428 -9.195633 -171.956717
-1.256768 -9.216548 -171.958083
-1.166952 -9.338415 -171.957026
-1.077136 -9.460282 -171.955969
-0.987320 -9.582149 -171.954912
-0.897504 -9.704016 -171.953855
-0.807689 -9.825883 -171.952797
-0.704028 -9.846799 -171.954163
-0.614213 -9.968666 -171.953106
-0.510552 -9.989581 -171.954472
-0.420737 -10.111448 -171.953415
-0.317076 -10.132363 -171.954781
-0.213416 -10.153278 -171.956147
-0.123600 -10.275145 -171.955090
-0.019940 -10.296060 -171.956456
0.083720 -10.316975 -171.957822
0.187380 -10.337891 -171.959188
0.277196 -10.459758 -171.958131
0.367012 -10.581625 -171.957074
0.456828 -10.703492 -171.956017
0.546643 -10.825359 -171.954960
0.650304 -10.846274 -171.956326
0.740119 -10.968141 -171.955269
0.829935 -11.090008 -171.954212
0.919751 -11.211875 -171.953154
1.023411 -11.232790 -171.954520
1.113227 -11.354657 -171.953463
1.216887 -11.375572 -171.954829
1.320547 -11.396487 -171.956195
1.424208 -11.417403 -171.957561
1.527868 -11.438318 -171.958927
1.631528 -11.459233 -171.960293
1.721344 -11.581100 -171.959236
1.825004 -11.602015 -171.960602
1.914820 -11.723882 -171.959545
2.018480 -11.744797 -171.960911
2.122140 -11.765712 -171.962277
2.225800 -11.786627 -171.963643
2.329460 -11.807543 -171.965009
2.419276 -11.929410 -171.963952
2.522936 -11.950325 -171.965318
2.626596 -11.971240 -171.966684
2.730257 -11.992155 -171.968050
2.820072 -12.114022 -171.966993
2.923733 -12.134937 -171.968359
3.027393 -12.155852 -171.969725
3.131053 -12.176767 -171.971091
3.234713 -12.197683 -171.972457
3.338373 -12.218598 -171.973823
3.428189 -12.340465 -171.972766
3.531849 -12.361380 -171.974132
3.635509 -12.382295 -171.975498
3.739170 -12.403210 -171.976864
3.842830 -12.424125 -171.978230
3.946490 -12.445040 -171.979596
4.050150 -12.465955 -171.980962
4.153810 -12.486871 -171.982328
4.257470 -12.507786 -171.983694
4.361131 -12.528701 -171.985060
4.464791 -12.549616 -171.986426
4.568451 -12.570531 -171.987792
4.672111 -12.591446 -171.989158
4.775771 -12.612361 -171.990524
4.893276 -12.532325 -171.994313
4.996936 -12.553240 -171.995679
5.114440 -12.473203 -171.999469
5.218100 -12.494118 -172.000835
5.321761 -12.515033 -172.002201
5.439265 -12.434996 -172.005990
5.542925 -12.455912 -172.007356
5.646585 -12.476827 -172.008722
5.764090 -12.396790 -172.012511
5.867750 -12.417705 -172.013877
5.985255 -12.337668 -172.017666
6.102759 -12.257632 -172.021455
6.206419 -12.278547 -172.022821
6.393145 -11.693750 -172.038726
6.496805 -11.714665 -172.040092
6.614310 -11.634629 -172.043881
6.717970 -11.655544 -172.045247
6.835475 -11.575507 -172.049036
6.994512 -11.192614 -172.060095
7.112017 -11.112578 -172.063884
7.229521 -11.032541 -172.067673
7.333181 -11.053456 -172.069039
7.464530 -10.872467 -172.075251
7.595879 -10.691479 -172.081464
7.699539 -10.712394 -172.082830
7.817043 -10.632357 -172.086619
7.934548 -10.552320 -172.090408
8.052052 -10.472283 -172.094197
8.169557 -10.392247 -172.097986
8.287061 -10.312210 -172.101775
8.404566 -10.232173 -172.105565
-0.073170 -10.140728 -171.900271
0.104032 -10.295709 -171.896791
0.242749 -10.356341 -171.895734
0.381465 -10.416973 -171.894677
0.558667 -10.571954 -171.891196
0.735870 -10.726935 -171.887716
0.874586 -10.787568 -171.886659
1.013303 -10.848200 -171.885602
1.190505 -11.003181 -171.882122
1.406194 -11.252511 -171.876218
1.583397 -11.407493 -171.872738
1.722113 -11.468125 -171.871681
1.860830 -11.528757 -171.870624
1.999546 -11.589389 -171.869567
2.176749 -11.744370 -171.866086
2.315465 -11.805002 -171.865029
2.454181 -11.865634 -171.863972
2.592898 -11.926266 -171.862915
2.731614 -11.986899 -171.861858
2.831844 -11.953182 -171.863224
2.970560 -12.013814 -171.862167
3.109276 -12.074446 -171.861110
3.247993 -12.135078 -171.860053
3.386709 -12.195710 -171.858996
3.525425 -12.256342 -171.857939
3.664142 -12.316974 -171.856881
3.764372 -12.283257 -171.858247
3.903088 -12.343889 -171.857190
4.041804 -12.404521 -171.856133
4.142034 -12.370804 -171.857499
4.280750 -12.431437 -171.856442
4.380980 -12.397720 -171.857808
4.481210 -12.364003 -171.859174
4.619927 -12.424635 -171.858117
4.720156 -12.390918 -171.859483
4.858873 -12.451550 -171.858426
4.997589 -12.512182 -171.857369
5.097819 -12.478465 -171.858735
5.198049 -12.444748 -171.860101
5.336765 -12.505380 -171.859044
5.436995 -12.471663 -171.860410
5.537225 -12.437946 -171.861776
5.637455 -12.404229 -171.863142
5.776171 -12.464861 -171.862085
5.876401 -12.431144 -171.863451
5.976631 -12.397427 -171.864817
6.076861 -12.363710 -171.866183
6.177091 -12.329993 -171.867549
6.238834 -12.201927 -171.871338
6.339064 -12.168210 -171.872704
6.400808 -12.040144 -171.876493
6.462551 -11.912078 -171.880282
6.562781 -11.878361 -171.881648
6.663011 -11.844644 -171.883014
6.763241 -11.810927 -171.884380
6.824985 -11.682861 -171.888169
6.925215 -11.649144 -171.889535
7.025445 -11.615427 -171.890901
7.125675 -11.581710 -171.892267
7.225905 -11.547993 -171.893633
7.287648 -11.419927 -171.897423
7.387878 -11.386210 -171.898789
7.488108 -11.352493 -171.900155
7.588338 -11.318776 -171.901521
7.650081 -11.190709 -171.905310
7.750311 -11.156992 -171.906676
7.812055 -11.028926 -171.910465
7.912285 -10.995209 -171.911831
8.012515 -10.961492 -171.913197
8.112745 -10.927775 -171.914563
8.174488 -10.799709 -171.918352
8.274718 -10.765992 -171.919718
8.374948 -10.732275 -171.921084
8.436692 -10.604209 -171.924873
8.536921 -10.570492 -171.926239
8.637151 -10.536775 -171.927605
8.737381 -10.503058 -171.928971
8.837611 -10.469341 -171.930337
8.937841 -10.435624 -171.931703
9.038071 -10.401907 -171.933069
9.099815 -10.273841 -171.936859
9.200045 -10.240124 -171.938225
9.300274 -10.206407 -171.939591
9.400504 -10.172690 -171.940957
9.500734 -10.138973 -171.942323
9.600964 -10.105256 -171.943689
9.701194 -10.071539 -171.945055
9.801424 -10.037822 -171.946421
9.863168 -9.909756 -171.950210
9.963398 -9.876039 -171.951576
10.063627 -9.842322 -171.952942
10.163857 -9.808605 -171.954308
10.264087 -9.774888 -171.955674
10.364317 -9.741171 -171.957040
10.464547 -9.707454 -171.958406
10.564777 -9.673737 -171.959772
10.665007 -9.640020 -171.961138
10.765237 -9.606303 -171.962504
10.865467 -9.572586 -171.963870
10.965697 -9.538869 -171.965236
11.027440 -9.410803 -171.969025
11.127670 -9.377086 -171.970391
11.227900 -9.343369 -171.971757
11.328130 -9.309652 -171.973123
11.428360 -9.275935 -171.974489
11.490104 -9.147869 -171.978278
11.590333 -9.114152 -171.979644
11.690563 -9.080435 -171.981010
11.790793 -9.046718 -171.982376
11.891023 -9.013001 -171.983742
11.991253 -8.979284 -171.985108
12.052997 -8.851218 -171.988898
12.153227 -8.817501 -171.990264
12.214970 -8.689434 -171.994053
12.315200 -8.655717 -171.995419
12.376944 -8.527651 -171.999208
12.477174 -8.493934 -172.000574
12.577404 -8.460217 -172.001940
12.677633 -8.426500 -172.003306
12.739377 -8.298434 -172.007095
12.839607 -8.264717 -172.008461
12.862864 -8.042302 -172.014673
12.924608 -7.914236 -172.018462
12.986351 -7.786170 -172.022252
13.086581 -7.752453 -172.023618
13.186811 -7.718736 -172.024984
13.248555 -7.590670 -172.028773
13.348784 -7.556953 -172.030139
13.333555 -7.240188 -172.038774
13.241353 -6.734726 -172.052256
13.264610 -6.512311 -172.058468
