ply
format ascii 1.0
element vertex 1354
property float x
property float y
property float z
element face 0
property list uchar uint vertex_indices
end_header
3.594980 -12.264997 -170.824749
3.906438 -12.373079 -170.818846
4.378904 -12.606092 -170.808096
4.529352 -12.589243 -170.807039
4.760305 -12.634859 -170.803559
4.910752 -12.618010 -170.802502
4.980696 -12.538695 -170.803868
5.131143 -12.521846 -170.802810
5.523105 -12.692394 -170.794484
5.673553 -12.675544 -170.793427
5.904506 -12.721161 -170.789947
6.054953 -12.704312 -170.788890
6.124897 -12.624997 -170.790256
6.275344 -12.608148 -170.789198
6.425792 -12.591299 -170.788141
6.495735 -12.511984 -170.789507
6.565679 -12.432669 -170.790873
6.716126 -12.415820 -170.789816
6.786070 -12.336506 -170.791182
6.856013 -12.257191 -170.792548
6.925956 -12.177876 -170.793914
7.076404 -12.161027 -170.792857
7.146347 -12.081712 -170.794223
7.296795 -12.064863 -170.793166
7.366738 -11.985548 -170.794532
7.436681 -11.906234 -170.795898
7.587129 -11.889385 -170.794841
7.657072 -11.810070 -170.796207
7.727015 -11.730755 -170.797573
7.877463 -11.713906 -170.796516
7.947406 -11.634591 -170.797882
8.017349 -11.555277 -170.799248
8.087293 -11.475962 -170.800614
8.237740 -11.459113 -170.799557
8.307684 -11.379798 -170.800923
8.377627 -11.300484 -170.802289
8.447570 -11.221169 -170.803655
8.517513 -11.141854 -170.805021
8.667961 -11.125005 -170.803964
8.737904 -11.045690 -170.805330
8.807847 -10.966376 -170.806696
8.877790 -10.887061 -170.808062
8.947733 -10.807746 -170.809428
9.017677 -10.728432 -170.810794
9.087620 -10.649117 -170.812160
9.157563 -10.569802 -170.813526
9.227506 -10.490488 -170.814892
9.297449 -10.411173 -170.816258
9.447897 -10.394324 -170.815201
9.598345 -10.377475 -170.814144
9.668288 -10.298160 -170.815510
9.818736 -10.281311 -170.814453
9.888679 -10.201996 -170.815819
9.958622 -10.122681 -170.817185
10.109070 -10.105832 -170.816128
10.179013 -10.026518 -170.817494
10.329461 -10.009668 -170.816437
10.399404 -9.930354 -170.817803
10.549852 -9.913505 -170.816745
10.619795 -9.834190 -170.818111
10.770243 -9.817341 -170.817054
10.840186 -9.738026 -170.818420
10.990634 -9.721177 -170.817363
11.060577 -9.641862 -170.818729
11.130520 -9.562548 -170.820095
11.280968 -9.545698 -170.819038
11.350911 -9.466384 -170.820404
11.501359 -9.449535 -170.819347
11.571302 -9.370220 -170.820713
11.721750 -9.353371 -170.819656
11.791693 -9.274056 -170.821022
11.861637 -9.194741 -170.822388
12.012084 -9.177892 -170.821331
12.082028 -9.098578 -170.822697
12.151971 -9.019263 -170.824063
12.221914 -8.939948 -170.825429
12.372362 -8.923099 -170.824372
12.442305 -8.843784 -170.825738
12.512248 -8.764470 -170.827104
12.582191 -8.685155 -170.828470
12.652134 -8.605840 -170.829836
12.802582 -8.588991 -170.828779
12.872525 -8.509676 -170.830145
12.942468 -8.430362 -170.831511
13.092916 -8.413513 -170.830454
13.162859 -8.334198 -170.831820
13.232803 -8.254883 -170.833186
13.222241 -8.113103 -170.836975
13.292184 -8.033788 -170.838341
13.362127 -7.954474 -170.839707
13.432071 -7.875159 -170.841073
13.502014 -7.795844 -170.842439
13.571957 -7.716530 -170.843805
13.641900 -7.637215 -170.845171
13.711843 -7.557900 -170.846537
13.781786 -7.478586 -170.847903
13.932234 -7.461736 -170.846846
14.002177 -7.382422 -170.848212
14.072121 -7.303107 -170.849578
14.222568 -7.286258 -170.848521
14.292512 -7.206943 -170.849887
14.281950 -7.065163 -170.853676
14.351893 -6.985848 -170.855042
14.341332 -6.844068 -170.858831
14.089256 -6.514891 -170.869890
13.917685 -6.248180 -170.878525
13.826619 -6.043934 -170.884737
13.896562 -5.964619 -170.886103
13.886001 -5.822839 -170.889892
13.955944 -5.743525 -170.891258
13.945382 -5.601744 -170.895048
13.532297 -5.147636 -170.910952
13.441231 -4.943391 -170.917165
13.430670 -4.801610 -170.920954
13.339603 -4.597365 -170.927166
13.248537 -4.393119 -170.933378
12.996462 -4.063942 -170.944437
12.905395 -3.859696 -170.950649
12.975338 -3.780382 -170.952015
12.964777 -3.638601 -170.955804
7.180533 -12.376093 -170.807073
7.302400 -12.286278 -170.806016
7.323315 -12.182617 -170.807382
7.445182 -12.092802 -170.806325
7.668001 -12.016830 -170.802845
7.789868 -11.927014 -170.801787
7.810783 -11.823354 -170.803153
7.831699 -11.719694 -170.804519
7.953566 -11.629878 -170.803462
7.974481 -11.526218 -170.804828
8.197300 -11.450246 -170.801348
8.420119 -11.374275 -170.797868
8.541986 -11.284459 -170.796811
8.663853 -11.194643 -170.795754
8.684768 -11.090983 -170.797120
8.806635 -11.001167 -170.796063
8.827550 -10.897507 -170.797429
8.949417 -10.807691 -170.796372
9.071284 -10.717875 -170.795314
9.193151 -10.628060 -170.794257
9.315018 -10.538244 -170.793200
9.436885 -10.448428 -170.792143
9.558752 -10.358612 -170.791086
9.680619 -10.268796 -170.790029
9.802486 -10.178980 -170.788972
10.126257 -10.116853 -170.783068
10.248124 -10.027037 -170.782011
10.369991 -9.937222 -170.780954
10.491858 -9.847406 -170.779897
10.613725 -9.757590 -170.778840
10.735592 -9.667774 -170.777783
10.958411 -9.591803 -170.774303
11.282182 -9.529675 -170.768399
11.505001 -9.453704 -170.764919
11.626868 -9.363888 -170.763862
11.748735 -9.274072 -170.762805
11.870602 -9.184256 -170.761748
12.194373 -9.122129 -170.755844
12.316240 -9.032313 -170.754787
12.438107 -8.942498 -170.753730
12.459022 -8.838837 -170.755096
12.580889 -8.749022 -170.754039
12.702757 -8.659206 -170.752982
12.723672 -8.555546 -170.754348
12.845539 -8.465730 -170.753291
12.866454 -8.362070 -170.754657
12.988321 -8.272254 -170.753600
13.009236 -8.168594 -170.754966
13.131103 -8.078778 -170.753909
13.152018 -7.975118 -170.755275
13.273885 -7.885302 -170.754218
13.294800 -7.781642 -170.755584
13.416667 -7.691826 -170.754527
13.538534 -7.602010 -170.753469
13.660401 -7.512194 -170.752412
13.681317 -7.408534 -170.753778
13.702232 -7.304874 -170.755144
13.723147 -7.201214 -170.756510
13.845014 -7.111398 -170.755453
13.865929 -7.007738 -170.756819
13.886844 -6.904077 -170.758185
14.008711 -6.814262 -170.757128
14.029626 -6.710602 -170.758494
14.050542 -6.606941 -170.759860
14.172409 -6.517126 -170.758803
14.193324 -6.413465 -170.760169
14.315191 -6.323650 -170.759112
14.336106 -6.219989 -170.760478
14.357021 -6.116329 -170.761844
14.478888 -6.026513 -170.760787
14.499803 -5.922853 -170.762153
14.419766 -5.805349 -170.765942
14.440682 -5.701689 -170.767308
14.360645 -5.584184 -170.771097
14.280608 -5.466680 -170.774886
14.200571 -5.349175 -170.778676
14.221486 -5.245515 -170.780042
14.141450 -5.128010 -170.783831
14.162365 -5.024350 -170.785197
14.082328 -4.906846 -170.788986
14.002291 -4.789341 -170.792775
13.922254 -4.671837 -170.796564
13.741266 -4.540488 -170.802776
13.661229 -4.422984 -170.806565
13.682144 -4.319323 -170.807932
13.602107 -4.201819 -170.811721
13.623022 -4.098159 -170.813087
13.542986 -3.980654 -170.816876
13.563901 -3.876994 -170.818242
13.483864 -3.759490 -170.822031
13.504779 -3.655829 -170.823397
13.424742 -3.538325 -170.827186
13.445657 -3.434665 -170.828552
13.365621 -3.317160 -170.832341
13.285584 -3.199656 -170.836130
13.205547 -3.082151 -170.839920
13.125510 -2.964647 -170.843709
13.146425 -2.860987 -170.845075
13.066389 -2.743482 -170.848864
12.986352 -2.625978 -170.852653
13.007267 -2.522318 -170.854019
12.927230 -2.404813 -170.857808
12.847193 -2.287309 -170.861597
12.868108 -2.183648 -170.862963
12.788072 -2.066144 -170.866752
12.708035 -1.948639 -170.870542
12.627998 -1.831135 -170.874331
12.648913 -1.727475 -170.875697
12.669828 -1.623815 -170.877063
12.589792 -1.506310 -170.880852
12.610707 -1.402650 -170.882218
12.530670 -1.285146 -170.886007
12.551585 -1.181485 -170.887373
12.471548 -1.063981 -170.891162
12.391512 -0.946476 -170.894951
12.412427 -0.842816 -170.896317
12.332390 -0.725312 -170.900107
12.353305 -0.621652 -170.901473
12.273268 -0.504147 -170.905262
12.294183 -0.400487 -170.906628
12.113195 -0.269138 -170.912840
12.134110 -0.165478 -170.914206
12.054073 -0.047973 -170.917995
11.974036 0.069531 -170.921784
11.994951 0.173191 -170.923150
11.914915 0.290696 -170.926939
11.935830 0.394356 -170.928305
11.956745 0.498016 -170.929671
11.977660 0.601676 -170.931037
11.897623 0.719181 -170.934827
11.918538 0.822841 -170.936193
11.838502 0.940345 -170.939982
11.859417 1.044005 -170.941348
11.779380 1.161510 -170.945137
11.800295 1.265170 -170.946503
11.720258 1.382675 -170.950292
11.741173 1.486335 -170.951658
11.661137 1.603839 -170.955447
11.682052 1.707499 -170.956813
11.602015 1.825004 -170.960602
11.622930 1.928664 -170.961968
11.542893 2.046168 -170.965758
11.563808 2.149829 -170.967124
11.584724 2.253489 -170.968490
11.605639 2.357149 -170.969856
11.626554 2.460809 -170.971222
11.647469 2.564469 -170.972588
11.567432 2.681974 -170.976377
11.588347 2.785634 -170.977743
11.609262 2.889294 -170.979109
11.630178 2.992954 -170.980475
11.651093 3.096614 -170.981841
11.571056 3.214119 -170.985630
11.591971 3.317779 -170.986996
11.612886 3.421439 -170.988362
11.532849 3.538944 -170.992151
11.553765 3.642604 -170.993517
11.574680 3.746264 -170.994883
11.595595 3.849924 -170.996249
11.515558 3.967429 -171.000038
11.536473 4.071089 -171.001404
11.557388 4.174749 -171.002770
11.578303 4.278409 -171.004136
11.498267 4.395914 -171.007925
11.317278 4.527262 -171.014138
11.338193 4.630923 -171.015504
11.258156 4.748427 -171.019293
11.279071 4.852087 -171.020659
11.199035 4.969592 -171.024448
11.219950 5.073252 -171.025814
11.139913 5.190756 -171.029603
10.656069 5.363638 -171.043085
10.676984 5.467298 -171.044451
10.697899 5.570959 -171.045817
10.718814 5.674619 -171.047183
10.638777 5.792123 -171.050972
10.457788 5.923472 -171.057184
10.377752 6.040976 -171.060973
10.297715 6.158481 -171.064763
10.217678 6.275985 -171.068552
10.238593 6.379646 -171.069918
13.471616 -8.061106 -170.773719
13.626597 -7.883903 -170.770239
13.687230 -7.745187 -170.769182
13.747862 -7.606471 -170.768124
13.997192 -7.390782 -170.762221
14.057824 -7.252065 -170.761164
14.118456 -7.113349 -170.760107
14.179088 -6.974633 -170.759050
14.145371 -6.874403 -170.760416
14.206003 -6.735686 -170.759359
14.172286 -6.635457 -170.760725
14.327268 -6.458254 -170.757245
14.387900 -6.319538 -170.756187
14.542881 -6.142335 -170.752707
14.603513 -6.003619 -170.751650
14.569796 -5.903389 -170.753016
14.630428 -5.764672 -170.751959
14.596711 -5.664442 -170.753325
14.657343 -5.525726 -170.752268
14.623626 -5.425496 -170.753634
14.684258 -5.286780 -170.752577
14.744891 -5.148064 -170.751520
14.711174 -5.047834 -170.752886
14.677457 -4.947604 -170.754252
14.643740 -4.847374 -170.755618
14.610023 -4.747144 -170.756984
14.481956 -4.685400 -170.760773
14.448239 -4.585170 -170.762139
14.414522 -4.484941 -170.763505
14.380805 -4.384711 -170.764871
14.252739 -4.322967 -170.768660
14.219022 -4.222737 -170.770026
14.185305 -4.122507 -170.771392
14.151588 -4.022277 -170.772758
14.023522 -3.960534 -170.776547
13.989805 -3.860304 -170.777913
13.956088 -3.760074 -170.779279
13.922371 -3.659844 -170.780645
13.888654 -3.559614 -170.782011
13.760588 -3.497870 -170.785800
13.726871 -3.397641 -170.787166
13.693154 -3.297411 -170.788532
13.659437 -3.197181 -170.789899
13.625720 -3.096951 -170.791265
13.592003 -2.996721 -170.792631
13.558286 -2.896491 -170.793997
13.524569 -2.796261 -170.795363
13.490852 -2.696031 -170.796729
13.457135 -2.595801 -170.798095
13.423418 -2.495571 -170.799461
13.389701 -2.395341 -170.800827
13.355984 -2.295111 -170.802193
13.322267 -2.194882 -170.803559
13.288550 -2.094652 -170.804925
13.254833 -1.994422 -170.806291
13.221116 -1.894192 -170.807657
13.187399 -1.793962 -170.809023
13.153682 -1.693732 -170.810389
13.119965 -1.593502 -170.811755
13.086248 -1.493272 -170.813121
13.052531 -1.393042 -170.814487
13.018814 -1.292812 -170.815853
12.985097 -1.192582 -170.817219
12.951380 -1.092352 -170.818585
12.917663 -0.992122 -170.819951
12.883946 -0.891893 -170.821317
12.850229 -0.791663 -170.822683
12.816512 -0.691433 -170.824049
12.782795 -0.591203 -170.825415
12.749078 -0.490973 -170.826781
12.715361 -0.390743 -170.828147
12.681644 -0.290513 -170.829513
12.647927 -0.190283 -170.830879
12.614210 -0.090053 -170.832245
12.580493 0.010177 -170.833611
12.546776 0.110407 -170.834977
12.513059 0.210637 -170.836343
12.479342 0.310867 -170.837709
12.445625 0.411096 -170.839075
12.411908 0.511326 -170.840441
12.378191 0.611556 -170.841807
12.344474 0.711786 -170.843173
12.310757 0.812016 -170.844539
12.277040 0.912246 -170.845905
12.337672 1.050962 -170.844848
12.303955 1.151192 -170.846214
12.270238 1.251422 -170.847580
12.236521 1.351652 -170.848946
12.202804 1.451882 -170.850312
12.169087 1.552112 -170.851678
12.135370 1.652342 -170.853044
12.101653 1.752572 -170.854410
12.067936 1.852802 -170.855776
12.034219 1.953032 -170.857142
12.000502 2.053262 -170.858508
12.061134 2.191978 -170.857451
12.027417 2.292208 -170.858817
11.993700 2.392438 -170.860183
12.054333 2.531154 -170.859126
12.020616 2.631384 -170.860492
11.986899 2.731614 -170.861858
11.953182 2.831844 -170.863224
11.919465 2.932074 -170.864590
11.885748 3.032304 -170.865956
11.852031 3.132534 -170.867322
11.818314 3.232764 -170.868688
11.878946 3.371480 -170.867631
11.845229 3.471710 -170.868997
11.811512 3.571940 -170.870363
11.872144 3.710656 -170.869306
11.838427 3.810886 -170.870672
11.804710 3.911116 -170.872038
11.770993 4.011346 -170.873404
11.737276 4.111576 -170.874770
11.703559 4.211806 -170.876136
11.764191 4.350522 -170.875079
11.730474 4.450752 -170.876445
11.696757 4.550982 -170.877811
11.663040 4.651212 -170.879177
11.629323 4.751442 -170.880543
11.595606 4.851671 -170.881909
11.561889 4.951901 -170.883275
11.528172 5.052131 -170.884641
11.494455 5.152361 -170.886007
11.460738 5.252591 -170.887373
11.427021 5.352821 -170.888739
11.393304 5.453051 -170.890105
11.359587 5.553281 -170.891471
11.325870 5.653511 -170.892837
11.292153 5.753741 -170.894203
11.258436 5.853971 -170.895569
11.224719 5.954201 -170.896935
11.096653 6.015944 -170.900724
11.062936 6.116174 -170.902090
11.029219 6.216404 -170.903456
10.901153 6.278148 -170.907245
10.867436 6.378378 -170.908612
10.739370 6.440121 -170.912401
10.705653 6.540351 -170.913767
10.671936 6.640581 -170.915133
10.638219 6.740811 -170.916499
10.510152 6.802554 -170.920288
10.476435 6.902784 -170.921654
10.442718 7.003014 -170.923020
10.409001 7.103244 -170.924386
10.375284 7.203474 -170.925752
10.247218 7.265218 -170.929541
10.213501 7.365448 -170.930907
9.991086 7.388705 -170.937119
9.768671 7.411962 -170.943332
9.640605 7.473705 -170.947121
9.512539 7.535449 -170.950910
9.478822 7.635679 -170.952276
9.350756 7.697422 -170.956065
9.222689 7.759166 -170.959854
9.094623 7.820910 -170.963643
9.060906 7.921139 -170.965009
8.932840 7.982883 -170.968798
8.804774 8.044627 -170.972588
8.676708 8.106370 -170.976377
8.548642 8.168114 -170.980166
8.326227 8.191371 -170.986378
8.103811 8.214628 -170.992590
7.975745 8.276372 -170.996380
13.037193 -0.746876 -170.847827
13.082809 -0.515923 -170.844347
13.003494 -0.445980 -170.845713
12.986645 -0.295532 -170.844655
12.907330 -0.225589 -170.846022
12.890481 -0.075141 -170.844964
12.811166 -0.005198 -170.846330
12.731852 0.064745 -170.847696
12.715002 0.215193 -170.846639
12.635688 0.285136 -170.848005
12.556373 0.355079 -170.849371
12.539523 0.505527 -170.848314
12.460209 0.575470 -170.849680
12.443359 0.725918 -170.848623
12.488976 0.956871 -170.845143
12.472126 1.107319 -170.844086
12.392812 1.177262 -170.845452
12.375962 1.327710 -170.844395
12.359113 1.478158 -170.843338
12.279798 1.548101 -170.844704
12.262949 1.698549 -170.843647
12.183634 1.768492 -170.845013
12.104320 1.838436 -170.846379
12.025005 1.908379 -170.847745
11.945690 1.978322 -170.849111
11.866375 2.048265 -170.850477
12.036923 2.440227 -170.842150
12.020073 2.590675 -170.841093
11.940758 2.660618 -170.842459
11.923909 2.811066 -170.841402
11.907060 2.961514 -170.840345
11.952676 3.192467 -170.836865
11.873361 3.262410 -170.838231
11.856512 3.412858 -170.837173
11.902128 3.643811 -170.833693
11.885279 3.794259 -170.832636
11.868430 3.944707 -170.831579
11.851581 4.095155 -170.830522
11.772266 4.165098 -170.831888
11.692951 4.235041 -170.833254
11.676102 4.385489 -170.832197
11.659253 4.535937 -170.831140
11.642403 4.686385 -170.830083
11.563089 4.756328 -170.831449
11.546239 4.906776 -170.830392
11.529390 5.057224 -170.829334
11.450075 5.127167 -170.830700
11.433226 5.277615 -170.829643
11.353911 5.347558 -170.831009
11.337062 5.498006 -170.829952
11.320213 5.648454 -170.828895
11.240898 5.718397 -170.830261
11.161583 5.788340 -170.831627
11.144734 5.938788 -170.830570
11.127885 6.089236 -170.829513
11.111035 6.239684 -170.828456
11.094186 6.390132 -170.827399
11.014871 6.460075 -170.828765
10.998022 6.610523 -170.827708
10.918707 6.680466 -170.829074
10.901858 6.830914 -170.828017
10.822543 6.900858 -170.829383
10.743228 6.970801 -170.830749
10.726379 7.121249 -170.829691
10.647064 7.191192 -170.831058
10.567750 7.261135 -170.832424
10.550900 7.411583 -170.831366
10.471586 7.481526 -170.832732
10.392271 7.551469 -170.834098
10.312956 7.621412 -170.835464
10.233641 7.691356 -170.836830
10.154326 7.761299 -170.838196
10.012546 7.750737 -170.841986
9.933231 7.820680 -170.843352
9.853917 7.890623 -170.844718
9.712136 7.880062 -170.848507
9.632821 7.950005 -170.849873
9.491041 7.939443 -170.853662
9.411726 8.009387 -170.855028
9.332411 8.079330 -170.856394
9.253097 8.149273 -170.857760
9.173782 8.219216 -170.859126
9.094467 8.289159 -170.860492
9.015152 8.359102 -170.861858
8.935838 8.429045 -170.863224
8.856523 8.498989 -170.864590
8.714742 8.488427 -170.868379
8.635428 8.558370 -170.869745
8.556113 8.628313 -170.871111
8.414332 8.617752 -170.874900
8.335018 8.687695 -170.876266
8.193237 8.677133 -170.880056
8.113923 8.747076 -170.881422
7.972142 8.736515 -170.885211
7.892827 8.806458 -170.886577
7.813513 8.876401 -170.887943
7.734198 8.946344 -170.889309
7.654883 9.016287 -170.890675
7.513103 9.005726 -170.894464
7.433788 9.075669 -170.895830
7.292008 9.065107 -170.899619
7.212693 9.135050 -170.900985
7.070913 9.124489 -170.904774
6.929132 9.113927 -170.908563
6.787352 9.103366 -170.912353
6.645572 9.092804 -170.916142
6.566257 9.162747 -170.917508
6.424476 9.152186 -170.921297
6.345162 9.222129 -170.922663
6.140916 9.131062 -170.928875
5.749273 8.798481 -170.942357
5.607493 8.787920 -170.946146
5.528178 8.857863 -170.947512
5.448863 8.927806 -170.948878
5.369549 8.997749 -170.950244
5.227768 8.987188 -170.954033
5.085988 8.976626 -170.957822
4.944208 8.966064 -170.961611
4.802427 8.955503 -170.965400
4.660647 8.944941 -170.969190
4.518867 8.934380 -170.972979
4.314621 8.843313 -170.979191
11.007573 6.522947 -170.845273
10.917757 6.644814 -170.844216
10.827941 6.766681 -170.843159
10.738125 6.888549 -170.842102
10.634465 6.909464 -170.843468
10.600026 7.435138 -170.832718
10.537899 7.758909 -170.826815
10.448083 7.880776 -170.825758
10.344423 7.901691 -170.827124
10.254607 8.023558 -170.826067
10.150947 8.044474 -170.827433
10.047287 8.065389 -170.828799
9.943627 8.086304 -170.830165
9.839967 8.107219 -170.831531
9.736307 8.128134 -170.832897
9.632646 8.149049 -170.834263
9.542831 8.270916 -170.833206
9.439170 8.291831 -170.834572
9.349355 8.413698 -170.833515
9.245694 8.434614 -170.834881
9.155879 8.556481 -170.833824
9.052218 8.577396 -170.835190
8.962403 8.699263 -170.834133
8.858742 8.720178 -170.835499
8.768927 8.842045 -170.834441
8.665266 8.862960 -170.835807
8.575451 8.984827 -170.834750
8.471790 9.005742 -170.836116
8.381975 9.127609 -170.835059
8.278314 9.148524 -170.836425
8.174654 9.169440 -170.837791
8.084838 9.291307 -170.836734
7.981178 9.312222 -170.838100
7.877518 9.333137 -170.839466
7.773858 9.354052 -170.840832
7.670198 9.374967 -170.842198
7.566538 9.395882 -170.843564
7.462878 9.416797 -170.844930
7.359217 9.437713 -170.846296
7.255557 9.458628 -170.847662
7.151897 9.479543 -170.849028
7.048237 9.500458 -170.850394
6.944577 9.521373 -170.851760
6.840917 9.542288 -170.853126
6.737256 9.563203 -170.854492
6.633596 9.584118 -170.855858
6.529936 9.605034 -170.857224
6.426276 9.625949 -170.858590
6.322616 9.646864 -170.859956
6.218956 9.667779 -170.861322
6.101451 9.587742 -170.865112
5.997791 9.608657 -170.866478
5.894131 9.629572 -170.867844
5.790471 9.650488 -170.869210
5.672966 9.570451 -170.872999
5.569306 9.591366 -170.874365
5.465646 9.612281 -170.875731
5.361986 9.633196 -170.877097
5.244481 9.553159 -170.880886
5.140821 9.574075 -170.882252
5.037161 9.594990 -170.883618
4.933501 9.615905 -170.884984
4.815996 9.535868 -170.888773
4.712336 9.556783 -170.890139
4.608676 9.577698 -170.891505
4.491171 9.497662 -170.895294
4.387511 9.518577 -170.896660
4.270007 9.438540 -170.900450
4.166347 9.459455 -170.901816
4.062686 9.480370 -170.903182
3.959026 9.501285 -170.904548
3.841522 9.421248 -170.908337
3.737862 9.442164 -170.909703
3.620357 9.362127 -170.913492
3.516697 9.383042 -170.914858
3.413037 9.403957 -170.916224
3.295532 9.323920 -170.920013
3.178028 9.243884 -170.923802
3.046679 9.062895 -170.930014
2.929175 8.982858 -170.933804
2.825514 9.003773 -170.935170
2.708010 8.923736 -170.938959
2.590505 8.843700 -170.942748
8.274315 9.036916 -170.894614
8.135598 9.097548 -170.893557
7.996882 9.158180 -170.892500
7.858166 9.218812 -170.891443
7.719450 9.279444 -170.890386
7.580733 9.340076 -170.889329
7.480503 9.306359 -170.890695
7.380273 9.272642 -170.892061
7.241557 9.333274 -170.891004
7.141327 9.299557 -170.892370
7.041097 9.265840 -170.893736
6.902381 9.326472 -170.892679
6.763665 9.387104 -170.891622
6.432516 9.919482 -170.878449
6.293800 9.980114 -170.877392
6.193570 9.946397 -170.878758
6.054854 10.007029 -170.877701
5.954624 9.973312 -170.879067
5.815908 10.033944 -170.878010
5.715678 10.000227 -170.879376
5.615448 9.966510 -170.880742
5.515218 9.932793 -170.882108
5.414988 9.899076 -170.883474
5.276272 9.959709 -170.882417
5.176042 9.925992 -170.883783
5.075812 9.892275 -170.885149
4.975582 9.858558 -170.886515
4.836866 9.919190 -170.885457
4.736636 9.885473 -170.886823
4.636406 9.851756 -170.888189
4.536176 9.818039 -170.889555
4.435946 9.784322 -170.890922
4.297230 9.844954 -170.889864
4.197000 9.811237 -170.891230
4.096770 9.777520 -170.892596
3.996540 9.743803 -170.893962
3.896310 9.710086 -170.895328
3.796080 9.676369 -170.896694
3.695850 9.642652 -170.898060
3.595620 9.608935 -170.899427
3.495390 9.575218 -170.900793
3.356674 9.635850 -170.899735
3.256444 9.602133 -170.901101
3.156214 9.568416 -170.902467
3.055984 9.534699 -170.903833
2.955754 9.500982 -170.905199
2.855524 9.467265 -170.906566
2.755294 9.433548 -170.907932
2.655065 9.399831 -170.909298
2.554835 9.366114 -170.910664
2.454605 9.332397 -170.912030
2.354375 9.298680 -170.913396
2.254145 9.264963 -170.914762
2.153915 9.231246 -170.916128
2.053685 9.197529 -170.917494
1.953455 9.163812 -170.918860
1.891712 9.035746 -170.922649
1.791482 9.002029 -170.924015
1.691252 8.968312 -170.925381
1.591022 8.934595 -170.926747
1.490792 8.900878 -170.928113
1.390562 8.867161 -170.929479
1.290332 8.833444 -170.930845
1.190102 8.799727 -170.932211
1.089872 8.766010 -170.933577
0.989642 8.732293 -170.934943
0.889412 8.698576 -170.936309
0.789182 8.664859 -170.937675
0.688952 8.631142 -170.939041
0.588723 8.597425 -170.940407
0.526979 8.469359 -170.944196
0.426749 8.435642 -170.945562
0.326519 8.401925 -170.946928
0.264776 8.273859 -170.950717
0.164546 8.240142 -170.952083
0.102802 8.112075 -170.955872
0.002572 8.078358 -170.957238
0.133261 7.478547 -170.973143
0.033031 7.444830 -170.974509
-0.067199 7.411113 -170.975875
-0.167429 7.377396 -170.977241
1.833104 9.656237 -170.946475
1.682657 9.639388 -170.945418
1.532209 9.622539 -170.944361
1.462266 9.543224 -170.945727
1.311818 9.526375 -170.944670
1.241875 9.447060 -170.946036
1.171931 9.367746 -170.947402
1.101988 9.288431 -170.948768
0.951540 9.271582 -170.947710
0.801093 9.254733 -170.946653
0.650645 9.237884 -170.945596
0.500197 9.221034 -170.944539
0.430254 9.141720 -170.945905
0.360311 9.062405 -170.947271
0.290367 8.983090 -170.948637
0.220424 8.903776 -170.950003
0.069976 8.886927 -170.948946
0.000033 8.807612 -170.950312
-0.150415 8.790763 -170.949255
-0.300862 8.773914 -170.948198
-0.370806 8.694599 -170.949564
-0.440749 8.615284 -170.950930
-0.591197 8.598435 -170.949873
-0.661140 8.519120 -170.951239
-0.731083 8.439806 -170.952605
-0.801026 8.360491 -170.953971
-0.870969 8.281176 -170.955337
-1.021417 8.264327 -170.954280
-1.091360 8.185013 -170.955646
-1.161303 8.105698 -170.957012
-1.231246 8.026383 -170.958378
-1.301190 7.947068 -170.959744
-1.371133 7.867754 -170.961110
-1.441076 7.788439 -170.962476
-1.511019 7.709124 -170.963842
-1.580962 7.629810 -170.965208
-1.650905 7.550495 -170.966574
-1.801353 7.533646 -170.965517
-1.871296 7.454331 -170.966883
-1.941240 7.375017 -170.968249
-2.011183 7.295702 -170.969615
-2.081126 7.216387 -170.970981
-2.151069 7.137072 -170.972347
-2.221012 7.057758 -170.973713
-2.290955 6.978443 -170.975079
-2.360898 6.899128 -170.976445
-2.430842 6.819814 -170.977811
-2.420280 6.678033 -170.981600
-2.490223 6.598719 -170.982966
-2.560166 6.519404 -170.984332
-2.630110 6.440089 -170.985698
-2.700053 6.360775 -170.987064
-2.769996 6.281460 -170.988430
-2.839939 6.202145 -170.989796
-2.829378 6.060365 -170.993585
-2.899321 5.981050 -170.994951
-2.969264 5.901736 -170.996317
-3.039207 5.822421 -170.997683
-3.109150 5.743106 -170.999049
-3.179093 5.663792 -171.000415
-3.249036 5.584477 -171.001781
-3.318980 5.505162 -171.003147
-3.308418 5.363382 -171.006937
-3.378361 5.284067 -171.008303
-3.448304 5.204753 -171.009669
-3.437743 5.062973 -171.013458
-3.507686 4.983658 -171.014824
-3.577629 4.904343 -171.016190
-3.647572 4.825028 -171.017556
-3.637011 4.683248 -171.021345
-3.706954 4.603934 -171.022711
-3.776897 4.524619 -171.024077
-3.766336 4.382839 -171.027866
-3.836279 4.303524 -171.029232
-3.825717 4.161744 -171.033021
-3.895660 4.082429 -171.034387
-3.885099 3.940649 -171.038176
-3.955042 3.861334 -171.039542
-3.944481 3.719554 -171.043332
-3.933919 3.577774 -171.047121
-4.003862 3.498459 -171.048487
-4.004428 3.950898 -171.023411
-4.126295 3.861082 -171.022354
-4.248162 3.771266 -171.021297
-4.370029 3.681451 -171.020240
-4.491896 3.591635 -171.019183
-4.613763 3.501819 -171.018125
-4.634678 3.398159 -171.019492
-4.655593 3.294499 -171.020858
-4.676509 3.190838 -171.022224
-4.697424 3.087178 -171.023590
-4.819291 2.997362 -171.022532
-4.840206 2.893702 -171.023898
-4.962073 2.803886 -171.022841
-4.982988 2.700226 -171.024207
-5.003903 2.596566 -171.025573
-5.125770 2.506750 -171.024516
-5.146685 2.403090 -171.025882
-5.167600 2.299430 -171.027248
-5.188516 2.195770 -171.028614
-5.209431 2.092110 -171.029980
-5.230346 1.988449 -171.031346
-5.251261 1.884789 -171.032712
-5.272176 1.781129 -171.034078
-5.293091 1.677469 -171.035444
-5.314006 1.573809 -171.036810
-5.334922 1.470149 -171.038176
-5.355837 1.366489 -171.039542
-5.376752 1.262828 -171.040908
-5.397667 1.159168 -171.042274
-5.418582 1.055508 -171.043640
-5.338545 0.938004 -171.047430
-5.359460 0.834343 -171.048796
-5.380376 0.730683 -171.050162
-5.300339 0.613179 -171.053951
-5.220302 0.495674 -171.057740
-5.241217 0.392014 -171.059106
-5.363084 0.302198 -171.058049
-5.383999 0.198538 -171.059415
-5.404914 0.094878 -171.060781
-5.425830 -0.008782 -171.062147
-5.446745 -0.112442 -171.063513
-5.467660 -0.216103 -171.064879
-5.387623 -0.333607 -171.068668
-5.408538 -0.437267 -171.070034
-5.429453 -0.540927 -171.071400
-5.349417 -0.658432 -171.075189
-5.370332 -0.762092 -171.076555
-5.391247 -0.865752 -171.077921
-5.412162 -0.969412 -171.079287
-5.433077 -1.073072 -171.080653
-5.453992 -1.176733 -171.082019
-5.474907 -1.280393 -171.083385
-5.394871 -1.397897 -171.087174
-5.415786 -1.501557 -171.088541
-5.436701 -1.605218 -171.089907
-5.457616 -1.708878 -171.091273
-5.377579 -1.826382 -171.095062
-5.398494 -1.930042 -171.096428
-5.419409 -2.033703 -171.097794
-5.440325 -2.137363 -171.099160
-5.360288 -2.254867 -171.102949
-5.381203 -2.358527 -171.104315
-5.301166 -2.476032 -171.108104
-6.029593 0.610326 -171.010856
-5.995876 0.510096 -171.012222
-6.056508 0.371380 -171.011165
-6.117140 0.232664 -171.010108
-6.177772 0.093947 -171.009051
-6.238405 -0.044769 -171.007994
-6.299037 -0.183485 -171.006937
-6.265320 -0.283715 -171.008303
-6.325952 -0.422431 -171.007245
-6.292235 -0.522661 -171.008612
-6.258518 -0.622891 -171.009978
-6.224801 -0.723121 -171.011344
-6.191084 -0.823351 -171.012710
-6.157367 -0.923581 -171.014076
-6.123650 -1.023811 -171.015442
-6.089933 -1.124041 -171.016808
-6.056216 -1.224271 -171.018174
-6.022499 -1.324501 -171.019540
-6.083131 -1.463217 -171.018483
-6.049414 -1.563447 -171.019849
-6.015697 -1.663677 -171.021215
-5.981980 -1.763907 -171.022581
-5.948263 -1.864137 -171.023947
-5.914546 -1.964367 -171.025313
-5.880829 -2.064597 -171.026679
-5.847112 -2.164826 -171.028045
-5.813395 -2.265056 -171.029411
-5.779678 -2.365286 -171.030777
-5.745961 -2.465516 -171.032143
-5.712244 -2.565746 -171.033509
-5.678527 -2.665976 -171.034875
-5.644810 -2.766206 -171.036241
-5.516744 -2.827950 -171.040030
-5.483027 -2.928179 -171.041396
-5.449310 -3.028409 -171.042762
-5.415593 -3.128639 -171.044128
-5.381876 -3.228869 -171.045494
-5.348159 -3.329099 -171.046860
-5.314442 -3.429329 -171.048226
-5.280725 -3.529559 -171.049592
-5.247008 -3.629789 -171.050958
-5.213291 -3.730019 -171.052324
-5.179574 -3.830249 -171.053690
-5.145857 -3.930479 -171.055056
-5.112140 -4.030709 -171.056422
-4.984074 -4.092452 -171.060211
-4.950357 -4.192682 -171.061577
-4.916640 -4.292912 -171.062943
-4.788574 -4.354656 -171.066732
-4.754857 -4.454885 -171.068098
-4.721140 -4.555115 -171.069464
-4.593073 -4.616859 -171.073254
-4.559356 -4.717089 -171.074620
-4.525639 -4.817319 -171.075986
-4.397573 -4.879062 -171.079775
-4.363856 -4.979292 -171.081141
-4.235790 -5.041036 -171.084930
-4.202073 -5.141266 -171.086296
-4.074007 -5.203009 -171.090085
-3.945941 -5.264753 -171.093874
-3.912224 -5.364983 -171.095240
-3.784158 -5.426726 -171.099029
-3.750441 -5.526956 -171.100395
-3.622375 -5.588700 -171.104184
-3.588658 -5.688930 -171.105551
-3.366243 -5.712187 -171.111763
-3.332526 -5.812417 -171.113129
-3.298809 -5.912647 -171.114495
-3.265092 -6.012877 -171.115861
-3.231375 -6.113107 -171.117227
-3.197658 -6.213336 -171.118593
-3.163941 -6.313566 -171.119959
-3.130224 -6.413796 -171.121325
-3.002157 -6.475540 -171.125114
-5.974063 -1.685176 -171.007197
-5.957214 -1.835624 -171.006140
-6.002831 -2.066577 -171.002660
-6.048447 -2.297529 -170.999180
-6.094063 -2.528482 -170.995700
-6.077214 -2.678930 -170.994642
-5.997900 -2.748873 -170.996008
-5.981050 -2.899321 -170.994951
-5.901736 -2.969264 -170.996317
-5.884887 -3.119712 -170.995260
-5.805572 -3.189655 -170.996626
-5.788723 -3.340103 -170.995569
-5.709408 -3.410046 -170.996935
-5.692559 -3.560494 -170.995878
-5.613244 -3.630437 -170.997244
-5.533930 -3.700380 -170.998610
-5.454615 -3.770323 -170.999976
-5.437766 -3.920771 -170.998919
-5.358451 -3.990714 -171.000285
-5.279136 -4.060657 -171.001651
-5.199822 -4.130600 -171.003017
-5.120507 -4.200544 -171.004383
-5.103658 -4.350991 -171.003326
-5.024343 -4.420935 -171.004692
-4.945029 -4.490878 -171.006058
-4.928179 -4.641326 -171.005001
-4.848865 -4.711269 -171.006367
-4.832016 -4.861717 -171.005310
-4.752701 -4.931660 -171.006676
-4.673386 -5.001603 -171.008042
-4.594071 -5.071546 -171.009408
-4.514757 -5.141489 -171.010774
-4.497908 -5.291937 -171.009717
-4.418593 -5.361880 -171.011083
-4.401744 -5.512328 -171.010026
-4.322429 -5.582271 -171.011392
-4.243114 -5.652214 -171.012758
-4.163800 -5.722158 -171.014124
-4.084485 -5.792101 -171.015490
-4.067636 -5.942549 -171.014433
-3.988321 -6.012492 -171.015799
-3.909007 -6.082435 -171.017165
-3.892157 -6.232883 -171.016108
-3.812843 -6.302826 -171.017474
-3.733528 -6.372769 -171.018840
-3.654213 -6.442712 -171.020206
-3.637364 -6.593160 -171.019148
-3.558050 -6.663103 -171.020515
-3.541200 -6.813551 -171.019457
-3.461886 -6.883494 -171.020823
-3.382571 -6.953437 -171.022189
-3.365722 -7.103885 -171.021132
-3.286407 -7.173828 -171.022498
-3.207092 -7.243771 -171.023864
-3.127778 -7.313715 -171.025230
-3.048463 -7.383658 -171.026596
-3.031614 -7.534106 -171.025539
-2.952299 -7.604049 -171.026905
-2.872985 -7.673992 -171.028271
-2.793670 -7.743935 -171.029637
-2.714355 -7.813878 -171.031003
-2.635041 -7.883821 -171.032369
-2.555726 -7.953765 -171.033735
-2.476411 -8.023708 -171.035101
-2.459562 -8.174156 -171.034044
-2.380247 -8.244099 -171.035410
-2.300933 -8.314042 -171.036776
-2.221618 -8.383985 -171.038142
-2.142303 -8.453928 -171.039508
-2.062989 -8.523871 -171.040874
-1.983674 -8.593815 -171.042240
-1.904359 -8.663758 -171.043606
-1.825045 -8.733701 -171.044972
-1.745730 -8.803644 -171.046338
-1.666415 -8.873587 -171.047704
-1.587100 -8.943530 -171.049070
-1.507786 -9.013473 -171.050436
-1.428471 -9.083417 -171.051802
-1.349156 -9.153360 -171.053169
-1.269842 -9.223303 -171.054535
-1.190527 -9.293246 -171.055901
-1.173678 -9.443694 -171.054843
-1.094363 -9.513637 -171.056209
-1.015049 -9.583580 -171.057575
-0.935734 -9.653523 -171.058941
-0.856419 -9.723467 -171.060307
-0.714639 -9.712905 -171.064097
-0.635324 -9.782848 -171.065463
-0.556010 -9.852791 -171.066829
-0.476695 -9.922735 -171.068195
-0.397380 -9.992678 -171.069561
-0.318066 -10.062621 -171.070927
-0.238751 -10.132564 -171.072293
-0.159436 -10.202507 -171.073659
-0.080121 -10.272450 -171.075025
-0.000807 -10.342393 -171.076391
0.078508 -10.412337 -171.077757
0.157823 -10.482280 -171.079123
0.237137 -10.552223 -171.080489
0.316452 -10.622166 -171.081855
0.395767 -10.692109 -171.083221
0.475081 -10.762052 -171.084587
0.554396 -10.831996 -171.085953
0.633711 -10.901939 -171.087319
0.775491 -10.891377 -171.091108
0.854806 -10.961320 -171.092474
0.934120 -11.031264 -171.093840
1.013435 -11.101207 -171.095206
1.092750 -11.171150 -171.096572
1.172064 -11.241093 -171.097938
1.251379 -11.311036 -171.099304
1.330694 -11.380979 -171.100670
1.410008 -11.450922 -171.102036
1.489323 -11.520866 -171.103402
1.568638 -11.590809 -171.104768
1.647952 -11.660752 -171.106134
1.727267 -11.730695 -171.107500
1.869047 -11.720134 -171.111289
1.948362 -11.790077 -171.112655
2.090142 -11.779515 -171.116445
2.231923 -11.768954 -171.120234
2.373703 -11.758392 -171.124023
2.453017 -11.828335 -171.125389
2.594798 -11.817774 -171.129178
2.736578 -11.807212 -171.132967
2.878358 -11.796651 -171.136756
3.082604 -11.705584 -171.142969
3.161919 -11.775528 -171.144335
3.303699 -11.764966 -171.148124
3.383014 -11.834909 -171.149490
3.524794 -11.824348 -171.153279
3.604108 -11.894291 -171.154645
3.745889 -11.883729 -171.158434
3.887669 -11.873168 -171.162223
4.029449 -11.862606 -171.166012
4.171229 -11.852045 -171.169801
-4.455699 -5.355009 -170.985389
-4.379728 -5.577828 -170.981909
-4.276067 -5.598743 -170.983275
-4.186252 -5.720610 -170.982218
-4.082591 -5.741526 -170.983584
-3.992776 -5.863393 -170.982527
-3.889115 -5.884308 -170.983893
-3.799300 -6.006175 -170.982836
-3.695639 -6.027090 -170.984202
-3.647357 -6.451813 -170.975875
-3.557541 -6.573680 -170.974818
-3.467725 -6.695547 -170.973761
-3.377909 -6.817414 -170.972704
-3.288093 -6.939281 -170.971647
-3.198277 -7.061148 -170.970590
-3.122306 -7.283967 -170.967109
-3.032490 -7.405834 -170.966052
-2.942674 -7.527701 -170.964995
-2.852858 -7.649568 -170.963938
-2.749198 -7.670483 -170.965304
-2.659382 -7.792350 -170.964247
-2.569567 -7.914217 -170.963190
-2.465906 -7.935132 -170.964556
-2.362246 -7.956048 -170.965922
-2.272430 -8.077915 -170.964865
-2.182615 -8.199782 -170.963808
-2.078955 -8.220697 -170.965174
-1.989139 -8.342564 -170.964117
-1.885479 -8.363479 -170.965483
-1.795663 -8.485346 -170.964426
-1.692003 -8.506261 -170.965792
-1.602187 -8.628128 -170.964735
-1.526215 -8.850947 -170.961254
-1.436399 -8.972814 -170.960197
-1.346584 -9.094681 -170.959140
-1.256768 -9.216548 -170.958083
-1.166952 -9.338415 -170.957026
-1.077136 -9.460282 -170.955969
-0.987320 -9.582149 -170.954912
-0.897504 -9.704016 -170.953855
-0.807689 -9.825883 -170.952797
-0.717873 -9.947750 -170.951740
-0.614213 -9.968666 -170.953106
-0.524397 -10.090533 -170.952049
-0.420737 -10.111448 -170.953415
-0.330921 -10.233315 -170.952358
-0.227261 -10.254230 -170.953724
-0.123600 -10.275145 -170.955090
-0.019940 -10.296060 -170.956456
0.069876 -10.417927 -170.955399
0.159691 -10.539794 -170.954342
0.263352 -10.560709 -170.955708
0.353167 -10.682577 -170.954651
0.442983 -10.804444 -170.953594
0.546643 -10.825359 -170.954960
0.636459 -10.947226 -170.953903
0.726275 -11.069093 -170.952846
0.829935 -11.090008 -170.954212
0.933595 -11.110923 -170.955578
1.023411 -11.232790 -170.954520
1.127071 -11.253705 -170.955886
1.230732 -11.274620 -170.957253
1.320547 -11.396487 -170.956195
1.424208 -11.417403 -170.957561
1.527868 -11.438318 -170.958927
1.617684 -11.560185 -170.957870
1.707499 -11.682052 -170.956813
1.811160 -11.702967 -170.958179
1.914820 -11.723882 -170.959545
2.004636 -11.845749 -170.958488
2.108296 -11.866664 -170.959854
2.211956 -11.887579 -170.961220
2.315616 -11.908494 -170.962586
2.419276 -11.929410 -170.963952
2.522936 -11.950325 -170.965318
2.612752 -12.072192 -170.964261
2.716412 -12.093107 -170.965627
2.820072 -12.114022 -170.966993
2.923733 -12.134937 -170.968359
3.027393 -12.155852 -170.969725
3.131053 -12.176767 -170.971091
3.234713 -12.197683 -170.972457
3.338373 -12.218598 -170.973823
3.442033 -12.239513 -170.975189
3.545694 -12.260428 -170.976555
3.649354 -12.281343 -170.977921
3.753014 -12.302258 -170.979287
3.856674 -12.323173 -170.980653
3.960334 -12.344088 -170.982019
4.063994 -12.365004 -170.983385
4.167655 -12.385919 -170.984751
4.285159 -12.305882 -170.988540
4.388819 -12.326797 -170.989907
4.492479 -12.347712 -170.991273
4.596139 -12.368627 -170.992639
4.699800 -12.389542 -170.994005
4.803460 -12.410458 -170.995371
4.907120 -12.431373 -170.996737
5.010780 -12.452288 -170.998103
5.114440 -12.473203 -170.999469
5.231945 -12.393166 -171.003258
5.335605 -12.414081 -171.004624
5.439265 -12.434996 -171.005990
5.556770 -12.354960 -171.009779
5.660430 -12.375875 -171.011145
5.764090 -12.396790 -171.012511
5.881594 -12.316753 -171.016300
5.999099 -12.236716 -171.020089
6.144292 -11.954776 -171.028725
6.261797 -11.874739 -171.032514
6.393145 -11.693750 -171.038726
6.510650 -11.613714 -171.042515
6.655843 -11.331773 -171.051151
6.787192 -11.150784 -171.057363
6.904696 -11.070747 -171.061152
7.008356 -11.091663 -171.062518
7.112017 -11.112578 -171.063884
7.229521 -11.032541 -171.067673
7.347026 -10.952504 -171.071462
7.464530 -10.872467 -171.075251
-0.173400 -10.174445 -170.898905
0.003802 -10.329426 -170.895425
0.142519 -10.390058 -170.894368
0.281235 -10.450690 -170.893311
0.419951 -10.511322 -170.892253
0.597154 -10.666303 -170.888773
0.735870 -10.726935 -170.887716
0.836100 -10.693218 -170.889082
0.974816 -10.753851 -170.888025
1.113533 -10.814483 -170.886968
1.367708 -11.158162 -170.878641
1.506424 -11.218794 -170.877584
1.645141 -11.279426 -170.876527
1.822343 -11.434408 -170.873047
1.999546 -11.589389 -170.869567
2.176749 -11.744370 -170.866086
2.353951 -11.899351 -170.862606
2.454181 -11.865634 -170.863972
2.592898 -11.926266 -170.862915
2.731614 -11.986899 -170.861858
2.870330 -12.047531 -170.860801
3.047533 -12.202512 -170.857321
3.186249 -12.263144 -170.856264
3.286479 -12.229427 -170.857630
3.425195 -12.290059 -170.856573
3.525425 -12.256342 -170.857939
3.664142 -12.316974 -170.856881
3.802858 -12.377606 -170.855824
3.903088 -12.343889 -170.857190
4.041804 -12.404521 -170.856133
4.142034 -12.370804 -170.857499
4.242264 -12.337087 -170.858865
4.342494 -12.303370 -170.860231
4.481210 -12.364003 -170.859174
4.581440 -12.330286 -170.860540
4.720156 -12.390918 -170.859483
4.820386 -12.357201 -170.860849
4.959103 -12.417833 -170.859792
5.059333 -12.384116 -170.861158
5.159563 -12.350399 -170.862524
5.259792 -12.316682 -170.863890
5.360022 -12.282965 -170.865256
5.460252 -12.249248 -170.866622
5.560482 -12.215531 -170.867988
5.660712 -12.181814 -170.869354
5.760942 -12.148097 -170.870720
5.861172 -12.114380 -170.872086
5.999888 -12.175012 -170.871029
6.100118 -12.141295 -170.872395
6.200348 -12.107578 -170.873761
6.300578 -12.073861 -170.875127
6.400808 -12.040144 -170.876493
6.462551 -11.912078 -170.880282
6.562781 -11.878361 -170.881648
6.663011 -11.844644 -170.883014
6.724755 -11.716578 -170.886803
6.824985 -11.682861 -170.888169
6.886728 -11.554795 -170.891959
6.986958 -11.521078 -170.893325
7.048702 -11.393011 -170.897114
7.148932 -11.359294 -170.898480
7.210675 -11.231228 -170.902269
7.310905 -11.197511 -170.903635
7.411135 -11.163794 -170.905001
7.511365 -11.130077 -170.906367
7.573109 -11.002011 -170.910156
7.673339 -10.968294 -170.911522
7.773568 -10.934577 -170.912888
7.873798 -10.900860 -170.914254
7.974028 -10.867143 -170.915620
8.035772 -10.739077 -170.919409
8.136002 -10.705360 -170.920775
8.236232 -10.671643 -170.922141
8.336462 -10.637926 -170.923507
8.436692 -10.604209 -170.924873
8.498435 -10.476143 -170.928662
8.598665 -10.442426 -170.930028
8.698895 -10.408709 -170.931394
8.760638 -10.280643 -170.935184
8.860868 -10.246926 -170.936550
8.961098 -10.213209 -170.937916
9.061328 -10.179492 -170.939282
9.161558 -10.145775 -170.940648
9.261788 -10.112058 -170.942014
9.362018 -10.078341 -170.943380
9.462248 -10.044624 -170.944746
9.562478 -10.010907 -170.946112
9.662708 -9.977190 -170.947478
9.762938 -9.943473 -170.948844
9.863168 -9.909756 -170.950210
9.963398 -9.876039 -170.951576
10.063627 -9.842322 -170.952942
10.163857 -9.808605 -170.954308
10.264087 -9.774888 -170.955674
10.364317 -9.741171 -170.957040
10.464547 -9.707454 -170.958406
10.526291 -9.579388 -170.962195
10.626521 -9.545671 -170.963561
10.726751 -9.511954 -170.964927
10.826980 -9.478237 -170.966293
10.927210 -9.444520 -170.967659
10.988954 -9.316454 -170.971448
11.089184 -9.282737 -170.972814
11.189414 -9.249020 -170.974180
11.289644 -9.215303 -170.975546
11.389874 -9.181586 -170.976912
11.490104 -9.147869 -170.978278
11.590333 -9.114152 -170.979644
11.652077 -8.986086 -170.983433
11.752307 -8.952369 -170.984799
11.814051 -8.824302 -170.988589
11.914280 -8.790585 -170.989955
11.976024 -8.662519 -170.993744
12.076254 -8.628802 -170.995110
12.176484 -8.595085 -170.996476
12.276714 -8.561368 -170.997842
12.338457 -8.433302 -171.001631
12.361714 -8.210887 -171.007843
12.423458 -8.082821 -171.011632
12.485202 -7.954755 -171.015422
12.585431 -7.921038 -171.016788
12.685661 -7.887321 -171.018154
12.747405 -7.759255 -171.021943
12.809148 -7.631189 -171.025732
12.755433 -7.220075 -171.036790
12.817176 -7.092009 -171.040579
12.878920 -6.963943 -171.044369
12.940664 -6.835877 -171.048158
12.963921 -6.613462 -171.054370
