ply
format ascii 1.0
element vertex 1438
property float x
property float y
property float z
element face 0
property list uchar uint vertex_indices
end_header
4.147952 -12.560475 -169.811576
4.298399 -12.543626 -169.810519
4.368343 -12.464312 -169.811885
4.518790 -12.447462 -169.810828
4.749743 -12.493079 -169.807348
4.900191 -12.476230 -169.806291
5.211648 -12.584312 -169.800387
5.362096 -12.567462 -169.799330
5.512544 -12.550613 -169.798273
5.582487 -12.471299 -169.799639
5.732935 -12.454450 -169.798582
5.963887 -12.500066 -169.795102
6.114335 -12.483217 -169.794045
6.264783 -12.466368 -169.792988
6.334726 -12.387053 -169.794354
6.485174 -12.370204 -169.793296
6.555117 -12.290889 -169.794663
6.625060 -12.211574 -169.796029
6.775508 -12.194725 -169.794971
6.845451 -12.115411 -169.796337
6.915394 -12.036096 -169.797703
6.985338 -11.956781 -169.799069
7.055281 -11.877467 -169.800435
7.205729 -11.860617 -169.799378
7.275672 -11.781303 -169.800744
7.426120 -11.764454 -169.799687
7.496063 -11.685139 -169.801053
7.646511 -11.668290 -169.799996
7.716454 -11.588975 -169.801362
7.786397 -11.509660 -169.802728
7.856340 -11.430346 -169.804094
7.926283 -11.351031 -169.805460
7.996226 -11.271716 -169.806826
8.066169 -11.192402 -169.808192
8.136113 -11.113087 -169.809558
8.206056 -11.033772 -169.810924
8.356504 -11.016923 -169.809867
8.426447 -10.937608 -169.811233
8.496390 -10.858294 -169.812599
8.566333 -10.778979 -169.813965
8.716781 -10.762130 -169.812908
8.786724 -10.682815 -169.814274
8.937172 -10.665966 -169.813217
9.007115 -10.586651 -169.814583
9.157563 -10.569802 -169.813526
9.227506 -10.490488 -169.814892
9.297449 -10.411173 -169.816258
9.447897 -10.394324 -169.815201
9.517840 -10.315009 -169.816567
9.668288 -10.298160 -169.815510
9.738231 -10.218845 -169.816876
9.808174 -10.139531 -169.818242
9.958622 -10.122681 -169.817185
10.028565 -10.043367 -169.818551
10.098509 -9.964052 -169.819917
10.248956 -9.947203 -169.818860
10.318900 -9.867888 -169.820226
10.388843 -9.788573 -169.821592
10.539291 -9.771724 -169.820535
10.609234 -9.692410 -169.821901
10.759682 -9.675561 -169.820843
10.829625 -9.596246 -169.822209
10.980073 -9.579397 -169.821152
11.130520 -9.562548 -169.820095
11.200464 -9.483233 -169.821461
11.350911 -9.466384 -169.820404
11.420855 -9.387069 -169.821770
11.571302 -9.370220 -169.820713
11.641246 -9.290905 -169.822079
11.711189 -9.211590 -169.823445
11.781132 -9.132276 -169.824811
11.851075 -9.052961 -169.826177
12.001523 -9.036112 -169.825120
12.071466 -8.956797 -169.826486
12.141409 -8.877483 -169.827852
12.211352 -8.798168 -169.829218
12.281295 -8.718853 -169.830584
12.431743 -8.702004 -169.829527
12.501686 -8.622689 -169.830893
12.571630 -8.543375 -169.832259
12.641573 -8.464060 -169.833625
12.792021 -8.447211 -169.832568
12.861964 -8.367896 -169.833934
12.931907 -8.288582 -169.835300
13.001850 -8.209267 -169.836666
13.071793 -8.129952 -169.838032
13.141736 -8.050637 -169.839398
13.131175 -7.908857 -169.843187
13.201118 -7.829543 -169.844553
13.271061 -7.750228 -169.845919
13.341004 -7.670913 -169.847285
13.410948 -7.591598 -169.848651
13.400386 -7.449818 -169.852440
13.389824 -7.308038 -169.856230
13.459768 -7.228723 -169.857596
13.529711 -7.149409 -169.858962
13.599654 -7.070094 -169.860328
13.589092 -6.928314 -169.864117
13.659036 -6.848999 -169.865483
13.728979 -6.769684 -169.866849
13.718417 -6.627904 -169.870638
13.788360 -6.548589 -169.872004
13.777799 -6.406809 -169.875793
13.767237 -6.265029 -169.879582
13.756676 -6.123249 -169.883371
13.665610 -5.919003 -169.889584
13.574543 -5.714757 -169.895796
13.563982 -5.572977 -169.899585
13.553420 -5.431197 -169.903374
13.542859 -5.289417 -169.907163
13.129774 -4.835309 -169.923068
13.119212 -4.693528 -169.926857
13.028146 -4.489283 -169.933069
12.695566 -4.097640 -169.946551
12.765509 -4.018326 -169.947917
12.754947 -3.876545 -169.951706
12.824891 -3.797231 -169.953072
12.814329 -3.655450 -169.956861
12.803768 -3.513670 -169.960651
12.310178 -2.997097 -169.978978
12.299616 -2.855316 -169.982768
12.289055 -2.713536 -169.986557
12.278493 -2.571756 -169.990346
12.267932 -2.429976 -169.994135
12.257370 -2.288196 -169.997924
12.166304 -2.083950 -170.004136
12.155743 -1.942170 -170.007925
11.903667 -1.612993 -170.018984
11.893105 -1.471213 -170.022773
7.243278 -12.065113 -169.811171
7.365145 -11.975297 -169.810114
7.487013 -11.885481 -169.809057
7.608880 -11.795665 -169.808000
7.629795 -11.692005 -169.809366
7.751662 -11.602189 -169.808309
7.772577 -11.498529 -169.809675
7.894444 -11.408713 -169.808618
7.915359 -11.305053 -169.809984
7.936274 -11.201393 -169.811350
8.058141 -11.111577 -169.810292
8.280960 -11.035606 -169.806812
8.402827 -10.945790 -169.805755
8.423742 -10.842130 -169.807121
8.545609 -10.752314 -169.806064
8.667476 -10.662498 -169.805007
8.991247 -10.600371 -169.799104
9.214066 -10.524399 -169.795623
9.335933 -10.434584 -169.794566
9.558752 -10.358612 -169.791086
9.680619 -10.268796 -169.790029
9.802486 -10.178980 -169.788972
10.025305 -10.103009 -169.785492
10.147172 -10.013193 -169.784434
10.369991 -9.937222 -169.780954
10.491858 -9.847406 -169.779897
10.714677 -9.771434 -169.776417
10.836544 -9.681618 -169.775360
10.958411 -9.591803 -169.774303
11.080278 -9.501987 -169.773246
11.404049 -9.439860 -169.767342
11.525916 -9.350044 -169.766285
11.647783 -9.260228 -169.765228
11.870602 -9.184256 -169.761748
11.992469 -9.094441 -169.760691
12.013385 -8.990780 -169.762057
12.135252 -8.900965 -169.761000
12.459022 -8.838837 -169.755096
12.580889 -8.749022 -169.754039
12.702757 -8.659206 -169.752982
12.723672 -8.555546 -169.754348
12.845539 -8.465730 -169.753291
12.866454 -8.362070 -169.754657
12.988321 -8.272254 -169.753600
13.009236 -8.168594 -169.754966
13.030151 -8.064933 -169.756332
13.152018 -7.975118 -169.755275
13.172933 -7.871457 -169.756641
13.193848 -7.767797 -169.758007
13.214764 -7.664137 -169.759373
13.235679 -7.560477 -169.760739
13.357546 -7.470661 -169.759682
13.378461 -7.367001 -169.761048
13.500328 -7.277185 -169.759991
13.622195 -7.187369 -169.758933
13.643110 -7.083709 -169.760299
13.664025 -6.980049 -169.761665
13.785892 -6.890233 -169.760608
13.806807 -6.786573 -169.761974
13.827723 -6.682913 -169.763340
13.848638 -6.579253 -169.764706
13.869553 -6.475593 -169.766072
13.991420 -6.385777 -169.765015
14.012335 -6.282117 -169.766381
14.033250 -6.178456 -169.767747
14.054165 -6.074796 -169.769113
14.075080 -5.971136 -169.770479
14.095996 -5.867476 -169.771845
14.116911 -5.763816 -169.773211
14.036874 -5.646311 -169.777001
14.057789 -5.542651 -169.778367
13.977752 -5.425147 -169.782156
13.897715 -5.307642 -169.785945
13.817679 -5.190138 -169.789734
13.737642 -5.072633 -169.793523
13.657605 -4.955129 -169.797312
13.577568 -4.837624 -169.801101
13.497532 -4.720120 -169.804891
13.518447 -4.616460 -169.806257
13.438410 -4.498955 -169.810046
13.459325 -4.395295 -169.811412
13.379288 -4.277790 -169.815201
13.400203 -4.174130 -169.816567
13.421118 -4.070470 -169.817933
13.442034 -3.966810 -169.819299
13.361997 -3.849305 -169.823088
13.281960 -3.731801 -169.826877
13.302875 -3.628141 -169.828243
13.222838 -3.510636 -169.832032
13.243754 -3.406976 -169.833398
13.163717 -3.289472 -169.837188
13.184632 -3.185812 -169.838554
13.205547 -3.082151 -169.839920
13.125510 -2.964647 -169.843709
13.146425 -2.860987 -169.845075
13.066389 -2.743482 -169.848864
12.986352 -2.625978 -169.852653
12.906315 -2.508473 -169.856442
12.725326 -2.377124 -169.862654
12.645290 -2.259620 -169.866444
12.565253 -2.142115 -169.870233
12.586168 -2.038455 -169.871599
12.506131 -1.920951 -169.875388
12.527046 -1.817291 -169.876754
12.547961 -1.713630 -169.878120
12.568876 -1.609970 -169.879486
12.589792 -1.506310 -169.880852
12.509755 -1.388806 -169.884641
12.530670 -1.285146 -169.886007
12.450633 -1.167641 -169.889796
12.471548 -1.063981 -169.891162
12.391512 -0.946476 -169.894951
12.311475 -0.828972 -169.898740
12.332390 -0.725312 -169.900107
12.252353 -0.607807 -169.903896
12.273268 -0.504147 -169.905262
12.193231 -0.386643 -169.909051
12.113195 -0.269138 -169.912840
12.134110 -0.165478 -169.914206
12.054073 -0.047973 -169.917995
11.974036 0.069531 -169.921784
11.893999 0.187035 -169.925573
11.813963 0.304540 -169.929363
11.733926 0.422044 -169.933152
11.754841 0.525705 -169.934518
11.775756 0.629365 -169.935884
11.796671 0.733025 -169.937250
11.817586 0.836685 -169.938616
11.838502 0.940345 -169.939982
11.859417 1.044005 -169.941348
11.779380 1.161510 -169.945137
11.800295 1.265170 -169.946503
11.720258 1.382675 -169.950292
11.741173 1.486335 -169.951658
11.661137 1.603839 -169.955447
11.682052 1.707499 -169.956813
11.702967 1.811160 -169.958179
11.723882 1.914820 -169.959545
11.643845 2.032324 -169.963334
11.664760 2.135984 -169.964700
11.685675 2.239644 -169.966066
11.605639 2.357149 -169.969856
11.626554 2.460809 -169.971222
11.546517 2.578314 -169.975011
11.567432 2.681974 -169.976377
11.588347 2.785634 -169.977743
11.609262 2.889294 -169.979109
11.630178 2.992954 -169.980475
11.550141 3.110459 -169.984264
11.571056 3.214119 -169.985630
11.591971 3.317779 -169.986996
11.511934 3.435284 -169.990785
11.532849 3.538944 -169.992151
11.452813 3.656448 -169.995940
11.473728 3.760108 -169.997306
11.393691 3.877613 -170.001095
11.414606 3.981273 -170.002461
11.233617 4.112622 -170.008674
11.153581 4.230126 -170.012463
11.174496 4.333786 -170.013829
11.094459 4.451291 -170.017618
11.115374 4.554951 -170.018984
11.035337 4.672456 -170.022773
10.955301 4.789960 -170.026562
10.976216 4.893620 -170.027928
10.896179 5.011125 -170.031717
10.917094 5.114785 -170.033083
10.837057 5.232289 -170.036873
10.857972 5.335950 -170.038239
10.475080 5.494987 -170.049297
10.294091 5.626336 -170.055509
10.315006 5.729996 -170.056875
10.234969 5.847500 -170.060665
10.255885 5.951161 -170.062031
10.175848 6.068665 -170.065820
10.196763 6.172325 -170.067186
10.015774 6.303674 -170.073398
13.404182 -7.860646 -169.776451
13.464814 -7.721930 -169.775394
13.525446 -7.583213 -169.774337
13.586079 -7.444497 -169.773280
13.646711 -7.305781 -169.772223
14.084739 -7.013119 -169.761473
14.145371 -6.874403 -169.760416
14.206003 -6.735686 -169.759359
14.266636 -6.596970 -169.758302
14.327268 -6.458254 -169.757245
14.293551 -6.358024 -169.758611
14.354183 -6.219308 -169.757553
14.320466 -6.119078 -169.758919
14.381098 -5.980361 -169.757862
14.441730 -5.841645 -169.756805
14.502362 -5.702929 -169.755748
14.468645 -5.602699 -169.757114
14.529277 -5.463983 -169.756057
14.495560 -5.363753 -169.757423
14.461843 -5.263523 -169.758789
14.428126 -5.163293 -169.760155
14.394409 -5.063063 -169.761521
14.266343 -5.001319 -169.765310
14.232626 -4.901089 -169.766676
14.198909 -4.800859 -169.768042
14.165192 -4.700630 -169.769408
14.131475 -4.600400 -169.770774
14.097758 -4.500170 -169.772140
14.064041 -4.399940 -169.773506
14.030324 -4.299710 -169.774872
13.996607 -4.199480 -169.776238
13.962890 -4.099250 -169.777604
13.929173 -3.999020 -169.778970
13.801107 -3.937277 -169.782760
13.767390 -3.837047 -169.784126
13.733673 -3.736817 -169.785492
13.699956 -3.636587 -169.786858
13.666239 -3.536357 -169.788224
13.632522 -3.436127 -169.789590
13.598805 -3.335897 -169.790956
13.565088 -3.235667 -169.792322
13.531371 -3.135437 -169.793688
13.497654 -3.035207 -169.795054
13.463937 -2.934977 -169.796420
13.430220 -2.834747 -169.797786
13.396503 -2.734517 -169.799152
13.362786 -2.634288 -169.800518
13.329069 -2.534058 -169.801884
13.295352 -2.433828 -169.803250
13.261635 -2.333598 -169.804616
13.227918 -2.233368 -169.805982
13.194201 -2.133138 -169.807348
13.160484 -2.032908 -169.808714
13.126767 -1.932678 -169.810080
13.093050 -1.832448 -169.811446
13.059333 -1.732218 -169.812812
13.025616 -1.631988 -169.814178
12.991899 -1.531758 -169.815544
12.958182 -1.431528 -169.816910
12.924465 -1.331299 -169.818276
12.890748 -1.231069 -169.819642
12.857031 -1.130839 -169.821008
12.823314 -1.030609 -169.822374
12.789597 -0.930379 -169.823740
12.755880 -0.830149 -169.825106
12.722163 -0.729919 -169.826472
12.688446 -0.629689 -169.827838
12.654729 -0.529459 -169.829204
12.621012 -0.429229 -169.830570
12.587295 -0.328999 -169.831936
12.553578 -0.228769 -169.833302
12.519861 -0.128539 -169.834668
12.486144 -0.028310 -169.836034
12.452427 0.071920 -169.837400
12.418710 0.172150 -169.838766
12.384993 0.272380 -169.840132
12.351276 0.372610 -169.841498
12.317559 0.472840 -169.842864
12.283842 0.573070 -169.844230
12.344474 0.711786 -169.843173
12.310757 0.812016 -169.844539
12.277040 0.912246 -169.845905
12.243323 1.012476 -169.847271
12.209606 1.112706 -169.848637
12.175889 1.212936 -169.850003
12.142172 1.313166 -169.851369
12.108455 1.413396 -169.852735
12.074738 1.513626 -169.854101
12.135370 1.652342 -169.853044
12.101653 1.752572 -169.854410
12.067936 1.852802 -169.855776
12.034219 1.953032 -169.857142
12.000502 2.053262 -169.858508
11.966785 2.153492 -169.859874
12.027417 2.292208 -169.858817
11.993700 2.392438 -169.860183
11.959983 2.492668 -169.861549
11.926266 2.592898 -169.862915
11.892549 2.693128 -169.864281
11.764483 2.754871 -169.868070
11.730766 2.855101 -169.869436
11.697049 2.955331 -169.870802
11.663332 3.055561 -169.872168
11.723964 3.194277 -169.871111
11.690247 3.294507 -169.872477
11.656530 3.394737 -169.873843
11.717163 3.533453 -169.872786
11.683446 3.633683 -169.874152
11.649729 3.733913 -169.875518
11.710361 3.872629 -169.874461
11.676644 3.972859 -169.875827
11.642927 4.073089 -169.877193
11.609210 4.173319 -169.878559
11.575493 4.273549 -169.879925
11.541776 4.373779 -169.881291
11.602408 4.512495 -169.880234
11.568691 4.612725 -169.881600
11.534974 4.712955 -169.882966
11.501257 4.813185 -169.884332
11.467540 4.913415 -169.885698
11.433823 5.013645 -169.887064
11.400106 5.113875 -169.888430
11.366389 5.214105 -169.889796
11.332672 5.314335 -169.891162
11.298955 5.414565 -169.892528
11.265238 5.514795 -169.893894
11.231521 5.615025 -169.895260
11.197804 5.715254 -169.896626
11.069738 5.776998 -169.900415
11.036021 5.877228 -169.901781
11.002304 5.977458 -169.903147
10.968587 6.077688 -169.904513
10.934870 6.177918 -169.905879
10.806804 6.239661 -169.909669
10.773087 6.339891 -169.911035
10.645020 6.401635 -169.914824
10.611303 6.501865 -169.916190
10.483237 6.563608 -169.919979
10.449520 6.663838 -169.921345
10.415803 6.764068 -169.922711
10.382086 6.864298 -169.924077
10.348369 6.964528 -169.925443
10.220303 7.026271 -169.929232
10.092237 7.088015 -169.933021
9.964171 7.149758 -169.936810
9.741756 7.173016 -169.943023
9.613690 7.234759 -169.946812
9.485624 7.296503 -169.950601
9.451907 7.396733 -169.951967
9.323840 7.458476 -169.955756
9.290123 7.558706 -169.957122
9.162057 7.620450 -169.960911
9.033991 7.682193 -169.964700
8.905925 7.743937 -169.968490
8.777859 7.805680 -169.972279
8.744142 7.905910 -169.973645
8.616076 7.967654 -169.977434
8.393661 7.990911 -169.983646
8.265595 8.052655 -169.987435
8.043179 8.075912 -169.993648
13.991847 -4.164932 -169.856984
14.037463 -3.933980 -169.853504
14.270476 -3.461513 -169.842754
14.253627 -3.311065 -169.841697
14.174312 -3.241121 -169.843063
14.157463 -3.090673 -169.842006
14.078148 -3.020730 -169.843372
13.998833 -2.950787 -169.844738
13.919519 -2.880844 -169.846104
13.902669 -2.730396 -169.845047
13.823355 -2.660453 -169.846413
13.806505 -2.510005 -169.845356
13.727191 -2.440062 -169.846722
13.647876 -2.370119 -169.848088
13.631027 -2.219671 -169.847030
13.551712 -2.149728 -169.848396
13.472397 -2.079784 -169.849763
13.393082 -2.009841 -169.851129
13.376233 -1.859393 -169.850071
13.296918 -1.789450 -169.851437
13.217603 -1.719507 -169.852803
13.138288 -1.649564 -169.854169
13.058974 -1.579621 -169.855535
13.042124 -1.429173 -169.854478
12.962810 -1.359230 -169.855844
13.133357 -0.967267 -169.847518
13.116508 -0.816819 -169.846461
13.099659 -0.666371 -169.845404
13.082809 -0.515923 -169.844347
13.003494 -0.445980 -169.845713
12.924180 -0.376037 -169.847079
12.844865 -0.306094 -169.848445
12.828016 -0.155646 -169.847388
12.748701 -0.085703 -169.848754
12.731852 0.064745 -169.847696
12.652537 0.134688 -169.849062
12.573222 0.204631 -169.850428
12.556373 0.355079 -169.849371
12.477058 0.425023 -169.850737
12.460209 0.575470 -169.849680
12.380894 0.645414 -169.851046
12.364045 0.795862 -169.849989
12.409661 1.026814 -169.846509
12.392812 1.177262 -169.845452
12.313497 1.247205 -169.846818
12.296648 1.397653 -169.845761
12.217333 1.467597 -169.847127
12.138018 1.537540 -169.848493
12.121169 1.687988 -169.847436
12.041854 1.757931 -169.848802
12.025005 1.908379 -169.847745
12.070621 2.139331 -169.844264
12.053772 2.289779 -169.843207
12.036923 2.440227 -169.842150
11.957608 2.510171 -169.843516
11.940758 2.660618 -169.842459
11.986375 2.891571 -169.838979
11.969526 3.042019 -169.837922
11.890211 3.111962 -169.839288
11.873361 3.262410 -169.838231
11.794047 3.332353 -169.839597
11.714732 3.402297 -169.840963
11.697883 3.552745 -169.839906
11.805964 3.864202 -169.834002
11.726650 3.934145 -169.835368
11.709800 4.084593 -169.834311
11.630486 4.154536 -169.835677
11.613636 4.304984 -169.834620
11.534322 4.374927 -169.835986
11.517472 4.525375 -169.834929
11.500623 4.675823 -169.833872
11.421308 4.745766 -169.835238
11.404459 4.896214 -169.834181
11.387610 5.046662 -169.833124
11.370761 5.197110 -169.832066
11.353911 5.347558 -169.831009
11.337062 5.498006 -169.829952
11.257747 5.567949 -169.831318
11.240898 5.718397 -169.830261
11.161583 5.788340 -169.831627
11.144734 5.938788 -169.830570
11.065419 6.008732 -169.831936
11.048570 6.159179 -169.830879
10.969255 6.229123 -169.832245
10.952406 6.379571 -169.831188
10.873091 6.449514 -169.832554
10.856242 6.599962 -169.831497
10.776927 6.669905 -169.832863
10.760078 6.820353 -169.831806
10.680763 6.890296 -169.833172
10.663914 7.040744 -169.832115
10.584599 7.110687 -169.833481
10.505284 7.180630 -169.834847
10.425969 7.250573 -169.836213
10.409120 7.401021 -169.835156
10.329805 7.470964 -169.836522
10.250490 7.540908 -169.837888
10.171176 7.610851 -169.839254
10.091861 7.680794 -169.840620
10.012546 7.750737 -169.841986
9.933231 7.820680 -169.843352
9.791451 7.810119 -169.847141
9.712136 7.880062 -169.848507
9.632821 7.950005 -169.849873
9.553507 8.019948 -169.851239
9.411726 8.009387 -169.855028
9.332411 8.079330 -169.856394
9.253097 8.149273 -169.857760
9.111316 8.138711 -169.861549
9.032002 8.208654 -169.862915
8.890221 8.198093 -169.866704
8.810906 8.268036 -169.868070
8.731592 8.337979 -169.869436
8.652277 8.407922 -169.870802
8.572962 8.477865 -169.872168
8.493647 8.547809 -169.873534
8.351867 8.537247 -169.877324
8.272552 8.607190 -169.878690
8.193237 8.677133 -169.880056
8.051457 8.666572 -169.883845
7.972142 8.736515 -169.885211
7.892827 8.806458 -169.886577
7.813513 8.876401 -169.887943
7.671732 8.865839 -169.891732
7.592418 8.935783 -169.893098
7.513103 9.005726 -169.894464
7.371322 8.995164 -169.898253
7.292008 9.065107 -169.899619
7.150227 9.054546 -169.903408
7.008447 9.043984 -169.907197
6.866667 9.033422 -169.910986
6.724886 9.022861 -169.914776
6.583106 9.012299 -169.918565
6.441326 9.001738 -169.922354
6.299545 8.991176 -169.926143
6.157765 8.980614 -169.929932
6.015985 8.970053 -169.933721
5.936670 9.039996 -169.935087
5.794890 9.029434 -169.938876
5.653109 9.018873 -169.942666
5.511329 9.008311 -169.946455
5.057221 8.595225 -169.962360
4.915441 8.584664 -169.966149
4.836126 8.654607 -169.967515
4.694345 8.644045 -169.971304
4.615031 8.713988 -169.972670
4.473250 8.703427 -169.976459
4.393936 8.773370 -169.977825
4.189690 8.682304 -169.984037
10.993728 6.421995 -169.847696
10.903912 6.543863 -169.846639
10.827941 6.766681 -169.843159
10.738125 6.888549 -169.842102
10.648309 7.010416 -169.841045
10.558493 7.132283 -169.839988
10.468678 7.254150 -169.838931
10.378862 7.376017 -169.837874
10.275202 7.396932 -169.839240
10.185386 7.518799 -169.838182
10.095570 7.640666 -169.837125
10.033443 7.964437 -169.831222
9.929783 7.985352 -169.832588
9.826122 8.006267 -169.833954
9.736307 8.128134 -169.832897
9.646491 8.250001 -169.831840
9.542831 8.270916 -169.833206
9.439170 8.291831 -169.834572
9.349355 8.413698 -169.833515
9.245694 8.434614 -169.834881
9.142034 8.455529 -169.836247
9.038374 8.476444 -169.837613
8.948558 8.598311 -169.836556
8.844898 8.619226 -169.837922
8.741238 8.640141 -169.839288
8.651422 8.762008 -169.838231
8.547762 8.782923 -169.839597
8.444102 8.803838 -169.840963
8.354286 8.925705 -169.839906
8.250626 8.946621 -169.841272
8.160810 9.068488 -169.840214
8.057150 9.089403 -169.841580
7.953490 9.110318 -169.842946
7.863674 9.232185 -169.841889
7.760014 9.253100 -169.843255
7.656354 9.274015 -169.844621
7.552693 9.294930 -169.845987
7.449033 9.315845 -169.847353
7.345373 9.336761 -169.848719
7.241713 9.357676 -169.850085
7.138053 9.378591 -169.851451
7.034393 9.399506 -169.852817
6.930732 9.420421 -169.854183
6.827072 9.441336 -169.855550
6.723412 9.462251 -169.856916
6.619752 9.483167 -169.858282
6.516092 9.504082 -169.859648
6.412432 9.524997 -169.861014
6.294927 9.444960 -169.864803
6.191267 9.465875 -169.866169
6.087607 9.486790 -169.867535
5.983947 9.507705 -169.868901
5.880286 9.528621 -169.870267
5.776626 9.549536 -169.871633
5.672966 9.570451 -169.872999
5.569306 9.591366 -169.874365
5.465646 9.612281 -169.875731
5.348141 9.532244 -169.879520
5.244481 9.553159 -169.880886
5.140821 9.574075 -169.882252
5.037161 9.594990 -169.883618
4.919656 9.514953 -169.887407
4.815996 9.535868 -169.888773
4.712336 9.556783 -169.890139
4.594832 9.476746 -169.893928
4.491171 9.497662 -169.895294
4.373667 9.417625 -169.899084
4.270007 9.438540 -169.900450
4.152502 9.358503 -169.904239
4.048842 9.379418 -169.905605
3.931338 9.299381 -169.909394
3.827677 9.320297 -169.910760
3.710173 9.240260 -169.914549
3.592669 9.160223 -169.918338
3.461320 8.979234 -169.924550
3.343815 8.899198 -169.928340
3.240155 8.920113 -169.929706
3.136495 8.941028 -169.931072
3.032835 8.961943 -169.932438
2.915330 8.881906 -169.936227
2.811670 8.902821 -169.937593
2.708010 8.923736 -169.938959
2.590505 8.843700 -169.942748
2.486845 8.864615 -169.944114
2.383185 8.885530 -169.945480
2.265681 8.805493 -169.949269
2.148176 8.725456 -169.953058
2.030672 8.645420 -169.956847
1.913167 8.565383 -169.960636
1.809507 8.586298 -169.962002
1.692003 8.506261 -169.965792
1.588342 8.527176 -169.967158
1.470838 8.447139 -169.970947
1.353333 8.367103 -169.974736
1.235829 8.287066 -169.978525
1.132169 8.307981 -169.979891
1.000820 8.126992 -169.986103
0.869471 7.946004 -169.992316
0.738122 7.765015 -169.998528
9.222072 8.390076 -169.908226
9.083355 8.450708 -169.907169
8.983125 8.416991 -169.908535
8.844409 8.477623 -169.907478
8.513261 9.010000 -169.894305
8.374545 9.070633 -169.893248
8.235828 9.131265 -169.892191
8.135598 9.097548 -169.893557
7.996882 9.158180 -169.892500
7.858166 9.218812 -169.891443
7.719450 9.279444 -169.890386
7.619220 9.245727 -169.891752
7.480503 9.306359 -169.890695
7.341787 9.366991 -169.889638
7.241557 9.333274 -169.891004
7.102841 9.393906 -169.889947
6.964124 9.454538 -169.888890
6.825408 9.515171 -169.887832
6.686692 9.575803 -169.886775
6.586462 9.542086 -169.888141
6.486232 9.508369 -169.889507
6.386002 9.474652 -169.890873
6.131827 9.818331 -169.882547
5.993110 9.878963 -169.881490
5.892880 9.845246 -169.882856
5.754164 9.905878 -169.881799
5.653934 9.872161 -169.883165
5.515218 9.932793 -169.882108
5.414988 9.899076 -169.883474
5.314758 9.865359 -169.884840
5.176042 9.925992 -169.883783
5.075812 9.892275 -169.885149
4.975582 9.858558 -169.886515
4.875352 9.824841 -169.887881
4.775122 9.791124 -169.889247
4.636406 9.851756 -169.888189
4.536176 9.818039 -169.889555
4.435946 9.784322 -169.890922
4.335716 9.750605 -169.892288
4.235486 9.716888 -169.893654
4.135256 9.683171 -169.895020
4.035026 9.649454 -169.896386
3.934796 9.615737 -169.897752
3.834566 9.582020 -169.899118
3.734337 9.548303 -169.900484
3.634107 9.514586 -169.901850
3.533877 9.480869 -169.903216
3.395160 9.541501 -169.902159
3.294930 9.507784 -169.903525
3.194701 9.474067 -169.904891
3.094471 9.440350 -169.906257
2.994241 9.406633 -169.907623
2.894011 9.372916 -169.908989
2.793781 9.339199 -169.910355
2.693551 9.305482 -169.911721
2.593321 9.271765 -169.913087
2.493091 9.238048 -169.914453
2.392861 9.204331 -169.915819
2.292631 9.170614 -169.917185
2.192401 9.136897 -169.918551
2.092171 9.103180 -169.919917
1.991941 9.069463 -169.921283
1.891712 9.035746 -169.922649
1.791482 9.002029 -169.924015
1.691252 8.968312 -169.925381
1.591022 8.934595 -169.926747
1.490792 8.900878 -169.928113
1.390562 8.867161 -169.929479
1.290332 8.833444 -169.930845
1.190102 8.799727 -169.932211
1.089872 8.766010 -169.933577
0.989642 8.732293 -169.934943
0.889412 8.698576 -169.936309
0.827669 8.570510 -169.940098
0.727439 8.536793 -169.941464
0.627209 8.503076 -169.942830
0.526979 8.469359 -169.944196
0.426749 8.435642 -169.945562
0.326519 8.401925 -169.946928
0.264776 8.273859 -169.950717
0.164546 8.240142 -169.952083
0.064316 8.206425 -169.953449
-0.035914 8.172708 -169.954815
-0.097658 8.044641 -169.958604
-0.197888 8.010924 -169.959971
-0.298118 7.977207 -169.961337
-0.359861 7.849141 -169.965126
-0.267659 7.343679 -169.978607
-0.367889 7.309962 -169.979973
-0.468119 7.276245 -169.981339
-0.568349 7.242528 -169.982705
-0.668579 7.208811 -169.984071
1.682657 9.639388 -169.945418
1.612713 9.560073 -169.946784
1.462266 9.543224 -169.945727
1.392322 9.463910 -169.947093
1.322379 9.384595 -169.948459
1.171931 9.367746 -169.947402
1.101988 9.288431 -169.948768
1.032045 9.209116 -169.950134
0.881597 9.192267 -169.949076
0.811654 9.112953 -169.950443
0.661206 9.096103 -169.949385
0.510758 9.079254 -169.948328
0.360311 9.062405 -169.947271
0.209863 9.045556 -169.946214
0.139920 8.966241 -169.947580
0.069976 8.886927 -169.948946
-0.080471 8.870077 -169.947889
-0.150415 8.790763 -169.949255
-0.220358 8.711448 -169.950621
-0.370806 8.694599 -169.949564
-0.440749 8.615284 -169.950930
-0.510692 8.535970 -169.952296
-0.661140 8.519120 -169.951239
-0.731083 8.439806 -169.952605
-0.801026 8.360491 -169.953971
-0.870969 8.281176 -169.955337
-0.940912 8.201862 -169.956703
-1.091360 8.185013 -169.955646
-1.161303 8.105698 -169.957012
-1.231246 8.026383 -169.958378
-1.301190 7.947068 -169.959744
-1.290628 7.805288 -169.963533
-1.360571 7.725974 -169.964899
-1.430514 7.646659 -169.966265
-1.580962 7.629810 -169.965208
-1.650905 7.550495 -169.966574
-1.720849 7.471180 -169.967940
-1.790792 7.391866 -169.969306
-1.860735 7.312551 -169.970672
-1.930678 7.233236 -169.972038
-2.000621 7.153922 -169.973404
-2.070564 7.074607 -169.974770
-2.140507 6.995292 -169.976136
-2.210451 6.915978 -169.977502
-2.280394 6.836663 -169.978868
-2.350337 6.757348 -169.980234
-2.420280 6.678033 -169.981600
-2.490223 6.598719 -169.982966
-2.560166 6.519404 -169.984332
-2.630110 6.440089 -169.985698
-2.700053 6.360775 -169.987064
-2.769996 6.281460 -169.988430
-2.759434 6.139680 -169.992219
-2.829378 6.060365 -169.993585
-2.899321 5.981050 -169.994951
-2.969264 5.901736 -169.996317
-3.039207 5.822421 -169.997683
-3.109150 5.743106 -169.999049
-3.179093 5.663792 -170.000415
-3.249036 5.584477 -170.001781
-3.318980 5.505162 -170.003147
-3.388923 5.425848 -170.004513
-3.458866 5.346533 -170.005879
-3.528809 5.267218 -170.007245
-3.518248 5.125438 -170.011035
-3.588191 5.046123 -170.012401
-3.658134 4.966809 -170.013767
-3.728077 4.887494 -170.015133
-3.717516 4.745714 -170.018922
-3.787459 4.666399 -170.020288
-3.776897 4.524619 -170.024077
-3.846840 4.445304 -170.025443
-3.836279 4.303524 -170.029232
-3.906222 4.224209 -170.030598
-3.976165 4.144895 -170.031964
-4.046108 4.065580 -170.033330
-4.035547 3.923800 -170.037119
-4.024985 3.782019 -170.040908
-4.760169 2.776198 -170.027688
-4.781084 2.672538 -170.029054
-4.902951 2.582722 -170.027997
-4.923866 2.479062 -170.029363
-4.944782 2.375401 -170.030729
-5.066649 2.285586 -170.029671
-5.087564 2.181925 -170.031037
-5.108479 2.078265 -170.032403
-5.129394 1.974605 -170.033769
-5.150309 1.870945 -170.035135
-5.171224 1.767285 -170.036502
-5.192139 1.663625 -170.037868
-5.112103 1.546120 -170.041657
-5.133018 1.442460 -170.043023
-5.153933 1.338800 -170.044389
-5.174848 1.235140 -170.045755
-5.195763 1.131480 -170.047121
-5.216678 1.027819 -170.048487
-5.237593 0.924159 -170.049853
-5.258508 0.820499 -170.051219
-5.279424 0.716839 -170.052585
-5.300339 0.613179 -170.053951
-5.220302 0.495674 -170.057740
-5.241217 0.392014 -170.059106
-5.262132 0.288354 -170.060472
-5.283047 0.184694 -170.061838
-5.303963 0.081034 -170.063204
-5.324878 -0.022627 -170.064570
-5.244841 -0.140131 -170.068359
-5.265756 -0.243791 -170.069725
-5.286671 -0.347451 -170.071091
-5.307586 -0.451111 -170.072457
-5.328501 -0.554772 -170.073823
-5.349417 -0.658432 -170.075189
-5.370332 -0.762092 -170.076555
-5.391247 -0.865752 -170.077921
-5.311210 -0.983257 -170.081710
-5.332125 -1.086917 -170.083076
-5.353040 -1.190577 -170.084442
-5.373955 -1.294237 -170.085808
-5.394871 -1.397897 -170.087174
-5.314834 -1.515402 -170.090964
-5.335749 -1.619062 -170.092330
-5.356664 -1.722722 -170.093696
-5.377579 -1.826382 -170.095062
-5.297542 -1.943887 -170.098851
-5.318457 -2.047547 -170.100217
-5.238421 -2.165051 -170.104006
-5.158384 -2.282556 -170.107795
-4.977395 -2.413905 -170.114007
-4.998310 -2.517565 -170.115373
-5.456989 2.097719 -170.020061
-5.517621 1.959003 -170.019004
-5.483904 1.858773 -170.020370
-5.450187 1.758543 -170.021736
-5.416470 1.658313 -170.023102
-5.382753 1.558083 -170.024468
-5.443385 1.419367 -170.023411
-5.692716 1.203678 -170.017508
-5.847697 1.026475 -170.014027
-5.908329 0.887759 -170.012970
-5.874612 0.787529 -170.014336
-5.935244 0.648813 -170.013279
-5.901527 0.548583 -170.014645
-5.867810 0.448353 -170.016011
-6.022791 0.271150 -170.012531
-6.083423 0.132434 -170.011474
-6.049706 0.032204 -170.012840
-6.110338 -0.106512 -170.011783
-6.076621 -0.206742 -170.013149
-6.137254 -0.345459 -170.012092
-6.103537 -0.445689 -170.013458
-6.164169 -0.584405 -170.012401
-6.130452 -0.684635 -170.013767
-6.096735 -0.784865 -170.015133
-6.063018 -0.885095 -170.016499
-6.029301 -0.985325 -170.017865
-5.995584 -1.085554 -170.019231
-5.961867 -1.185784 -170.020597
-5.928150 -1.286014 -170.021963
-5.988782 -1.424731 -170.020906
-5.955065 -1.524961 -170.022272
-5.921348 -1.625190 -170.023638
-5.887631 -1.725420 -170.025004
-5.853914 -1.825650 -170.026370
-5.820197 -1.925880 -170.027736
-5.786480 -2.026110 -170.029102
-5.752763 -2.126340 -170.030468
-5.719046 -2.226570 -170.031834
-5.685329 -2.326800 -170.033200
-5.651612 -2.427030 -170.034566
-5.617895 -2.527260 -170.035932
-5.584178 -2.627490 -170.037298
-5.550461 -2.727720 -170.038664
-5.516744 -2.827950 -170.040030
-5.483027 -2.928179 -170.041396
-5.449310 -3.028409 -170.042762
-5.415593 -3.128639 -170.044128
-5.381876 -3.228869 -170.045494
-5.348159 -3.329099 -170.046860
-5.314442 -3.429329 -170.048226
-5.280725 -3.529559 -170.049592
-5.247008 -3.629789 -170.050958
-5.118942 -3.691532 -170.054747
-5.085225 -3.791762 -170.056113
-5.051508 -3.891992 -170.057479
-5.017791 -3.992222 -170.058845
-4.984074 -4.092452 -170.060211
-4.950357 -4.192682 -170.061577
-4.916640 -4.292912 -170.062943
-4.882923 -4.393142 -170.064309
-4.849206 -4.493372 -170.065675
-4.815489 -4.593602 -170.067041
-4.687423 -4.655345 -170.070830
-4.653706 -4.755575 -170.072196
-4.619989 -4.855805 -170.073562
-4.491922 -4.917549 -170.077352
-4.363856 -4.979292 -170.081141
-4.330139 -5.079522 -170.082507
-4.202073 -5.141266 -170.086296
-4.168356 -5.241496 -170.087662
-4.134639 -5.341726 -170.089028
-4.100922 -5.441955 -170.090394
-4.067205 -5.542185 -170.091760
-3.939139 -5.603929 -170.095549
-3.811073 -5.665672 -170.099338
-3.683007 -5.727416 -170.103127
-3.649290 -5.827646 -170.104493
-3.521224 -5.889390 -170.108283
-3.487507 -5.989619 -170.109649
-3.453790 -6.089849 -170.111015
-3.325724 -6.151593 -170.114804
-3.292007 -6.251823 -170.116170
-3.258290 -6.352053 -170.117536
-3.224573 -6.452283 -170.118902
-3.096507 -6.514026 -170.122691
-3.062790 -6.614256 -170.124057
-3.029073 -6.714486 -170.125423
-2.901006 -6.776230 -170.129212
-2.867289 -6.876460 -170.130578
-2.739223 -6.938203 -170.134367
-2.705506 -7.038433 -170.135733
-2.577440 -7.100177 -170.139522
-2.449374 -7.161920 -170.143312
-2.321308 -7.223664 -170.147101
-2.287591 -7.323894 -170.148467
-2.159525 -7.385637 -170.152256
-2.125808 -7.485867 -170.153622
-2.092091 -7.586097 -170.154988
-2.058374 -7.686327 -170.156354
-2.024657 -7.786557 -170.157720
-1.896591 -7.848300 -170.161509
-1.862874 -7.948530 -170.162875
-1.734808 -8.010274 -170.166664
-1.606742 -8.072017 -170.170453
-1.384326 -8.095275 -170.176666
-6.202145 -2.839939 -169.989796
-6.185296 -2.990387 -169.988739
-6.105982 -3.060330 -169.990105
-6.089132 -3.210778 -169.989048
-6.009818 -3.280721 -169.990414
-5.930503 -3.350664 -169.991780
-5.913654 -3.501112 -169.990723
-5.834339 -3.571055 -169.992089
-5.755025 -3.640998 -169.993455
-5.738175 -3.791446 -169.992398
-5.658861 -3.861389 -169.993764
-5.579546 -3.931333 -169.995130
-5.562697 -4.081780 -169.994073
-5.483382 -4.151724 -169.995439
-5.404067 -4.221667 -169.996805
-5.324753 -4.291610 -169.998171
-5.245438 -4.361553 -169.999537
-5.228589 -4.512001 -169.998480
-5.149274 -4.581944 -169.999846
-5.069960 -4.651887 -170.001212
-4.990645 -4.721830 -170.002578
-4.911330 -4.791773 -170.003944
-4.832016 -4.861717 -170.005310
-4.815166 -5.012164 -170.004253
-4.735852 -5.082108 -170.005619
-4.656537 -5.152051 -170.006985
-4.639688 -5.302499 -170.005928
-4.560373 -5.372442 -170.007294
-4.481059 -5.442385 -170.008660
-4.401744 -5.512328 -170.010026
-4.384895 -5.662776 -170.008969
-4.305580 -5.732719 -170.010335
-4.226265 -5.802662 -170.011701
-4.146951 -5.872605 -170.013067
-4.067636 -5.942549 -170.014433
-3.988321 -6.012492 -170.015799
-3.909007 -6.082435 -170.017165
-3.829692 -6.152378 -170.018531
-3.812843 -6.302826 -170.017474
-3.733528 -6.372769 -170.018840
-3.716679 -6.523217 -170.017782
-3.637364 -6.593160 -170.019148
-3.558050 -6.663103 -170.020515
-3.541200 -6.813551 -170.019457
-3.461886 -6.883494 -170.020823
-3.382571 -6.953437 -170.022189
-3.365722 -7.103885 -170.021132
-3.286407 -7.173828 -170.022498
-3.207092 -7.243771 -170.023864
-3.190243 -7.394219 -170.022807
-3.110929 -7.464162 -170.024173
-3.031614 -7.534106 -170.025539
-2.952299 -7.604049 -170.026905
-2.872985 -7.673992 -170.028271
-2.793670 -7.743935 -170.029637
-2.714355 -7.813878 -170.031003
-2.635041 -7.883821 -170.032369
-2.555726 -7.953765 -170.033735
-2.476411 -8.023708 -170.035101
-2.397096 -8.093651 -170.036467
-2.317782 -8.163594 -170.037833
-2.238467 -8.233537 -170.039199
-2.159152 -8.303480 -170.040565
-2.142303 -8.453928 -170.039508
-2.062989 -8.523871 -170.040874
-1.983674 -8.593815 -170.042240
-1.904359 -8.663758 -170.043606
-1.825045 -8.733701 -170.044972
-1.745730 -8.803644 -170.046338
-1.666415 -8.873587 -170.047704
-1.587100 -8.943530 -170.049070
-1.507786 -9.013473 -170.050436
-1.428471 -9.083417 -170.051802
-1.349156 -9.153360 -170.053169
-1.269842 -9.223303 -170.054535
-1.190527 -9.293246 -170.055901
-1.111212 -9.363189 -170.057267
-1.031898 -9.433132 -170.058633
-0.952583 -9.503076 -170.059999
-0.873268 -9.573019 -170.061365
-0.793954 -9.642962 -170.062731
-0.714639 -9.712905 -170.064097
-0.635324 -9.782848 -170.065463
-0.556010 -9.852791 -170.066829
-0.476695 -9.922735 -170.068195
-0.397380 -9.992678 -170.069561
-0.318066 -10.062621 -170.070927
-0.238751 -10.132564 -170.072293
-0.159436 -10.202507 -170.073659
-0.080121 -10.272450 -170.075025
-0.000807 -10.342393 -170.076391
0.078508 -10.412337 -170.077757
0.157823 -10.482280 -170.079123
0.237137 -10.552223 -170.080489
0.316452 -10.622166 -170.081855
0.395767 -10.692109 -170.083221
0.475081 -10.762052 -170.084587
0.616862 -10.751491 -170.088376
0.696176 -10.821434 -170.089742
0.775491 -10.891377 -170.091108
0.854806 -10.961320 -170.092474
0.934120 -11.031264 -170.093840
1.013435 -11.101207 -170.095206
1.092750 -11.171150 -170.096572
1.172064 -11.241093 -170.097938
1.251379 -11.311036 -170.099304
1.330694 -11.380979 -170.100670
1.410008 -11.450922 -170.102036
1.551789 -11.440361 -170.105825
1.631103 -11.510304 -170.107191
1.710418 -11.580247 -170.108557
1.852198 -11.569686 -170.112346
1.931513 -11.639629 -170.113713
2.073293 -11.629067 -170.117502
2.152608 -11.699010 -170.118868
2.231923 -11.768954 -170.120234
2.373703 -11.758392 -170.124023
2.453017 -11.828335 -170.125389
2.594798 -11.817774 -170.129178
2.799043 -11.726708 -170.135390
2.940824 -11.716146 -170.139179
3.020138 -11.786089 -170.140545
3.161919 -11.775528 -170.144335
3.241233 -11.845471 -170.145701
3.383014 -11.834909 -170.149490
3.524794 -11.824348 -170.153279
3.666574 -11.813786 -170.157068
3.808354 -11.803225 -170.160857
4.012600 -11.712158 -170.167069
4.154380 -11.701597 -170.170859
-4.276067 -5.598743 -169.983275
-4.186252 -5.720610 -169.982218
-4.096436 -5.842478 -169.981161
-4.006620 -5.964345 -169.980104
-3.916804 -6.086212 -169.979047
-3.826988 -6.208079 -169.977989
-3.723328 -6.228994 -169.979356
-3.633512 -6.350861 -169.978298
-3.543696 -6.472728 -169.977241
-3.481569 -6.796499 -169.971338
-3.391753 -6.918366 -169.970281
-3.288093 -6.939281 -169.971647
-3.198277 -7.061148 -169.970590
-3.094617 -7.082063 -169.971956
-3.004801 -7.203930 -169.970899
-2.914986 -7.325797 -169.969842
-2.825170 -7.447664 -169.968784
-2.735354 -7.569531 -169.967727
-2.631694 -7.590446 -169.969093
-2.569567 -7.914217 -169.963190
-2.479751 -8.036084 -169.962133
-2.389935 -8.157951 -169.961076
-2.300119 -8.279818 -169.960019
-2.196459 -8.300734 -169.961385
-2.106643 -8.422601 -169.960328
-2.002983 -8.443516 -169.961694
-1.913167 -8.565383 -169.960636
-1.809507 -8.586298 -169.962002
-1.719691 -8.708165 -169.960945
-1.616031 -8.729080 -169.962311
-1.526215 -8.850947 -169.961254
-1.436399 -8.972814 -169.960197
-1.346584 -9.094681 -169.959140
-1.256768 -9.216548 -169.958083
-1.166952 -9.338415 -169.957026
-1.077136 -9.460282 -169.955969
-0.987320 -9.582149 -169.954912
-0.897504 -9.704016 -169.953855
-0.807689 -9.825883 -169.952797
-0.704028 -9.846799 -169.954163
-0.614213 -9.968666 -169.953106
-0.524397 -10.090533 -169.952049
-0.420737 -10.111448 -169.953415
-0.330921 -10.233315 -169.952358
-0.227261 -10.254230 -169.953724
-0.123600 -10.275145 -169.955090
-0.033785 -10.397012 -169.954033
0.069876 -10.417927 -169.955399
0.159691 -10.539794 -169.954342
0.263352 -10.560709 -169.955708
0.353167 -10.682577 -169.954651
0.456828 -10.703492 -169.956017
0.546643 -10.825359 -169.954960
0.650304 -10.846274 -169.956326
0.753964 -10.867189 -169.957692
0.843780 -10.989056 -169.956635
0.947440 -11.009971 -169.958001
1.037256 -11.131838 -169.956944
1.127071 -11.253705 -169.955886
1.216887 -11.375572 -169.954829
1.306703 -11.497439 -169.953772
1.410363 -11.518354 -169.955138
1.500179 -11.640221 -169.954081
1.603839 -11.661137 -169.955447
1.707499 -11.682052 -169.956813
1.811160 -11.702967 -169.958179
1.914820 -11.723882 -169.959545
2.018480 -11.744797 -169.960911
2.122140 -11.765712 -169.962277
2.225800 -11.786627 -169.963643
2.329460 -11.807543 -169.965009
2.419276 -11.929410 -169.963952
2.522936 -11.950325 -169.965318
2.626596 -11.971240 -169.966684
2.730257 -11.992155 -169.968050
2.833917 -12.013070 -169.969416
2.937577 -12.033985 -169.970782
3.027393 -12.155852 -169.969725
3.131053 -12.176767 -169.971091
3.234713 -12.197683 -169.972457
3.338373 -12.218598 -169.973823
3.442033 -12.239513 -169.975189
3.545694 -12.260428 -169.976555
3.663198 -12.180391 -169.980344
3.766858 -12.201306 -169.981710
3.870518 -12.222221 -169.983076
3.974179 -12.243137 -169.984442
4.077839 -12.264052 -169.985808
4.181499 -12.284967 -169.987174
4.285159 -12.305882 -169.988540
4.402664 -12.225845 -169.992330
4.506324 -12.246760 -169.993696
4.609984 -12.267675 -169.995062
4.713644 -12.288591 -169.996428
4.817304 -12.309506 -169.997794
4.920964 -12.330421 -169.999160
5.024624 -12.351336 -170.000526
5.128285 -12.372251 -170.001892
5.231945 -12.393166 -170.003258
5.335605 -12.414081 -170.004624
5.453109 -12.334045 -170.008413
5.556770 -12.354960 -170.009779
5.674274 -12.274923 -170.013568
5.791779 -12.194886 -170.017357
5.964660 -11.711042 -170.030839
6.109853 -11.429101 -170.039474
6.227358 -11.349064 -170.043263
6.344862 -11.269028 -170.047053
6.462367 -11.188991 -170.050842
6.579871 -11.108954 -170.054631
6.697376 -11.028917 -170.058420
6.814880 -10.948880 -170.062209
6.932385 -10.868844 -170.065998
7.049889 -10.788807 -170.069787
7.181238 -10.607818 -170.076000
7.298743 -10.527781 -170.079789
7.416247 -10.447745 -170.083578
7.519907 -10.468660 -170.084944
7.637412 -10.388623 -170.088733
7.754916 -10.308586 -170.092522
7.872421 -10.228549 -170.096311
7.989925 -10.148513 -170.100100
8.107430 -10.068476 -170.103890
8.211090 -10.089391 -170.105256
8.314750 -10.110306 -170.106622
8.432255 -10.030269 -170.110411
8.535915 -10.051184 -170.111777
8.639575 -10.072100 -170.113143
8.757079 -9.992063 -170.116932
8.874584 -9.912026 -170.120721
9.005933 -9.731037 -170.126933
9.123437 -9.651000 -170.130723
9.240942 -9.570964 -170.134512
9.358446 -9.490927 -170.138301
9.475951 -9.410890 -170.142090
9.579611 -9.431805 -170.143456
9.697115 -9.351768 -170.147245
9.800775 -9.372684 -170.148611
9.918280 -9.292647 -170.152400
-0.389089 -9.925114 -169.904808
-0.250373 -9.985746 -169.903751
-0.111657 -10.046378 -169.902694
0.065546 -10.201360 -169.899214
0.204262 -10.261992 -169.898157
0.381465 -10.416973 -169.894677
0.520181 -10.477605 -169.893619
0.774357 -10.821285 -169.885293
0.874586 -10.787568 -169.886659
1.013303 -10.848200 -169.885602
1.113533 -10.814483 -169.886968
1.252249 -10.875115 -169.885911
1.583397 -11.407493 -169.872738
1.722113 -11.468125 -169.871681
1.860830 -11.528757 -169.870624
1.961060 -11.495040 -169.871990
2.099776 -11.555672 -169.870933
2.276979 -11.710653 -169.867453
2.415695 -11.771285 -169.866395
2.554411 -11.831917 -169.865338
2.731614 -11.986899 -169.861858
2.870330 -12.047531 -169.860801
3.009047 -12.108163 -169.859744
3.147763 -12.168795 -169.858687
3.286479 -12.229427 -169.857630
3.386709 -12.195710 -169.858996
3.525425 -12.256342 -169.857939
3.625655 -12.222625 -169.859305
3.764372 -12.283257 -169.858247
3.864601 -12.249540 -169.859613
4.003318 -12.310172 -169.858556
4.103548 -12.276455 -169.859922
4.242264 -12.337087 -169.858865
4.342494 -12.303370 -169.860231
4.442724 -12.269653 -169.861597
4.581440 -12.330286 -169.860540
4.681670 -12.296569 -169.861906
4.781900 -12.262852 -169.863272
4.920616 -12.323484 -169.862215
5.020846 -12.289767 -169.863581
5.121076 -12.256050 -169.864947
5.221306 -12.222333 -169.866313
5.321536 -12.188616 -169.867679
5.421766 -12.154899 -169.869045
5.521996 -12.121182 -169.870411
5.622226 -12.087465 -169.871777
5.722456 -12.053748 -169.873143
5.822686 -12.020031 -169.874509
5.922916 -11.986314 -169.875875
6.023145 -11.952597 -169.877241
6.084889 -11.824531 -169.881030
6.185119 -11.790814 -169.882396
6.285349 -11.757097 -169.883762
6.385579 -11.723380 -169.885128
6.485809 -11.689663 -169.886494
6.547552 -11.561596 -169.890284
6.647782 -11.527879 -169.891650
6.748012 -11.494162 -169.893016
6.809756 -11.366096 -169.896805
6.909986 -11.332379 -169.898171
7.010215 -11.298662 -169.899537
7.071959 -11.170596 -169.903326
7.172189 -11.136879 -169.904692
7.272419 -11.103162 -169.906058
7.372649 -11.069445 -169.907424
7.472879 -11.035728 -169.908790
7.573109 -11.002011 -169.910156
7.673339 -10.968294 -169.911522
7.735082 -10.840228 -169.915311
7.835312 -10.806511 -169.916677
7.935542 -10.772794 -169.918043
7.997285 -10.644728 -169.921832
8.097515 -10.611011 -169.923198
8.197745 -10.577294 -169.924564
8.297975 -10.543577 -169.925930
8.398205 -10.509860 -169.927296
8.498435 -10.476143 -169.928662
8.598665 -10.442426 -169.930028
8.660409 -10.314360 -169.933818
8.760638 -10.280643 -169.935184
8.860868 -10.246926 -169.936550
8.961098 -10.213209 -169.937916
9.061328 -10.179492 -169.939282
9.161558 -10.145775 -169.940648
9.261788 -10.112058 -169.942014
9.362018 -10.078341 -169.943380
9.423762 -9.950275 -169.947169
9.523991 -9.916558 -169.948535
9.624221 -9.882841 -169.949901
9.724451 -9.849124 -169.951267
9.824681 -9.815407 -169.952633
9.924911 -9.781690 -169.953999
10.025141 -9.747973 -169.955365
10.125371 -9.714256 -169.956731
10.225601 -9.680539 -169.958097
10.287344 -9.552473 -169.961886
10.387574 -9.518756 -169.963252
10.487804 -9.485039 -169.964618
10.588034 -9.451322 -169.965984
10.688264 -9.417605 -169.967350
10.750008 -9.289539 -169.971139
10.850238 -9.255822 -169.972505
10.950468 -9.222105 -169.973871
11.050698 -9.188388 -169.975237
11.150927 -9.154671 -169.976603
11.251157 -9.120954 -169.977969
11.351387 -9.087237 -169.979335
11.451617 -9.053520 -169.980701
11.513361 -8.925453 -169.984491
11.613591 -8.891736 -169.985857
11.713821 -8.858019 -169.987223
11.775564 -8.729953 -169.991012
11.875794 -8.696236 -169.992378
11.937538 -8.568170 -169.996167
12.037768 -8.534453 -169.997533
12.099511 -8.406387 -170.001322
12.199741 -8.372670 -170.002688
12.261485 -8.244604 -170.006477
12.323228 -8.116538 -170.010266
12.384972 -7.988472 -170.014056
12.446715 -7.860406 -170.017845
12.508459 -7.732340 -170.021634
12.570202 -7.604273 -170.025423
12.631946 -7.476207 -170.029212
12.693689 -7.348141 -170.033001
12.755433 -7.220075 -170.036790
12.817176 -7.092009 -170.040579
12.840434 -6.869594 -170.046792
12.902177 -6.741528 -170.050581
