ply
format ascii 1.0
element vertex 1388
property float x
property float y
property float z
element face 0
property list uchar uint vertex_indices
end_header
3.916999 -12.514859 -168.815056
4.147952 -12.560475 -168.811576
4.217895 -12.481161 -168.812942
4.368343 -12.464312 -168.811885
4.518790 -12.447462 -168.810828
4.749743 -12.493079 -168.807348
4.900191 -12.476230 -168.806291
5.050639 -12.459381 -168.805234
5.201087 -12.442531 -168.804176
5.351534 -12.425682 -168.803119
5.501982 -12.408833 -168.802062
5.571925 -12.329518 -168.803428
5.641869 -12.250204 -168.804794
5.711812 -12.170889 -168.806160
5.781755 -12.091574 -168.807526
5.932203 -12.074725 -168.806469
6.324165 -12.245273 -168.798143
6.474612 -12.228424 -168.797086
6.544556 -12.149109 -168.798452
6.614499 -12.069794 -168.799818
6.764947 -12.052945 -168.798761
6.834890 -11.973630 -168.800127
6.904833 -11.894316 -168.801493
6.974776 -11.815001 -168.802859
7.044719 -11.735686 -168.804225
7.195167 -11.718837 -168.803168
7.265110 -11.639522 -168.804534
7.415558 -11.622673 -168.803476
7.485501 -11.543359 -168.804842
7.555444 -11.464044 -168.806208
7.705892 -11.447195 -168.805151
7.775835 -11.367880 -168.806517
7.845778 -11.288565 -168.807883
7.915722 -11.209251 -168.809249
7.985665 -11.129936 -168.810615
8.055608 -11.050621 -168.811981
8.125551 -10.971307 -168.813347
8.275999 -10.954458 -168.812290
8.345942 -10.875143 -168.813656
8.415885 -10.795828 -168.815022
8.485828 -10.716513 -168.816388
8.636276 -10.699664 -168.815331
8.706219 -10.620350 -168.816697
8.776163 -10.541035 -168.818063
8.846106 -10.461720 -168.819429
8.996554 -10.444871 -168.818372
9.066497 -10.365556 -168.819738
9.216945 -10.348707 -168.818681
9.286888 -10.269393 -168.820047
9.437336 -10.252543 -168.818990
9.507279 -10.173229 -168.820356
9.657727 -10.156380 -168.819299
9.808174 -10.139531 -168.818242
9.878118 -10.060216 -168.819608
10.028565 -10.043367 -168.818551
10.098509 -9.964052 -168.819917
10.168452 -9.884737 -168.821283
10.318900 -9.867888 -168.820226
10.388843 -9.788573 -168.821592
10.458786 -9.709259 -168.822958
10.609234 -9.692410 -168.821901
10.679177 -9.613095 -168.823267
10.829625 -9.596246 -168.822209
10.980073 -9.579397 -168.821152
11.050016 -9.500082 -168.822518
11.200464 -9.483233 -168.821461
11.270407 -9.403918 -168.822827
11.340350 -9.324603 -168.824193
11.410293 -9.245289 -168.825559
11.560741 -9.228440 -168.824502
11.630684 -9.149125 -168.825868
11.700627 -9.069810 -168.827234
11.851075 -9.052961 -168.826177
11.921018 -8.973646 -168.827543
11.990961 -8.894332 -168.828909
12.060904 -8.815017 -168.830275
12.211352 -8.798168 -168.829218
12.281295 -8.718853 -168.830584
12.351239 -8.639539 -168.831950
12.421182 -8.560224 -168.833316
12.491125 -8.480909 -168.834682
12.561068 -8.401594 -168.836048
12.631011 -8.322280 -168.837414
12.700954 -8.242965 -168.838780
12.770898 -8.163650 -168.840146
12.840841 -8.084336 -168.841512
12.910784 -8.005021 -168.842878
12.980727 -7.925706 -168.844244
13.050670 -7.846392 -168.845610
13.040109 -7.704611 -168.849399
13.110052 -7.625297 -168.850765
13.179995 -7.545982 -168.852131
13.249938 -7.466667 -168.853497
13.239377 -7.324887 -168.857287
13.309320 -7.245572 -168.858653
13.298758 -7.103792 -168.862442
13.368701 -7.024478 -168.863808
13.358140 -6.882697 -168.867597
13.428083 -6.803383 -168.868963
13.498026 -6.724068 -168.870329
13.567969 -6.644753 -168.871695
13.557408 -6.502973 -168.875484
13.627351 -6.423658 -168.876850
13.616789 -6.281878 -168.880639
13.525723 -6.077632 -168.886852
13.515162 -5.935852 -168.890641
13.504600 -5.794072 -168.894430
13.574543 -5.714757 -168.895796
13.483477 -5.510511 -168.902008
13.392411 -5.306266 -168.908220
12.979326 -4.852158 -168.924125
12.968764 -4.710378 -168.927914
12.958203 -4.568597 -168.931703
12.947641 -4.426817 -168.935493
12.695566 -4.097640 -168.946551
12.765509 -4.018326 -168.947917
12.754947 -3.876545 -168.951706
12.744386 -3.734765 -168.955495
12.331301 -3.280657 -168.971400
12.320739 -3.138877 -168.975189
12.310178 -2.997097 -168.978978
12.299616 -2.855316 -168.982768
12.289055 -2.713536 -168.986557
12.278493 -2.571756 -168.990346
12.267932 -2.429976 -168.994135
12.257370 -2.288196 -168.997924
12.166304 -2.083950 -169.004136
7.225987 -11.636628 -168.819058
7.448806 -11.560656 -168.815578
7.570673 -11.470841 -168.814521
7.692540 -11.381025 -168.813464
7.814407 -11.291209 -168.812407
7.835322 -11.187549 -168.813773
7.957189 -11.097733 -168.812716
7.978104 -10.994073 -168.814082
8.200923 -10.918101 -168.810601
8.423742 -10.842130 -168.807121
8.646561 -10.766158 -168.803641
8.768428 -10.676342 -168.802584
8.789343 -10.572682 -168.803950
9.012162 -10.496711 -168.800470
9.134029 -10.406895 -168.799412
9.255897 -10.317079 -168.798355
9.377764 -10.227263 -168.797298
9.499631 -10.137447 -168.796241
9.621498 -10.047632 -168.795184
9.844317 -9.971660 -168.791704
10.067136 -9.895689 -168.788224
10.189003 -9.805873 -168.787166
10.310870 -9.716057 -168.786109
10.533689 -9.640085 -168.782629
10.655556 -9.550270 -168.781572
10.777423 -9.460454 -168.780515
10.798338 -9.356794 -168.781881
11.424964 -9.336199 -168.768708
11.546831 -9.246384 -168.767651
11.567747 -9.142723 -168.769017
11.689614 -9.052908 -168.767960
11.811481 -8.963092 -168.766903
12.034300 -8.887120 -168.763423
12.156167 -8.797304 -168.762366
12.278034 -8.707489 -168.761308
12.298949 -8.603828 -168.762674
12.420816 -8.514013 -168.761617
12.441731 -8.410352 -168.762983
12.563598 -8.320537 -168.761926
12.584513 -8.216876 -168.763292
12.706380 -8.127061 -168.762235
12.828247 -8.037245 -168.761178
12.849162 -7.933585 -168.762544
12.971029 -7.843769 -168.761487
12.991945 -7.740109 -168.762853
13.113812 -7.650293 -168.761796
13.134727 -7.546633 -168.763162
13.155642 -7.442972 -168.764528
13.277509 -7.353157 -168.763471
13.298424 -7.249497 -168.764837
13.420291 -7.159681 -168.763780
13.441206 -7.056021 -168.765146
13.462121 -6.952360 -168.766512
13.483037 -6.848700 -168.767878
13.604904 -6.758884 -168.766821
13.625819 -6.655224 -168.768187
13.646734 -6.551564 -168.769553
13.667649 -6.447904 -168.770919
13.789516 -6.358088 -168.769862
13.810431 -6.254428 -168.771228
13.831346 -6.150768 -168.772594
13.852261 -6.047108 -168.773960
13.873177 -5.943447 -168.775326
13.894092 -5.839787 -168.776692
13.814055 -5.722283 -168.780481
13.834970 -5.618623 -168.781847
13.754933 -5.501118 -168.785636
13.674896 -5.383614 -168.789425
13.695812 -5.279953 -168.790791
13.615775 -5.162449 -168.794580
13.535738 -5.044944 -168.798369
13.556653 -4.941284 -168.799735
13.476616 -4.823780 -168.803525
13.396580 -4.706275 -168.807314
13.417495 -4.602615 -168.808680
13.337458 -4.485111 -168.812469
13.257421 -4.367606 -168.816258
13.177384 -4.250102 -168.820047
13.097348 -4.132597 -168.823836
13.017311 -4.015093 -168.827625
13.038226 -3.911433 -168.828991
13.059141 -3.807772 -168.830357
12.979104 -3.690268 -168.834147
13.000019 -3.586608 -168.835513
13.020935 -3.482948 -168.836879
13.041850 -3.379287 -168.838245
13.062765 -3.275627 -168.839611
12.982728 -3.158123 -168.843400
13.003643 -3.054463 -168.844766
12.923606 -2.936958 -168.848555
12.843570 -2.819454 -168.852344
12.864485 -2.715794 -168.853710
12.784448 -2.598289 -168.857499
12.704411 -2.480785 -168.861288
12.624374 -2.363280 -168.865078
12.645290 -2.259620 -168.866444
12.565253 -2.142115 -168.870233
12.586168 -2.038455 -168.871599
12.607083 -1.934795 -168.872965
12.527046 -1.817291 -168.876754
12.447009 -1.699786 -168.880543
12.467925 -1.596126 -168.881909
12.488840 -1.492466 -168.883275
12.408803 -1.374961 -168.887064
12.429718 -1.271301 -168.888430
12.349681 -1.153797 -168.892219
12.370596 -1.050137 -168.893585
12.290560 -0.932632 -168.897374
12.210523 -0.815128 -168.901164
12.231438 -0.711467 -168.902530
12.151401 -0.593963 -168.906319
12.071364 -0.476458 -168.910108
11.991328 -0.358954 -168.913897
11.911291 -0.241449 -168.917686
11.932206 -0.137789 -168.919052
11.852169 -0.020285 -168.922841
11.873084 0.083375 -168.924207
11.793048 0.200880 -168.927997
11.813963 0.304540 -168.929363
11.733926 0.422044 -168.933152
11.754841 0.525705 -168.934518
11.775756 0.629365 -168.935884
11.695719 0.746869 -168.939673
11.716635 0.850529 -168.941039
11.737550 0.954190 -168.942405
11.758465 1.057850 -168.943771
11.779380 1.161510 -168.945137
11.699343 1.279014 -168.948926
11.720258 1.382675 -168.950292
11.741173 1.486335 -168.951658
11.661137 1.603839 -168.955447
11.682052 1.707499 -168.956813
11.702967 1.811160 -168.958179
11.622930 1.928664 -168.961968
11.643845 2.032324 -168.963334
11.563808 2.149829 -168.967124
11.584724 2.253489 -168.968490
11.605639 2.357149 -168.969856
11.525602 2.474653 -168.973645
11.546517 2.578314 -168.975011
11.567432 2.681974 -168.976377
11.487395 2.799478 -168.980166
11.407359 2.916983 -168.983955
11.428274 3.020643 -168.985321
11.348237 3.138147 -168.989110
11.268200 3.255652 -168.992899
11.188163 3.373156 -168.996688
11.108127 3.490661 -169.000478
11.129042 3.594321 -169.001844
11.149957 3.697981 -169.003210
11.170872 3.801641 -169.004576
11.090835 3.919146 -169.008365
11.111750 4.022806 -169.009731
11.031714 4.140310 -169.013520
10.951677 4.257815 -169.017309
10.871640 4.375319 -169.021098
10.791603 4.492824 -169.024887
10.812518 4.596484 -169.026253
10.732482 4.713989 -169.030043
10.753397 4.817649 -169.031409
10.673360 4.935153 -169.035198
10.694275 5.038813 -169.036564
10.513286 5.170162 -169.042776
10.332298 5.301511 -169.048988
10.252261 5.419015 -169.052777
10.273176 5.522676 -169.054143
10.294091 5.626336 -169.055509
10.214054 5.743840 -169.059299
10.234969 5.847500 -169.060665
10.154933 5.965005 -169.064454
10.074896 6.082509 -169.068243
9.893907 6.213858 -169.074455
9.813870 6.331363 -169.078244
9.632882 6.462712 -169.084456
12.838088 -8.091564 -168.790990
13.181767 -7.837389 -168.782663
13.336748 -7.660186 -168.779183
13.397380 -7.521470 -168.778126
13.552362 -7.344267 -168.774646
13.801692 -7.128578 -168.768742
13.862324 -6.989862 -168.767685
13.828607 -6.889632 -168.769051
13.889239 -6.750916 -168.767994
13.949871 -6.612199 -168.766937
14.010503 -6.473483 -168.765880
14.071135 -6.334767 -168.764823
14.037418 -6.234537 -168.766189
14.098051 -6.095821 -168.765132
14.158683 -5.957104 -168.764075
14.124966 -5.856874 -168.765441
14.185598 -5.718158 -168.764383
14.151881 -5.617928 -168.765750
14.118164 -5.517698 -168.767116
14.084447 -5.417468 -168.768482
14.050730 -5.317238 -168.769848
14.017013 -5.217008 -168.771214
13.983296 -5.116778 -168.772580
13.949579 -5.016549 -168.773946
13.915862 -4.916319 -168.775312
13.882145 -4.816089 -168.776678
13.848428 -4.715859 -168.778044
13.814711 -4.615629 -168.779410
13.780994 -4.515399 -168.780776
13.747277 -4.415169 -168.782142
13.713560 -4.314939 -168.783508
13.679843 -4.214709 -168.784874
13.646126 -4.114479 -168.786240
13.612409 -4.014249 -168.787606
13.578692 -3.914019 -168.788972
13.544975 -3.813789 -168.790338
13.511258 -3.713560 -168.791704
13.477541 -3.613330 -168.793070
13.443824 -3.513100 -168.794436
13.504456 -3.374383 -168.793379
13.470739 -3.274153 -168.794745
13.437022 -3.173924 -168.796111
13.403305 -3.073694 -168.797477
13.369588 -2.973464 -168.798843
13.335871 -2.873234 -168.800209
13.302154 -2.773004 -168.801575
13.268437 -2.672774 -168.802941
13.234720 -2.572544 -168.804307
13.201003 -2.472314 -168.805673
13.167286 -2.372084 -168.807039
13.133569 -2.271854 -168.808405
13.099852 -2.171624 -168.809771
13.066135 -2.071394 -168.811137
13.032418 -1.971164 -168.812503
12.998701 -1.870935 -168.813869
13.059333 -1.732218 -168.812812
13.025616 -1.631988 -168.814178
12.991899 -1.531758 -168.815544
12.958182 -1.431528 -168.816910
12.830116 -1.369785 -168.820699
12.796399 -1.269555 -168.822065
12.762682 -1.169325 -168.823431
12.728965 -1.069095 -168.824797
12.695248 -0.968865 -168.826163
12.661531 -0.868635 -168.827529
12.627814 -0.768405 -168.828895
12.594097 -0.668175 -168.830261
12.560380 -0.567946 -168.831627
12.526663 -0.467716 -168.832993
12.587295 -0.328999 -168.831936
12.553578 -0.228769 -168.833302
12.519861 -0.128539 -168.834668
12.486144 -0.028310 -168.836034
12.452427 0.071920 -168.837400
12.418710 0.172150 -168.838766
12.384993 0.272380 -168.840132
12.351276 0.372610 -168.841498
12.317559 0.472840 -168.842864
12.283842 0.573070 -168.844230
12.250125 0.673300 -168.845596
12.216408 0.773530 -168.846962
12.182691 0.873760 -168.848328
12.148974 0.973990 -168.849694
12.115257 1.074220 -168.851060
12.081540 1.174449 -168.852426
12.047823 1.274679 -168.853792
12.014106 1.374909 -168.855158
12.074738 1.513626 -168.854101
12.041021 1.613856 -168.855467
12.007304 1.714085 -168.856833
11.973587 1.814315 -168.858199
11.939870 1.914545 -168.859565
12.000502 2.053262 -168.858508
11.966785 2.153492 -168.859874
11.933068 2.253721 -168.861240
11.899351 2.353951 -168.862606
11.865634 2.454181 -168.863972
11.831917 2.554411 -168.865338
11.798200 2.654641 -168.866704
11.764483 2.754871 -168.868070
11.730766 2.855101 -168.869436
11.697049 2.955331 -168.870802
11.663332 3.055561 -168.872168
11.723964 3.194277 -168.871111
11.690247 3.294507 -168.872477
11.656530 3.394737 -168.873843
11.622813 3.494967 -168.875209
11.589096 3.595197 -168.876575
11.555379 3.695427 -168.877941
11.616012 3.834143 -168.876884
11.582295 3.934373 -168.878250
11.548578 4.034603 -168.879616
11.514861 4.134833 -168.880982
11.481144 4.235063 -168.882348
11.447427 4.335293 -168.883714
11.413710 4.435523 -168.885080
11.379993 4.535753 -168.886446
11.440625 4.674469 -168.885389
11.406908 4.774699 -168.886755
11.373191 4.874929 -168.888121
11.339474 4.975159 -168.889487
11.305757 5.075389 -168.890853
11.272040 5.175618 -168.892219
11.238323 5.275848 -168.893585
11.204606 5.376078 -168.894951
11.170889 5.476308 -168.896317
11.137172 5.576538 -168.897683
11.103455 5.676768 -168.899049
11.069738 5.776998 -168.900415
10.941672 5.838742 -168.904205
10.907955 5.938971 -168.905571
10.779888 6.000715 -168.909360
10.746171 6.100945 -168.910726
10.712454 6.201175 -168.912092
10.584388 6.262918 -168.915881
10.550671 6.363148 -168.917247
10.516954 6.463378 -168.918613
10.483237 6.563608 -168.919979
10.449520 6.663838 -168.921345
10.321454 6.725582 -168.925134
10.287737 6.825812 -168.926500
10.159671 6.887555 -168.930289
9.937256 6.910812 -168.936502
9.809190 6.972556 -168.940291
9.681124 7.034299 -168.944080
9.553058 7.096043 -168.947869
9.519341 7.196273 -168.949235
9.296925 7.219530 -168.955447
9.263208 7.319760 -168.956813
9.135142 7.381503 -168.960602
9.007076 7.443247 -168.964392
8.879010 7.504991 -168.968181
8.750944 7.566734 -168.971970
8.717227 7.666964 -168.973336
8.683510 7.767194 -168.974702
8.555444 7.828938 -168.978491
8.427378 7.890681 -168.982280
8.299312 7.952425 -168.986069
8.171245 8.014168 -168.989858
8.043179 8.075912 -168.993648
7.915113 8.137655 -168.997437
13.883765 -4.476390 -168.862887
13.866916 -4.325942 -168.861830
13.787601 -4.255999 -168.863196
13.708286 -4.186056 -168.864562
13.878834 -3.794093 -168.856236
13.986916 -3.482636 -168.850332
13.907601 -3.412693 -168.851698
13.890752 -3.262245 -168.850641
13.811437 -3.192302 -168.852007
13.732122 -3.122358 -168.853373
13.652807 -3.052415 -168.854739
13.635958 -2.901967 -168.853682
13.556643 -2.832024 -168.855048
13.539794 -2.681576 -168.853991
13.460479 -2.611633 -168.855357
13.506095 -2.380680 -168.851877
13.489246 -2.230232 -168.850820
13.409931 -2.160289 -168.852186
13.393082 -2.009841 -168.851129
13.313767 -1.939898 -168.852495
13.234453 -1.869955 -168.853861
13.217603 -1.719507 -168.852803
13.138288 -1.649564 -168.854169
13.121439 -1.499116 -168.853112
13.104590 -1.348668 -168.852055
13.025275 -1.278725 -168.853421
12.945960 -1.208782 -168.854787
12.929111 -1.058334 -168.853730
12.849796 -0.988390 -168.855096
12.770482 -0.918447 -168.856462
12.753632 -0.767999 -168.855405
12.736783 -0.617551 -168.854348
12.657468 -0.547608 -168.855714
12.640619 -0.397160 -168.854657
12.686235 -0.166208 -168.851177
12.669386 -0.015760 -168.850120
12.590071 0.054183 -168.851486
12.573222 0.204631 -168.850428
12.493907 0.274575 -168.851794
12.477058 0.425023 -168.850737
12.397743 0.494966 -168.852103
12.380894 0.645414 -168.851046
12.301579 0.715357 -168.852412
12.222264 0.785300 -168.853778
12.142950 0.855243 -168.855144
12.126100 1.005691 -168.854087
12.234182 1.317149 -168.848184
12.217333 1.467597 -168.847127
12.138018 1.537540 -168.848493
12.121169 1.687988 -168.847436
12.041854 1.757931 -168.848802
11.962539 1.827874 -168.850168
11.945690 1.978322 -168.849111
11.866375 2.048265 -168.850477
11.849526 2.198713 -168.849419
11.957608 2.510171 -168.843516
12.003224 2.741123 -168.840036
11.986375 2.891571 -168.838979
11.907060 2.961514 -168.840345
11.890211 3.111962 -168.839288
11.810896 3.181905 -168.840654
11.794047 3.332353 -168.839597
11.714732 3.402297 -168.840963
11.697883 3.552745 -168.839906
11.681033 3.703192 -168.838848
11.664184 3.853640 -168.837791
11.647335 4.004088 -168.836734
11.630486 4.154536 -168.835677
11.551171 4.224479 -168.837043
11.534322 4.374927 -168.835986
11.455007 4.444871 -168.837352
11.438158 4.595319 -168.836295
11.421308 4.745766 -168.835238
11.404459 4.896214 -168.834181
11.387610 5.046662 -168.833124
11.308295 5.116605 -168.834490
11.291446 5.267053 -168.833432
11.212131 5.336997 -168.834799
11.195282 5.487445 -168.833741
11.115967 5.557388 -168.835107
11.099118 5.707836 -168.834050
11.082268 5.858284 -168.832993
11.002954 5.928227 -168.834359
10.986104 6.078675 -168.833302
10.906790 6.148618 -168.834668
10.827475 6.218561 -168.836034
10.748160 6.288504 -168.837400
10.668845 6.358447 -168.838766
10.651996 6.508895 -168.837709
10.572681 6.578838 -168.839075
10.493366 6.648782 -168.840441
10.538983 6.879734 -168.836961
10.522133 7.030182 -168.835904
10.442819 7.100125 -168.837270
10.363504 7.170069 -168.838636
10.346655 7.320517 -168.837579
10.267340 7.390460 -168.838945
10.188025 7.460403 -168.840311
10.108710 7.530346 -168.841677
9.966930 7.519784 -168.845466
9.887615 7.589728 -168.846832
9.808300 7.659671 -168.848198
9.728985 7.729614 -168.849564
9.587205 7.719052 -168.853353
9.507890 7.788995 -168.854719
9.428576 7.858939 -168.856085
9.286795 7.848377 -168.859874
9.207480 7.918320 -168.861240
9.128166 7.988263 -168.862606
9.048851 8.058206 -168.863972
8.969536 8.128150 -168.865338
8.890221 8.198093 -168.866704
8.748441 8.187531 -168.870493
8.669126 8.257474 -168.871859
8.589811 8.327417 -168.873225
8.510497 8.397361 -168.874591
8.431182 8.467304 -168.875958
8.289401 8.456742 -168.879747
8.210087 8.526685 -168.881113
8.130772 8.596628 -168.882479
8.051457 8.666572 -168.883845
7.909677 8.656010 -168.887634
7.830362 8.725953 -168.889000
7.751047 8.795896 -168.890366
7.671732 8.865839 -168.891732
7.529952 8.855278 -168.895521
7.450637 8.925221 -168.896887
7.371322 8.995164 -168.898253
7.229542 8.984603 -168.902042
7.087762 8.974041 -168.905831
6.945981 8.963479 -168.909620
6.804201 8.952918 -168.913410
6.662421 8.942356 -168.917199
6.458175 8.851290 -168.923411
6.316395 8.840728 -168.927200
6.237080 8.910671 -168.928566
6.095299 8.900110 -168.932355
6.015985 8.970053 -168.933721
5.874204 8.959491 -168.937510
5.794890 9.029434 -168.938876
5.653109 9.018873 -168.942666
5.573794 9.088816 -168.944032
5.432014 9.078254 -168.947821
5.290234 9.067693 -168.951610
4.898591 8.735112 -168.965092
4.819276 8.805055 -168.966458
4.739962 8.874998 -168.967824
4.598181 8.864436 -168.971613
4.518867 8.934380 -168.972979
4.377086 8.923818 -168.976768
4.235306 8.913256 -168.980557
4.031060 8.822190 -168.986769
10.924507 5.917236 -168.859812
10.834691 6.039103 -168.858755
10.758719 6.261922 -168.855275
10.668903 6.383789 -168.854218
10.634465 6.909464 -168.843468
10.544649 7.031331 -168.842411
10.440989 7.052246 -168.843777
10.351173 7.174113 -168.842720
10.247513 7.195028 -168.844086
10.143853 7.215943 -168.845452
10.040193 7.236858 -168.846818
9.936532 7.257773 -168.848184
9.832872 7.278689 -168.849550
9.729212 7.299604 -168.850916
9.625552 7.320519 -168.852282
9.521892 7.341434 -168.853648
9.432076 7.463301 -168.852591
9.342260 7.585168 -168.851534
9.321666 8.211795 -168.838361
9.231850 8.333662 -168.837304
9.128190 8.354577 -168.838670
9.038374 8.476444 -168.837613
8.934714 8.497359 -168.838979
8.844898 8.619226 -168.837922
8.741238 8.640141 -168.839288
8.651422 8.762008 -168.838231
8.547762 8.782923 -168.839597
8.444102 8.803838 -168.840963
8.340442 8.824754 -168.842329
8.236781 8.845669 -168.843695
8.133121 8.866584 -168.845061
8.029461 8.887499 -168.846427
7.939645 9.009366 -168.845370
7.835985 9.030281 -168.846736
7.746169 9.152148 -168.845678
7.642509 9.173063 -168.847045
7.538849 9.193978 -168.848411
7.435189 9.214894 -168.849777
7.331529 9.235809 -168.851143
7.241713 9.357676 -168.850085
7.138053 9.378591 -168.851451
7.020548 9.298554 -168.855241
6.916888 9.319469 -168.856607
6.813228 9.340384 -168.857973
6.709568 9.361300 -168.859339
6.605908 9.382215 -168.860705
6.502247 9.403130 -168.862071
6.398587 9.424045 -168.863437
6.281083 9.344008 -168.867226
6.177423 9.364923 -168.868592
6.073762 9.385838 -168.869958
5.970102 9.406754 -168.871324
5.866442 9.427669 -168.872690
5.762782 9.448584 -168.874056
5.645277 9.368547 -168.877845
5.541617 9.389462 -168.879211
5.424113 9.309425 -168.883000
5.320453 9.330340 -168.884366
5.202948 9.250304 -168.888155
5.099288 9.271219 -168.889521
4.995628 9.292134 -168.890887
4.891968 9.313049 -168.892253
4.802152 9.434916 -168.891196
4.698492 9.455831 -168.892562
4.594832 9.476746 -168.893928
4.477327 9.396710 -168.897717
4.373667 9.417625 -168.899084
4.270007 9.438540 -168.900450
4.166347 9.459455 -168.901816
4.062686 9.480370 -168.903182
3.945182 9.400333 -168.906971
3.841522 9.421248 -168.908337
3.724017 9.341212 -168.912126
3.620357 9.362127 -168.913492
3.516697 9.383042 -168.914858
3.413037 9.403957 -168.916224
3.295532 9.323920 -168.920013
3.191872 9.344835 -168.921379
3.074368 9.264799 -168.925168
2.943019 9.083810 -168.931380
2.811670 8.902821 -168.937593
2.694166 8.822784 -168.941382
6.825408 9.515171 -168.887832
6.686692 9.575803 -168.886775
6.547976 9.636435 -168.885718
6.409259 9.697067 -168.884661
6.232057 9.852048 -168.881181
6.131827 9.818331 -168.882547
5.993110 9.878963 -168.881490
5.892880 9.845246 -168.882856
5.754164 9.905878 -168.881799
5.653934 9.872161 -168.883165
5.515218 9.932793 -168.882108
5.414988 9.899076 -168.883474
5.314758 9.865359 -168.884840
5.214528 9.831642 -168.886206
5.075812 9.892275 -168.885149
4.975582 9.858558 -168.886515
4.875352 9.824841 -168.887881
4.775122 9.791124 -168.889247
4.636406 9.851756 -168.888189
4.536176 9.818039 -168.889555
4.435946 9.784322 -168.890922
4.335716 9.750605 -168.892288
4.235486 9.716888 -168.893654
4.135256 9.683171 -168.895020
4.035026 9.649454 -168.896386
3.896310 9.710086 -168.895328
3.796080 9.676369 -168.896694
3.695850 9.642652 -168.898060
3.595620 9.608935 -168.899427
3.495390 9.575218 -168.900793
3.395160 9.541501 -168.902159
3.294930 9.507784 -168.903525
3.194701 9.474067 -168.904891
3.094471 9.440350 -168.906257
2.994241 9.406633 -168.907623
2.894011 9.372916 -168.908989
2.793781 9.339199 -168.910355
2.693551 9.305482 -168.911721
2.593321 9.271765 -168.913087
2.493091 9.238048 -168.914453
2.392861 9.204331 -168.915819
2.292631 9.170614 -168.917185
2.192401 9.136897 -168.918551
2.092171 9.103180 -168.919917
1.991941 9.069463 -168.921283
1.891712 9.035746 -168.922649
1.791482 9.002029 -168.924015
1.691252 8.968312 -168.925381
1.591022 8.934595 -168.926747
1.529278 8.806529 -168.930536
1.429048 8.772812 -168.931902
1.328818 8.739095 -168.933268
1.228588 8.705378 -168.934634
1.128359 8.671661 -168.936000
1.028129 8.637944 -168.937366
0.927899 8.604227 -168.938732
0.827669 8.570510 -168.940098
0.727439 8.536793 -168.941464
0.627209 8.503076 -168.942830
0.565465 8.375010 -168.946619
0.465235 8.341293 -168.947985
0.365006 8.307576 -168.949351
0.264776 8.273859 -168.950717
0.203032 8.145792 -168.954506
0.102802 8.112075 -168.955872
0.002572 8.078358 -168.957238
-0.097658 8.044641 -168.958604
-0.159401 7.916575 -168.962394
-0.259631 7.882858 -168.963760
-0.321375 7.754792 -168.967549
-0.383118 7.626726 -168.971338
-0.444862 7.498660 -168.975127
-0.545092 7.464943 -168.976493
-0.606835 7.336877 -168.980282
-0.668579 7.208811 -168.984071
-0.730322 7.080745 -168.987861
-0.792066 6.952679 -168.991650
-0.853809 6.824612 -168.995439
0.580702 9.158569 -168.946962
0.430254 9.141720 -168.945905
0.360311 9.062405 -168.947271
0.209863 9.045556 -168.946214
0.139920 8.966241 -168.947580
0.069976 8.886927 -168.948946
0.000033 8.807612 -168.950312
-0.069910 8.728297 -168.951678
-0.139853 8.648983 -168.953044
-0.209796 8.569668 -168.954410
-0.360244 8.552819 -168.953353
-0.430187 8.473504 -168.954719
-0.580635 8.456655 -168.953662
-0.650578 8.377340 -168.955028
-0.801026 8.360491 -168.953971
-0.870969 8.281176 -168.955337
-0.940912 8.201862 -168.956703
-1.010855 8.122547 -168.958069
-1.080799 8.043232 -168.959435
-1.150742 7.963918 -168.960801
-1.220685 7.884603 -168.962167
-1.290628 7.805288 -168.963533
-1.360571 7.725974 -168.964899
-1.430514 7.646659 -168.966265
-1.500458 7.567344 -168.967631
-1.570401 7.488029 -168.968997
-1.720849 7.471180 -168.967940
-1.790792 7.391866 -168.969306
-1.860735 7.312551 -168.970672
-1.930678 7.233236 -168.972038
-2.000621 7.153922 -168.973404
-2.070564 7.074607 -168.974770
-2.140507 6.995292 -168.976136
-2.210451 6.915978 -168.977502
-2.280394 6.836663 -168.978868
-2.350337 6.757348 -168.980234
-2.420280 6.678033 -168.981600
-2.490223 6.598719 -168.982966
-2.560166 6.519404 -168.984332
-2.549605 6.377624 -168.988121
-2.619548 6.298309 -168.989487
-2.689491 6.218995 -168.990853
-2.759434 6.139680 -168.992219
-2.829378 6.060365 -168.993585
-2.899321 5.981050 -168.994951
-2.969264 5.901736 -168.996317
-3.039207 5.822421 -168.997683
-3.109150 5.743106 -168.999049
-3.179093 5.663792 -169.000415
-3.249036 5.584477 -169.001781
-3.318980 5.505162 -169.003147
-3.388923 5.425848 -169.004513
-3.458866 5.346533 -169.005879
-3.528809 5.267218 -169.007245
-3.518248 5.125438 -169.011035
-3.588191 5.046123 -169.012401
-3.658134 4.966809 -169.013767
-3.728077 4.887494 -169.015133
-3.798020 4.808179 -169.016499
-3.787459 4.666399 -169.020288
-3.857402 4.587084 -169.021654
-3.846840 4.445304 -169.025443
-3.514260 4.053662 -169.038925
-3.584203 3.974347 -169.040291
-3.654146 3.895032 -169.041657
-3.643585 3.753252 -169.045446
-3.713528 3.673938 -169.046812
-3.783471 3.594623 -169.048178
-3.853414 3.515308 -169.049544
-3.923357 3.435993 -169.050910
-3.912796 3.294213 -169.054699
-3.902234 3.152433 -169.058488
-3.485173 6.010257 -168.998514
-3.607040 5.920441 -168.997457
-3.627956 5.816781 -168.998823
-3.648871 5.713121 -169.000189
-3.770738 5.623305 -168.999132
-3.791653 5.519645 -169.000498
-3.812568 5.415985 -169.001864
-3.833483 5.312324 -169.003230
-3.854398 5.208664 -169.004596
-3.875313 5.105004 -169.005962
-3.896229 5.001344 -169.007328
-4.018096 4.911528 -169.006271
-4.039011 4.807868 -169.007637
-4.059926 4.704208 -169.009003
-4.080841 4.600548 -169.010369
-4.101756 4.496888 -169.011735
-4.122671 4.393227 -169.013101
-4.143586 4.289567 -169.014467
-4.164502 4.185907 -169.015833
-4.185417 4.082247 -169.017199
-4.206332 3.978587 -169.018565
-4.328199 3.888771 -169.017508
-4.349114 3.785111 -169.018874
-4.370029 3.681451 -169.020240
-4.390944 3.577790 -169.021606
-4.411859 3.474130 -169.022972
-4.432774 3.370470 -169.024338
-4.453690 3.266810 -169.025704
-4.474605 3.163150 -169.027070
-4.596472 3.073334 -169.026013
-4.617387 2.969674 -169.027379
-4.638302 2.866014 -169.028745
-4.659217 2.762353 -169.030111
-4.781084 2.672538 -169.029054
-4.801999 2.568877 -169.030420
-4.822914 2.465217 -169.031786
-4.944782 2.375401 -169.030729
-4.965697 2.271741 -169.032095
-4.986612 2.168081 -169.033461
-5.007527 2.064421 -169.034827
-5.028442 1.960761 -169.036193
-5.049357 1.857101 -169.037559
-5.070272 1.753441 -169.038925
-5.091187 1.649780 -169.040291
-5.112103 1.546120 -169.041657
-5.133018 1.442460 -169.043023
-5.153933 1.338800 -169.044389
-5.174848 1.235140 -169.045755
-5.195763 1.131480 -169.047121
-5.216678 1.027819 -169.048487
-5.237593 0.924159 -169.049853
-5.157557 0.806655 -169.053642
-5.178472 0.702995 -169.055008
-5.199387 0.599334 -169.056374
-5.220302 0.495674 -169.057740
-5.241217 0.392014 -169.059106
-5.262132 0.288354 -169.060472
-5.283047 0.184694 -169.061838
-5.303963 0.081034 -169.063204
-5.324878 -0.022627 -169.064570
-5.244841 -0.140131 -169.068359
-5.265756 -0.243791 -169.069725
-5.286671 -0.347451 -169.071091
-5.307586 -0.451111 -169.072457
-5.328501 -0.554772 -169.073823
-5.349417 -0.658432 -169.075189
-5.269380 -0.775936 -169.078978
-5.290295 -0.879596 -169.080344
-5.311210 -0.983257 -169.081710
-5.332125 -1.086917 -169.083076
-5.353040 -1.190577 -169.084442
-5.273003 -1.308081 -169.088232
-5.293919 -1.411742 -169.089598
-5.314834 -1.515402 -169.090964
-5.335749 -1.619062 -169.092330
-5.356664 -1.722722 -169.093696
-5.276627 -1.840227 -169.097485
-5.297542 -1.943887 -169.098851
-5.318457 -2.047547 -169.100217
-5.339373 -2.151207 -169.101583
-5.360288 -2.254867 -169.102949
-5.280251 -2.372372 -169.106738
-5.200214 -2.489876 -169.110527
-5.530932 1.041704 -169.022663
-5.591565 0.902988 -169.021606
-5.652197 0.764272 -169.020549
-5.712829 0.625555 -169.019492
-5.773461 0.486839 -169.018434
-5.739744 0.386609 -169.019800
-5.800376 0.247893 -169.018743
-5.766659 0.147663 -169.020109
-5.827291 0.008947 -169.019052
-5.887923 -0.129770 -169.017995
-5.948555 -0.268486 -169.016938
-5.914838 -0.368716 -169.018304
-5.975470 -0.507432 -169.017247
-5.941753 -0.607662 -169.018613
-5.908036 -0.707892 -169.019979
-5.968669 -0.846608 -169.018922
-5.934952 -0.946838 -169.020288
-5.901235 -1.047068 -169.021654
-5.867518 -1.147298 -169.023020
-5.833801 -1.247528 -169.024386
-5.894433 -1.386244 -169.023329
-5.860716 -1.486474 -169.024695
-5.826999 -1.586704 -169.026061
-5.793282 -1.686934 -169.027427
-5.853914 -1.825650 -169.026370
-5.820197 -1.925880 -169.027736
-5.786480 -2.026110 -169.029102
-5.752763 -2.126340 -169.030468
-5.719046 -2.226570 -169.031834
-5.685329 -2.326800 -169.033200
-5.651612 -2.427030 -169.034566
-5.617895 -2.527260 -169.035932
-5.584178 -2.627490 -169.037298
-5.550461 -2.727720 -169.038664
-5.516744 -2.827950 -169.040030
-5.483027 -2.928179 -169.041396
-5.449310 -3.028409 -169.042762
-5.415593 -3.128639 -169.044128
-5.381876 -3.228869 -169.045494
-5.348159 -3.329099 -169.046860
-5.314442 -3.429329 -169.048226
-5.186376 -3.491073 -169.052015
-5.152659 -3.591303 -169.053381
-5.118942 -3.691532 -169.054747
-5.085225 -3.791762 -169.056113
-5.051508 -3.891992 -169.057479
-5.017791 -3.992222 -169.058845
-4.984074 -4.092452 -169.060211
-4.950357 -4.192682 -169.061577
-4.916640 -4.292912 -169.062943
-4.788574 -4.354656 -169.066732
-4.754857 -4.454885 -169.068098
-4.721140 -4.555115 -169.069464
-4.687423 -4.655345 -169.070830
-4.559356 -4.717089 -169.074620
-4.525639 -4.817319 -169.075986
-4.491922 -4.917549 -169.077352
-4.363856 -4.979292 -169.081141
-4.330139 -5.079522 -169.082507
-4.202073 -5.141266 -169.086296
-4.168356 -5.241496 -169.087662
-4.134639 -5.341726 -169.089028
-4.100922 -5.441955 -169.090394
-3.972856 -5.503699 -169.094183
-3.844790 -5.565443 -169.097972
-3.811073 -5.665672 -169.099338
-3.683007 -5.727416 -169.103127
-3.649290 -5.827646 -169.104493
-3.615573 -5.927876 -169.105859
-3.581856 -6.028106 -169.107225
-3.453790 -6.089849 -169.111015
-3.420073 -6.190079 -169.112381
-3.386356 -6.290309 -169.113747
-3.258290 -6.352053 -169.117536
-3.224573 -6.452283 -169.118902
-3.190856 -6.552513 -169.120268
-3.157139 -6.652743 -169.121634
-3.123422 -6.752972 -169.123000
-2.995356 -6.814716 -169.126789
-2.961639 -6.914946 -169.128155
-2.833572 -6.976689 -169.131944
-5.548723 -1.653492 -169.018565
-5.656805 -1.964949 -169.012661
-5.702421 -2.195902 -169.009181
-6.122831 -2.909882 -168.991162
-6.105982 -3.060330 -168.990105
-6.026667 -3.130273 -168.991471
-5.947352 -3.200216 -168.992837
-5.930503 -3.350664 -168.991780
-5.851188 -3.420607 -168.993146
-5.834339 -3.571055 -168.992089
-5.755025 -3.640998 -168.993455
-5.738175 -3.791446 -168.992398
-5.658861 -3.861389 -168.993764
-5.642012 -4.011837 -168.992707
-5.562697 -4.081780 -168.994073
-5.483382 -4.151724 -168.995439
-5.404067 -4.221667 -168.996805
-5.387218 -4.372115 -168.995748
-5.307904 -4.442058 -168.997114
-5.228589 -4.512001 -168.998480
-5.149274 -4.581944 -168.999846
-5.069960 -4.651887 -169.001212
-5.053110 -4.802335 -169.000155
-4.973796 -4.872278 -169.001521
-4.894481 -4.942221 -169.002887
-4.815166 -5.012164 -169.004253
-4.798317 -5.162612 -169.003196
-4.719003 -5.232555 -169.004562
-4.702153 -5.383003 -169.003504
-4.622839 -5.452946 -169.004871
-4.543524 -5.522890 -169.006237
-4.464209 -5.592833 -169.007603
-4.384895 -5.662776 -169.008969
-4.305580 -5.732719 -169.010335
-4.226265 -5.802662 -169.011701
-4.209416 -5.953110 -169.010643
-4.130101 -6.023053 -169.012010
-4.113252 -6.173501 -169.010952
-4.033938 -6.243444 -169.012318
-3.954623 -6.313387 -169.013684
-3.937774 -6.463835 -169.012627
-3.858459 -6.533778 -169.013993
-3.779144 -6.603722 -169.015359
-3.699830 -6.673665 -169.016725
-3.682981 -6.824113 -169.015668
-3.603666 -6.894056 -169.017034
-3.524351 -6.963999 -169.018400
-3.445037 -7.033942 -169.019766
-3.365722 -7.103885 -169.021132
-3.348873 -7.254333 -169.020075
-3.269558 -7.324276 -169.021441
-3.190243 -7.394219 -169.022807
-3.110929 -7.464162 -169.024173
-3.031614 -7.534106 -169.025539
-3.014765 -7.684553 -169.024482
-2.935450 -7.754497 -169.025848
-2.856135 -7.824440 -169.027214
-2.776821 -7.894383 -169.028580
-2.697506 -7.964326 -169.029946
-2.618191 -8.034269 -169.031312
-2.538877 -8.104212 -169.032678
-2.459562 -8.174156 -169.034044
-2.380247 -8.244099 -169.035410
-2.300933 -8.314042 -169.036776
-2.221618 -8.383985 -169.038142
-2.142303 -8.453928 -169.039508
-2.062989 -8.523871 -169.040874
-1.983674 -8.593815 -169.042240
-1.904359 -8.663758 -169.043606
-1.825045 -8.733701 -169.044972
-1.745730 -8.803644 -169.046338
-1.666415 -8.873587 -169.047704
-1.587100 -8.943530 -169.049070
-1.507786 -9.013473 -169.050436
-1.428471 -9.083417 -169.051802
-1.349156 -9.153360 -169.053169
-1.332307 -9.303808 -169.052111
-1.252993 -9.373751 -169.053477
-1.173678 -9.443694 -169.054843
-1.094363 -9.513637 -169.056209
-1.015049 -9.583580 -169.057575
-0.935734 -9.653523 -169.058941
-0.793954 -9.642962 -169.062731
-0.714639 -9.712905 -169.064097
-0.635324 -9.782848 -169.065463
-0.556010 -9.852791 -169.066829
-0.476695 -9.922735 -169.068195
-0.397380 -9.992678 -169.069561
-0.318066 -10.062621 -169.070927
-0.238751 -10.132564 -169.072293
-0.159436 -10.202507 -169.073659
-0.080121 -10.272450 -169.075025
-0.000807 -10.342393 -169.076391
0.078508 -10.412337 -169.077757
0.157823 -10.482280 -169.079123
0.237137 -10.552223 -169.080489
0.316452 -10.622166 -169.081855
0.395767 -10.692109 -169.083221
0.475081 -10.762052 -169.084587
0.554396 -10.831996 -169.085953
0.633711 -10.901939 -169.087319
0.713025 -10.971882 -169.088685
0.792340 -11.041825 -169.090051
0.871655 -11.111768 -169.091417
1.013435 -11.101207 -169.095206
1.092750 -11.171150 -169.096572
1.172064 -11.241093 -169.097938
1.251379 -11.311036 -169.099304
1.330694 -11.380979 -169.100670
1.472474 -11.370418 -169.104459
1.551789 -11.440361 -169.105825
1.631103 -11.510304 -169.107191
1.772884 -11.499743 -169.110980
1.852198 -11.569686 -169.112346
1.931513 -11.639629 -169.113713
2.010828 -11.709572 -169.115079
2.152608 -11.699010 -169.118868
2.231923 -11.768954 -169.120234
2.373703 -11.758392 -169.124023
2.765345 -11.425812 -169.137504
2.844660 -11.495755 -169.138870
2.986440 -11.485193 -169.142660
3.065755 -11.555137 -169.144026
3.145069 -11.625080 -169.145392
3.224384 -11.695023 -169.146758
3.366164 -11.684461 -169.150547
3.507945 -11.673900 -169.154336
-2.631694 -7.590446 -168.969093
-2.555722 -7.813265 -168.965613
-2.465906 -7.935132 -168.964556
-2.376091 -8.056999 -168.963499
-2.286275 -8.178866 -168.962442
-2.196459 -8.300734 -168.961385
-2.106643 -8.422601 -168.960328
-2.002983 -8.443516 -168.961694
-1.913167 -8.565383 -168.960636
-1.823351 -8.687250 -168.959579
-1.719691 -8.708165 -168.960945
-1.629875 -8.830032 -168.959888
-1.553904 -9.052851 -168.956408
-1.450244 -9.073766 -168.957774
-1.360428 -9.195633 -168.956717
-1.256768 -9.216548 -168.958083
-1.153108 -9.237463 -168.959449
-1.049447 -9.258378 -168.960815
-0.959632 -9.380246 -168.959758
-0.855971 -9.401161 -168.961124
-0.766156 -9.523028 -168.960067
-0.662495 -9.543943 -168.961433
-0.572680 -9.665810 -168.960376
-0.482864 -9.787677 -168.959319
-0.393048 -9.909544 -168.958261
-0.303232 -10.031411 -168.957204
-0.213416 -10.153278 -168.956147
-0.109756 -10.174193 -168.957513
-0.006096 -10.195108 -168.958879
0.083720 -10.316975 -168.957822
0.187380 -10.337891 -168.959188
0.277196 -10.459758 -168.958131
0.380856 -10.480673 -168.959497
0.470672 -10.602540 -168.958440
0.560488 -10.724407 -168.957383
0.650304 -10.846274 -168.956326
0.753964 -10.867189 -168.957692
0.843780 -10.989056 -168.956635
0.947440 -11.009971 -168.958001
1.023411 -11.232790 -168.954520
1.127071 -11.253705 -168.955886
1.216887 -11.375572 -168.954829
1.320547 -11.396487 -168.956195
1.424208 -11.417403 -168.957561
1.514023 -11.539270 -168.956504
1.617684 -11.560185 -168.957870
1.721344 -11.581100 -168.959236
1.825004 -11.602015 -168.960602
1.928664 -11.622930 -168.961968
2.032324 -11.643845 -168.963334
2.122140 -11.765712 -168.962277
2.225800 -11.786627 -168.963643
2.329460 -11.807543 -168.965009
2.433120 -11.828458 -168.966375
2.536781 -11.849373 -168.967741
2.640441 -11.870288 -168.969107
2.744101 -11.891203 -168.970473
2.833917 -12.013070 -168.969416
2.937577 -12.033985 -168.970782
3.041237 -12.054900 -168.972148
3.144897 -12.075815 -168.973514
3.248557 -12.096731 -168.974880
3.352218 -12.117646 -168.976246
3.455878 -12.138561 -168.977612
3.559538 -12.159476 -168.978978
3.663198 -12.180391 -168.980344
3.766858 -12.201306 -168.981710
3.884363 -12.121269 -168.985500
3.988023 -12.142185 -168.986866
4.091683 -12.163100 -168.988232
4.195343 -12.184015 -168.989598
4.299003 -12.204930 -168.990964
4.416508 -12.124893 -168.994753
4.520168 -12.145808 -168.996119
4.623828 -12.166723 -168.997485
4.727488 -12.187639 -168.998851
4.831148 -12.208554 -169.000217
4.934809 -12.229469 -169.001583
5.038469 -12.250384 -169.002949
5.155973 -12.170347 -169.006738
5.259633 -12.191262 -169.008104
5.377138 -12.111226 -169.011893
5.480798 -12.132141 -169.013259
5.584458 -12.153056 -169.014625
5.757340 -11.669211 -169.028107
5.888689 -11.488223 -169.034319
6.006193 -11.408186 -169.038108
6.123698 -11.328149 -169.041897
6.227358 -11.349064 -169.043263
6.344862 -11.269028 -169.047053
6.476211 -11.088039 -169.053265
6.607560 -10.907050 -169.059477
6.725065 -10.827013 -169.063266
6.842569 -10.746977 -169.067055
6.946229 -10.767892 -169.068421
7.063734 -10.687855 -169.072210
7.167394 -10.708770 -169.073577
7.284898 -10.628733 -169.077366
7.402403 -10.548696 -169.081155
7.519907 -10.468660 -169.084944
7.637412 -10.388623 -169.088733
7.754916 -10.308586 -169.092522
7.872421 -10.228549 -169.096311
7.989925 -10.148513 -169.100100
8.107430 -10.068476 -169.103890
8.224934 -9.988439 -169.107679
8.342439 -9.908402 -169.111468
8.459943 -9.828365 -169.115257
8.577448 -9.748329 -169.119046
8.681108 -9.769244 -169.120412
8.798612 -9.689207 -169.124201
8.902273 -9.710122 -169.125567
9.019777 -9.630085 -169.129356
9.123437 -9.651000 -169.130723
9.240942 -9.570964 -169.134512
9.358446 -9.490927 -169.138301
9.462106 -9.511842 -169.139667
9.579611 -9.431805 -169.143456
9.697115 -9.351768 -169.147245
9.800775 -9.372684 -169.148611
9.918280 -9.292647 -169.152400
10.021940 -9.313562 -169.153766
10.153289 -9.132573 -169.159979
-0.720238 -9.392737 -168.917981
-0.581521 -9.453369 -168.916924
-0.442805 -9.514001 -168.915867
-0.073170 -10.140728 -168.900271
0.104032 -10.295709 -168.896791
0.204262 -10.261992 -168.898157
0.342978 -10.322624 -168.897100
0.481695 -10.383256 -168.896043
0.658897 -10.538237 -168.892562
0.836100 -10.693218 -168.889082
1.013303 -10.848200 -168.885602
1.228992 -11.097530 -168.879699
1.406194 -11.252511 -168.876218
1.544911 -11.313143 -168.875161
1.683627 -11.373776 -168.874104
1.822343 -11.434408 -168.873047
1.922573 -11.400691 -168.874413
2.061290 -11.461323 -168.873356
2.200006 -11.521955 -168.872299
2.338722 -11.582587 -168.871242
2.477438 -11.643219 -168.870185
2.654641 -11.798200 -168.866704
2.831844 -11.953182 -168.863224
2.932074 -11.919465 -168.864590
3.070790 -11.980097 -168.863533
3.209506 -12.040729 -168.862476
3.309736 -12.007012 -168.863842
3.448453 -12.067644 -168.862785
3.587169 -12.128276 -168.861728
3.725885 -12.188908 -168.860671
3.826115 -12.155191 -168.862037
3.964831 -12.215823 -168.860979
4.065061 -12.182106 -168.862345
4.165291 -12.148389 -168.863712
4.304008 -12.209021 -168.862654
4.404237 -12.175304 -168.864020
4.504467 -12.141587 -168.865386
4.643184 -12.202219 -168.864329
4.743414 -12.168502 -168.865695
4.843644 -12.134785 -168.867061
4.943873 -12.101068 -168.868427
5.082590 -12.161701 -168.867370
5.182820 -12.127984 -168.868736
5.283050 -12.094267 -168.870102
5.383280 -12.060550 -168.871468
5.483509 -12.026833 -168.872834
5.583739 -11.993116 -168.874200
5.683969 -11.959399 -168.875566
5.784199 -11.925682 -168.876932
5.884429 -11.891965 -168.878298
5.984659 -11.858248 -168.879664
6.084889 -11.824531 -168.881030
6.146633 -11.696464 -168.884820
6.246862 -11.662747 -168.886186
6.347092 -11.629030 -168.887552
6.408836 -11.500964 -168.891341
6.509066 -11.467247 -168.892707
6.609296 -11.433530 -168.894073
6.671039 -11.305464 -168.897862
6.771269 -11.271747 -168.899228
6.871499 -11.238030 -168.900594
6.971729 -11.204313 -168.901960
7.071959 -11.170596 -168.903326
7.172189 -11.136879 -168.904692
7.272419 -11.103162 -168.906058
7.334162 -10.975096 -168.909847
7.434392 -10.941379 -168.911213
7.534622 -10.907662 -168.912579
7.596366 -10.779596 -168.916368
7.696596 -10.745879 -168.917734
7.796826 -10.712162 -168.919100
7.897056 -10.678445 -168.920466
7.958799 -10.550379 -168.924256
8.059029 -10.516662 -168.925622
8.159259 -10.482945 -168.926988
8.259489 -10.449228 -168.928354
8.359719 -10.415511 -168.929720
8.459949 -10.381794 -168.931086
8.521692 -10.253728 -168.934875
8.621922 -10.220011 -168.936241
8.722152 -10.186294 -168.937607
8.822382 -10.152577 -168.938973
8.922612 -10.118860 -168.940339
9.022842 -10.085143 -168.941705
9.123072 -10.051426 -168.943071
9.223302 -10.017709 -168.944437
9.323532 -9.983992 -168.945803
9.423762 -9.950275 -168.947169
9.485505 -9.822209 -168.950958
9.585735 -9.788492 -168.952324
9.685965 -9.754775 -168.953690
9.786195 -9.721058 -168.955056
9.886425 -9.687341 -168.956422
9.986655 -9.653624 -168.957788
10.125371 -9.714256 -168.956731
10.225601 -9.680539 -168.958097
10.287344 -9.552473 -168.961886
10.387574 -9.518756 -168.963252
10.487804 -9.485039 -168.964618
10.588034 -9.451322 -168.965984
10.649778 -9.323256 -168.969773
10.750008 -9.289539 -168.971139
10.850238 -9.255822 -168.972505
10.950468 -9.222105 -168.973871
11.050698 -9.188388 -168.975237
11.150927 -9.154671 -168.976603
11.251157 -9.120954 -168.977969
11.312901 -8.992887 -168.981759
11.413131 -8.959170 -168.983125
11.513361 -8.925453 -168.984491
11.613591 -8.891736 -168.985857
11.713821 -8.858019 -168.987223
11.814051 -8.824302 -168.988589
11.875794 -8.696236 -168.992378
11.976024 -8.662519 -168.993744
12.076254 -8.628802 -168.995110
12.137997 -8.500736 -168.998899
12.199741 -8.372670 -169.002688
12.222998 -8.150255 -169.008900
12.207769 -7.833491 -169.017536
12.269513 -7.705424 -169.021325
12.331256 -7.577358 -169.025114
12.393000 -7.449292 -169.028903
12.454743 -7.321226 -169.032692
12.554973 -7.287509 -169.034058
12.616717 -7.159443 -169.037847
12.639974 -6.937028 -169.044060
12.701717 -6.808962 -169.047849
