ply
format ascii 1.0
comment VCGLIB generated
element vertex 1553
property float x
property float y
property float z
element face 0
property list uchar int vertex_indices
end_header
6.21737 -15.9028 -25.7042
6.36781 -15.8859 -25.7031
6.51826 -15.8691 -25.7021
6.66871 -15.8522 -25.701
6.73865 -15.7729 -25.7024
6.8891 -15.7561 -25.7013
6.95905 -15.6768 -25.7027
7.10949 -15.6599 -25.7016
7.17943 -15.5806 -25.703
7.32988 -15.5638 -25.7019
7.48033 -15.5469 -25.7009
7.63078 -15.5301 -25.6998
7.70072 -15.4507 -25.7012
7.85117 -15.4339 -25.7001
7.92111 -15.3546 -25.7015
8.07156 -15.3377 -25.7004
8.1415 -15.2584 -25.7018
8.29195 -15.2416 -25.7007
8.4424 -15.2247 -25.6997
8.59285 -15.2079 -25.6986
8.74329 -15.191 -25.6976
8.81323 -15.1117 -25.6989
8.88318 -15.0324 -25.7003
8.95312 -14.9531 -25.7017
9.02307 -14.8738 -25.703
9.09301 -14.7944 -25.7044
9.16295 -14.7151 -25.7058
9.23289 -14.6358 -25.7071
9.38334 -14.619 -25.7061
9.45329 -14.5397 -25.7074
9.60373 -14.5228 -25.7064
9.67368 -14.4435 -25.7077
4.66008 -15.3624 -24.7337
4.89103 -15.408 -24.7302
5.04148 -15.3911 -24.7291
5.11142 -15.3118 -24.7305
5.26187 -15.295 -24.7294
5.65383 -15.4655 -24.7211
5.88479 -15.5112 -24.7177
6.11574 -15.5568 -24.7142
6.34669 -15.6024 -24.7107
6.49714 -15.5855 -24.7096
6.64759 -15.5687 -24.7086
6.71753 -15.4894 -24.7099
6.86798 -15.4725 -24.7089
7.01842 -15.4557 -24.7078
7.16887 -15.4388 -24.7068
7.31932 -15.422 -24.7057
7.46977 -15.4051 -24.7047
7.53971 -15.3258 -24.706
7.69016 -15.309 -24.705
7.7601 -15.2296 -24.7063
7.91055 -15.2128 -24.7053
7.98049 -15.1335 -24.7066
8.13094 -15.1166 -24.7056
8.20088 -15.0373 -24.7069
8.27083 -14.958 -24.7083
8.42128 -14.9412 -24.7073
8.49122 -14.8618 -24.7086
8.56116 -14.7825 -24.71
8.6311 -14.7032 -24.7113
8.78155 -14.6864 -24.7103
8.8515 -14.607 -24.7117
8.92144 -14.5277 -24.713
9.07189 -14.5109 -24.712
9.22234 -14.494 -24.7109
9.29228 -14.4147 -24.7123
9.36222 -14.3354 -24.7136
9.51267 -14.3186 -24.7126
9.58261 -14.2392 -24.714
9.65255 -14.1599 -24.7153
9.803 -14.1431 -24.7143
9.87295 -14.0638 -24.7156
9.94289 -13.9844 -24.717
10.0128 -13.9051 -24.7184
10.0828 -13.8258 -24.7197
10.1527 -13.7465 -24.7211
10.2227 -13.6672 -24.7225
10.2926 -13.5879 -24.7238
10.3625 -13.5086 -24.7252
10.4325 -13.4292 -24.7266
10.5024 -13.3499 -24.7279
10.5724 -13.2706 -24.7293
10.7228 -13.2538 -24.7282
10.7928 -13.1745 -24.7296
10.9432 -13.1576 -24.7285
11.0132 -13.0783 -24.7299
11.1636 -13.0614 -24.7289
11.2336 -12.9821 -24.7302
11.3035 -12.9028 -24.7316
11.3734 -12.8235 -24.7329
11.4434 -12.7442 -24.7343
11.5133 -12.6649 -24.7357
11.5833 -12.5855 -24.737
11.6532 -12.5062 -24.7384
11.7232 -12.4269 -24.7398
11.7931 -12.3476 -24.7411
11.863 -12.2683 -24.7425
11.933 -12.189 -24.7439
12.0834 -12.1721 -24.7428
12.1534 -12.0928 -24.7442
12.3038 -12.076 -24.7431
12.3738 -11.9966 -24.7445
12.5242 -11.9798 -24.7434
12.8357 -12.0879 -24.7375
12.9056 -12.0086 -24.7389
13.0561 -11.9917 -24.7378
13.126 -11.9124 -24.7392
13.2765 -11.8956 -24.7381
13.3464 -11.8162 -24.7395
13.4968 -11.7994 -24.7385
13.5668 -11.7201 -24.7398
13.7172 -11.7032 -24.7388
13.8677 -11.6864 -24.7377
13.9376 -11.6071 -24.7391
14.0076 -11.5277 -24.7404
14.0775 -11.4484 -24.7418
14.1475 -11.3691 -24.7432
14.2979 -11.3523 -24.7421
14.3678 -11.273 -24.7435
14.4378 -11.1936 -24.7449
14.5077 -11.1143 -24.7462
14.5777 -11.035 -24.7476
14.6476 -10.9557 -24.7489
14.7176 -10.8764 -24.7503
14.7875 -10.7971 -24.7517
14.8574 -10.7178 -24.7531
14.9274 -10.6384 -24.7544
14.9973 -10.5591 -24.7558
15.0673 -10.4798 -24.7571
15.1372 -10.4005 -24.7585
15.2072 -10.3212 -24.7599
15.1966 -10.1794 -24.7637
15.2665 -10.1001 -24.765
15.3365 -10.0208 -24.7664
15.4064 -9.94145 -24.7678
15.4764 -9.86214 -24.7691
15.5463 -9.78283 -24.7705
15.6163 -9.70351 -24.7719
15.6862 -9.62419 -24.7732
15.6756 -9.48241 -24.777
15.7456 -9.4031 -24.7784
15.8155 -9.32379 -24.7798
15.8855 -9.24447 -24.7811
15.9554 -9.16516 -24.7825
15.9448 -9.02337 -24.7863
16.0148 -8.94406 -24.7876
16.0847 -8.86475 -24.789
16.1547 -8.78543 -24.7904
16.2246 -8.70612 -24.7917
16.2946 -8.6268 -24.7931
16.3645 -8.54749 -24.7945
16.4345 -8.46817 -24.7958
16.5044 -8.38886 -24.7972
16.4938 -8.24708 -24.801
16.5638 -8.16776 -24.8024
16.6337 -8.08845 -24.8037
16.7037 -8.00914 -24.8051
16.7736 -7.92982 -24.8065
16.763 -7.78804 -24.8102
16.833 -7.70872 -24.8116
16.8224 -7.56694 -24.8154
16.8119 -7.42517 -24.8192
13.3488 -1.6656 -25.0033
13.4992 -1.64875 -25.0022
13.6497 -1.6319 -25.0011
13.7196 -1.55258 -25.0025
13.7895 -1.47327 -25.0039
13.779 -1.33149 -25.0077
13.8489 -1.25217 -25.009
13.8384 -1.11039 -25.0128
13.8278 -0.968615 -25.0166
13.6562 -0.701907 -25.0253
13.5652 -0.497658 -25.0315
13.5546 -0.355876 -25.0352
13.544 -0.214097 -25.039
13.5335 -0.0723162 -25.0428
13.2814 0.25686 -25.0539
13.1098 0.523571 -25.0625
13.1798 0.602887 -25.0639
13.1692 0.744668 -25.0677
13.2392 0.823983 -25.069
13.3091 0.903296 -25.0704
13.2985 1.04507 -25.0742
13.3685 1.12439 -25.0756
13.2774 1.32864 -25.0818
13.2669 1.47042 -25.0856
13.2563 1.61219 -25.0894
13.0847 1.87891 -25.098
13.1547 1.95822 -25.0993
13.1441 2.1 -25.1031
13.1335 2.24178 -25.1069
13.123 2.38356 -25.1107
13.1124 2.52535 -25.1145
12.7798 2.91699 -25.128
12.7693 3.05877 -25.1318
12.8392 3.13808 -25.1331
12.9092 3.21739 -25.1345
12.8986 3.35918 -25.1383
12.9685 3.43849 -25.1397
13.0385 3.51781 -25.141
13.0279 3.65959 -25.1448
12.6148 4.11369 -25.1607
12.6848 4.19301 -25.1621
12.6742 4.33479 -25.1659
12.7442 4.4141 -25.1673
12.7336 4.55588 -25.171
12.723 4.69766 -25.1748
12.7125 4.83945 -25.1786
12.7824 4.91876 -25.18
12.7719 5.06054 -25.1838
12.7613 5.20232 -25.1876
12.7507 5.3441 -25.1913
12.8207 5.42341 -25.1927
12.8101 5.5652 -25.1965
12.8801 5.64451 -25.1979
12.8695 5.78629 -25.2017
12.6979 6.053 -25.2103
12.7679 6.13231 -25.2117
12.7573 6.27409 -25.2155
12.8273 6.35341 -25.2168
12.8972 6.43272 -25.2182
12.9671 6.51204 -25.2195
12.9566 6.65382 -25.2233
8.47479 -15.2168 -24.7293
8.79856 -15.1547 -24.7234
8.92043 -15.0649 -24.7224
8.94135 -14.9612 -24.7237
9.06321 -14.8714 -24.7227
9.48793 -14.8231 -24.7143
9.6098 -14.7333 -24.7133
9.63072 -14.6296 -24.7146
9.75258 -14.5398 -24.7136
9.7735 -14.4361 -24.715
9.79441 -14.3325 -24.7163
9.91628 -14.2427 -24.7153
10.0381 -14.1529 -24.7142
10.261 -14.0769 -24.7107
10.3828 -13.9871 -24.7097
10.5047 -13.8972 -24.7086
10.5256 -13.7936 -24.71
10.5465 -13.6899 -24.7113
10.5674 -13.5863 -24.7127
10.6893 -13.4965 -24.7117
10.8112 -13.4066 -24.7106
11.2359 -13.3584 -24.7023
11.3578 -13.2685 -24.7012
11.4796 -13.1787 -24.7001
11.5006 -13.0751 -24.7015
11.5215 -12.9714 -24.7029
11.6433 -12.8816 -24.7018
11.6642 -12.7779 -24.7032
11.7861 -12.6881 -24.7021
11.807 -12.5844 -24.7035
11.9289 -12.4946 -24.7024
11.9498 -12.391 -24.7038
11.9707 -12.2873 -24.7052
12.0926 -12.1975 -24.7041
12.1135 -12.0938 -24.7055
12.1344 -11.9902 -24.7068
12.4582 -11.9281 -24.7009
12.681 -11.8521 -24.6975
12.7019 -11.7484 -24.6988
12.8238 -11.6586 -24.6978
13.3495 -11.6242 -24.687
13.5723 -11.5482 -24.6835
13.6942 -11.4584 -24.6825
13.816 -11.3686 -24.6814
13.9379 -11.2787 -24.6804
15.996 -8.79124 -24.6796
16.9536 -7.64423 -24.679
16.8736 -7.52673 -24.6828
16.8945 -7.42307 -24.6841
16.9154 -7.31941 -24.6855
16.9363 -7.21575 -24.6869
16.9572 -7.11209 -24.6882
16.9782 -7.00843 -24.6896
16.9991 -6.90477 -24.691
17.02 -6.80111 -24.6923
17.0409 -6.69745 -24.6937
17.0618 -6.59379 -24.6951
16.9818 -6.47628 -24.6989
17.0027 -6.37262 -24.7002
17.0236 -6.26896 -24.7016
17.0445 -6.1653 -24.7029
17.0654 -6.06164 -24.7043
17.0863 -5.95798 -24.7057
17.1073 -5.85432 -24.707
17.0272 -5.73682 -24.7108
17.0481 -5.63316 -24.7122
17.0691 -5.5295 -24.7136
16.989 -5.41199 -24.7173
17.0099 -5.30833 -24.7187
17.0309 -5.20467 -24.7201
16.9508 -5.08717 -24.7239
16.8708 -4.96966 -24.7277
16.6898 -4.83831 -24.7339
16.6097 -4.72081 -24.7377
16.5297 -4.6033 -24.7415
16.4497 -4.4858 -24.7452
16.4706 -4.38214 -24.7466
16.4915 -4.27848 -24.748
16.4115 -4.16097 -24.7518
16.3314 -4.04347 -24.7556
15.9485 -3.88443 -24.7666
15.8685 -3.76693 -24.7704
15.8894 -3.66327 -24.7718
15.8094 -3.54576 -24.7756
15.8303 -3.4421 -24.7769
15.7503 -3.3246 -24.7807
15.7712 -3.22094 -24.7821
15.6911 -3.10344 -24.7859
15.7121 -2.99978 -24.7872
15.632 -2.88227 -24.791
15.552 -2.76477 -24.7948
15.4719 -2.64726 -24.7986
15.3919 -2.52976 -24.8024
15.3119 -2.41225 -24.8062
15.2318 -2.29475 -24.81
15.1518 -2.17724 -24.8138
15.0718 -2.05974 -24.8176
14.8908 -1.92839 -24.8238
14.8107 -1.81089 -24.8275
14.8317 -1.70723 -24.8289
14.7516 -1.58972 -24.8327
14.7725 -1.48606 -24.8341
14.7934 -1.3824 -24.8354
14.7134 -1.2649 -24.8392
14.7343 -1.16124 -24.8406
14.7552 -1.05757 -24.8419
14.6752 -0.940073 -24.8457
14.6961 -0.836411 -24.8471
14.6161 -0.718908 -24.8509
14.536 -0.601403 -24.8547
14.557 -0.497741 -24.856
14.4769 -0.380237 -24.8598
14.195 -0.235045 -24.8685
14.1149 -0.117542 -24.8723
14.1359 -0.0138819 -24.8736
14.0558 0.103626 -24.8774
14.0767 0.207285 -24.8788
14.0977 0.310947 -24.8802
14.0176 0.428448 -24.8839
14.0385 0.532108 -24.8853
13.9585 0.649613 -24.8891
13.9794 0.753273 -24.8905
14.0003 0.856934 -24.8918
13.9203 0.97444 -24.8956
13.9412 1.0781 -24.897
13.9621 1.18176 -24.8983
13.8821 1.29926 -24.9021
13.903 1.40292 -24.9035
13.823 1.52043 -24.9073
13.7429 1.63793 -24.9111
13.6629 1.75544 -24.9149
13.6838 1.8591 -24.9162
13.7047 1.96276 -24.9176
13.7256 2.06642 -24.919
13.7465 2.17008 -24.9203
13.7675 2.27374 -24.9217
13.7884 2.3774 -24.9231
13.7083 2.4949 -24.9269
13.7293 2.59856 -24.9282
13.6492 2.71607 -24.932
13.5692 2.83357 -24.9358
13.5901 2.93723 -24.9372
13.611 3.04089 -24.9385
13.531 3.1584 -24.9423
13.5519 3.26206 -24.9437
13.5728 3.36572 -24.9451
13.5937 3.46938 -24.9464
13.6146 3.57304 -24.9478
13.5346 3.69054 -24.9516
13.5555 3.7942 -24.9529
13.5764 3.89786 -24.9543
13.4964 4.01536 -24.9581
13.5173 4.11903 -24.9595
13.5382 4.22269 -24.9608
13.5591 4.32635 -24.9622
13.5801 4.43001 -24.9636
13.601 4.53367 -24.9649
13.5209 4.65117 -24.9687
13.5418 4.75483 -24.9701
13.5628 4.85849 -24.9715
13.5837 4.96215 -24.9728
13.6046 5.06581 -24.9742
13.6255 5.16947 -24.9756
13.5455 5.28698 -24.9793
13.5664 5.39064 -24.9807
13.4863 5.50814 -24.9845
13.5073 5.6118 -24.9859
13.5282 5.71546 -24.9872
13.5491 5.81912 -24.9886
13.57 5.92278 -24.99
13.5909 6.02644 -24.9913
13.6118 6.1301 -24.9927
13.6327 6.23376 -24.994
13.6537 6.33742 -24.9954
13.6746 6.44108 -24.9968
13.6955 6.54474 -24.9982
13.7164 6.6484 -24.9995
13.7373 6.75206 -25.0009
13.7582 6.85572 -25.0023
13.6782 6.97323 -25.006
13.6991 7.07689 -25.0074
13.6191 7.19439 -25.0112
13.64 7.29805 -25.0126
13.6609 7.40171 -25.0139
13.6818 7.50537 -25.0153
13.7027 7.60903 -25.0167
13.7237 7.7127 -25.018
13.7446 7.81635 -25.0194
13.7655 7.92001 -25.0208
13.8874 8.00983 -25.0197
13.9083 8.11349 -25.0211
13.9292 8.21715 -25.0224
13.9501 8.32081 -25.0238
13.8701 8.43831 -25.0276
13.891 8.54198 -25.029
13.8109 8.65948 -25.0327
12.9233 8.88774 -25.0559
12.8433 9.00524 -25.0597
12.8642 9.1089 -25.0611
9.79079 -14.8646 -25.7071
9.91266 -14.7748 -25.706
9.93357 -14.6712 -25.7074
10.0554 -14.5813 -25.7063
10.0764 -14.4777 -25.7077
10.7066 -13.9249 -25.7038
10.8285 -13.8351 -25.7027
11.0513 -13.7591 -25.6992
11.1732 -13.6693 -25.6982
11.295 -13.5795 -25.6971
11.3159 -13.4759 -25.6985
11.4378 -13.386 -25.6974
11.5597 -13.2962 -25.6964
11.7825 -13.2203 -25.6929
12.0053 -13.1443 -25.6894
12.0262 -13.0406 -25.6908
12.0471 -12.937 -25.6921
12.169 -12.8471 -25.6911
12.1899 -12.7435 -25.6924
12.2108 -12.6398 -25.6938
12.2318 -12.5362 -25.6952
12.3536 -12.4464 -25.6941
12.3745 -12.3427 -25.6955
12.5974 -12.2667 -25.692
12.7192 -12.1769 -25.6909
12.8411 -12.0871 -25.6899
13.3668 -12.0526 -25.6791
13.5896 -11.9767 -25.6757
13.6105 -11.873 -25.677
13.7324 -11.7832 -25.676
14.1571 -11.7349 -25.6676
14.3799 -11.6589 -25.6642
14.5018 -11.5691 -25.6631
14.5227 -11.4655 -25.6645
14.6446 -11.3757 -25.6634
14.6655 -11.272 -25.6648
14.6864 -11.1683 -25.6661
14.7073 -11.0647 -25.6675
14.8292 -10.9749 -25.6665
14.951 -10.885 -25.6654
15.3758 -10.8368 -25.6571
15.3967 -10.7331 -25.6584
15.4176 -10.6294 -25.6598
15.5395 -10.5396 -25.6587
15.5604 -10.436 -25.6601
15.5813 -10.3323 -25.6615
15.6022 -10.2286 -25.6628
15.7241 -10.1388 -25.6618
15.745 -10.0352 -25.6631
15.8669 -9.94535 -25.6621
15.8878 -9.84169 -25.6635
16.0096 -9.75187 -25.6624
16.0305 -9.64821 -25.6638
16.1524 -9.5584 -25.6627
16.1733 -9.45474 -25.6641
16.1942 -9.35108 -25.6655
16.3161 -9.26126 -25.6644
16.337 -9.1576 -25.6658
16.4589 -9.06779 -25.6647
16.4798 -8.96413 -25.6661
16.6017 -8.87431 -25.665
16.6226 -8.77065 -25.6664
16.7445 -8.68083 -25.6653
16.7654 -8.57718 -25.6667
16.8872 -8.48736 -25.6656
16.9082 -8.3837 -25.667
16.9291 -8.28004 -25.6684
16.95 -8.17638 -25.6697
17.0719 -8.08656 -25.6687
17.0928 -7.9829 -25.67
17.1137 -7.87924 -25.6714
17.1346 -7.77558 -25.6728
17.0546 -7.65808 -25.6765
17.0755 -7.55442 -25.6779
17.0964 -7.45076 -25.6793
17.1173 -7.3471 -25.6806
17.1382 -7.24344 -25.682
17.1591 -7.13978 -25.6834
17.1801 -7.03612 -25.6848
17.201 -6.93246 -25.6861
17.2219 -6.8288 -25.6875
17.2428 -6.72514 -25.6888
17.2637 -6.62148 -25.6902
17.1837 -6.50397 -25.694
17.2046 -6.40031 -25.6954
17.2255 -6.29665 -25.6967
17.2464 -6.19299 -25.6981
17.1664 -6.07549 -25.7019
17.1873 -5.97183 -25.7032
17.2082 -5.86817 -25.7046
16.1678 -9.6969 -25.6925
16.2284 -9.55818 -25.6914
16.1947 -9.45795 -25.6928
16.2554 -9.31923 -25.6917
16.316 -9.18052 -25.6907
16.3766 -9.0418 -25.6896
17.0977 -8.63368 -25.6716
17.1583 -8.49496 -25.6705
17.1246 -8.39473 -25.6719
17.1852 -8.25602 -25.6709
17.5289 -8.00184 -25.6625
17.5896 -7.86313 -25.6615
17.5558 -7.7629 -25.6628
17.5221 -7.66267 -25.6642
17.5827 -7.52395 -25.6631
17.549 -7.42372 -25.6645
17.5153 -7.32349 -25.6659
17.4816 -7.22326 -25.6672
17.5422 -7.08454 -25.6662
17.5085 -6.98431 -25.6675
17.5691 -6.8456 -25.6665
17.6298 -6.70688 -25.6654
17.6904 -6.56816 -25.6644
17.6567 -6.46793 -25.6657
17.7173 -6.32922 -25.6647
17.6836 -6.22899 -25.666
17.6499 -6.12876 -25.6674
17.6162 -6.02853 -25.6688
17.5825 -5.9283 -25.6702
17.5487 -5.82807 -25.6715
17.515 -5.72784 -25.6729
17.4813 -5.62761 -25.6742
17.4476 -5.52738 -25.6756
17.4139 -5.42715 -25.677
17.3802 -5.32692 -25.6783
17.4408 -5.1882 -25.6773
17.4071 -5.08797 -25.6786
17.3734 -4.98774 -25.68
17.3396 -4.88751 -25.6814
17.3059 -4.78728 -25.6828
17.2722 -4.68705 -25.6841
17.2385 -4.58682 -25.6855
17.2048 -4.48659 -25.6868
17.0767 -4.42485 -25.6906
17.043 -4.32462 -25.692
17.0093 -4.22439 -25.6934
16.8812 -4.16265 -25.6972
16.8475 -4.06242 -25.6985
16.7194 -4.00067 -25.7023
16.6857 -3.90044 -25.7037
16.652 -3.80021 -25.705
16.6183 -3.69998 -25.7064
15.6286 -9.68887 -24.7073
16.0667 -9.39621 -24.6966
16.1273 -9.25749 -24.6955
16.1879 -9.11877 -24.6945
16.2486 -8.98006 -24.6934
16.3092 -8.84134 -24.6924
16.2755 -8.74111 -24.6937
17.3464 -5.22669 -24.6797
17.3127 -5.12646 -24.6811
17.279 -5.02623 -24.6824
17.2453 -4.926 -24.6838
17.2116 -4.82577 -24.6852
17.1779 -4.72554 -24.6865
17.1441 -4.62531 -24.6879
17.0161 -4.56357 -24.6917
16.9824 -4.46334 -24.6931
16.9486 -4.36311 -24.6944
16.9149 -4.26288 -24.6958
16.8812 -4.16265 -24.6972
16.8475 -4.06242 -24.6985
16.7194 -4.00067 -24.7023
16.6857 -3.90044 -24.7037
16.652 -3.80021 -24.705
16.6183 -3.69998 -24.7064
16.5846 -3.59975 -24.7078
16.5508 -3.49952 -24.7091
16.4228 -3.43778 -24.7129
16.3891 -3.33755 -24.7143
16.261 -3.27581 -24.7181
16.2273 -3.17558 -24.7195
16.1936 -3.07535 -24.7208
16.1598 -2.97512 -24.7222
16.1261 -2.87489 -24.7236
15.9981 -2.81314 -24.7273
15.87 -2.7514 -24.7311
15.8363 -2.65117 -24.7325
15.8026 -2.55094 -24.7339
15.6745 -2.48919 -24.7377
15.6408 -2.38896 -24.739
15.6071 -2.28874 -24.7404
15.5733 -2.18851 -24.7417
15.5396 -2.08828 -24.7431
15.4116 -2.02653 -24.7469
15.2835 -1.96479 -24.7507
15.2498 -1.86456 -24.7521
15.2161 -1.76433 -24.7534
15.1823 -1.6641 -24.7548
15.1486 -1.56387 -24.7561
15.1149 -1.46364 -24.7575
15.0812 -1.36341 -24.7589
15.0475 -1.26318 -24.7603
15.0138 -1.16295 -24.7616
15.0744 -1.02423 -24.7606
15.0407 -0.924005 -24.7619
15.0069 -0.823775 -24.7633
14.9732 -0.723545 -24.7647
14.9395 -0.623314 -24.766
14.9058 -0.523084 -24.7674
14.7777 -0.461341 -24.7712
14.744 -0.361111 -24.7726
14.6159 -0.299367 -24.7763
14.5822 -0.199138 -24.7777
14.6429 -0.0604215 -24.7766
14.6091 0.0398083 -24.778
14.5754 0.140039 -24.7794
14.5417 0.240269 -24.7807
14.508 0.340498 -24.7821
14.4743 0.440728 -24.7835
14.4406 0.540958 -24.7848
14.3125 0.602702 -24.7886
14.2788 0.702933 -24.79
14.2451 0.803163 -24.7914
14.2113 0.903391 -24.7927
14.1776 1.00362 -24.7941
14.1439 1.10385 -24.7955
14.2045 1.24257 -24.7944
14.1708 1.3428 -24.7958
14.1371 1.44303 -24.7971
14.1034 1.54326 -24.7985
14.0697 1.64349 -24.7999
14.036 1.74372 -24.8012
14.0966 1.88243 -24.8002
14.0629 1.98266 -24.8015
14.0292 2.08289 -24.8029
13.9954 2.18312 -24.8043
14.0561 2.32184 -24.8032
14.0224 2.42207 -24.8046
13.9886 2.5223 -24.806
13.9549 2.62253 -24.8073
13.9212 2.72276 -24.8087
13.8875 2.82299 -24.81
13.8538 2.92322 -24.8114
13.8201 3.02345 -24.8128
13.8807 3.16217 -24.8117
13.847 3.26239 -24.8131
13.8132 3.36263 -24.8145
13.8739 3.50134 -24.8134
13.8402 3.60157 -24.8148
13.8064 3.7018 -24.8161
13.7727 3.80203 -24.8175
13.8334 3.94075 -24.8164
13.7996 4.04098 -24.8178
13.7659 4.14121 -24.8192
13.7322 4.24144 -24.8205
13.6985 4.34167 -24.8219
13.6648 4.4419 -24.8233
13.6311 4.54213 -24.8246
13.5973 4.64236 -24.826
13.5636 4.74259 -24.8274
13.5299 4.84282 -24.8287
13.4962 4.94305 -24.8301
13.5568 5.08176 -24.829
13.5231 5.18199 -24.8304
13.4894 5.28222 -24.8318
13.55 5.42094 -24.8307
13.5163 5.52117 -24.8321
13.4826 5.6214 -24.8335
13.4489 5.72163 -24.8348
13.4152 5.82186 -24.8362
13.4758 5.96058 -24.8351
13.4421 6.0608 -24.8365
13.5027 6.19952 -24.8354
13.469 6.29975 -24.8368
13.4353 6.39998 -24.8382
13.4959 6.5387 -24.8371
13.4622 6.63893 -24.8385
13.4285 6.73916 -24.8398
13.4891 6.87787 -24.8388
13.4554 6.9781 -24.8401
13.516 7.11682 -24.8391
13.4823 7.21705 -24.8405
13.5429 7.35577 -24.8394
13.5092 7.456 -24.8408
13.5698 7.59471 -24.8397
13.6305 7.73343 -24.8387
13.6911 7.87214 -24.8376
13.7517 8.01086 -24.8365
13.718 8.11109 -24.8379
13.6843 8.21132 -24.8393
13.6506 8.31155 -24.8406
13.6169 8.41178 -24.842
13.5832 8.51201 -24.8434
13.5494 8.61224 -24.8447
13.5157 8.71247 -24.8461
13.482 8.8127 -24.8475
13.4483 8.91293 -24.8488
13.4146 9.01316 -24.8502
13.2865 9.07491 -24.854
13.2528 9.17513 -24.8553
13.2191 9.27536 -24.8567
13.1854 9.37559 -24.8581
13.1516 9.47582 -24.8595
13.1179 9.57605 -24.8608
13.0842 9.67628 -24.8622
12.9561 9.73803 -24.866
12.8281 9.79977 -24.8698
12.7944 9.9 -24.8711
12.6663 9.96174 -24.8749
12.6326 10.062 -24.8763
12.5989 10.1622 -24.8777
12.4708 10.2239 -24.8814
12.0597 10.1702 -24.8925
11.9316 10.232 -24.8963
11.8979 10.3322 -24.8977
11.7698 10.3939 -24.9014
11.6418 10.4557 -24.9052
11.5137 10.5174 -24.909
11.3856 10.5792 -24.9128
11.2576 10.6409 -24.9166
11.0351 10.6642 -24.9228
10.9071 10.7259 -24.9266
10.5903 10.7107 -24.9352
10.4622 10.7724 -24.939
10.3342 10.8342 -24.9428
10.2061 10.8959 -24.9466
9.9837 10.9192 -24.9528
9.66694 10.904 -24.9615
9.53887 10.9657 -24.9652
9.4108 11.0274 -24.969
9.37709 11.1277 -24.9704
9.24902 11.1894 -24.9742
9.12095 11.2512 -24.978
8.99289 11.3129 -24.9818
8.95917 11.4131 -24.9831
8.17066 11.2055 -25.0039
8.0426 11.2672 -25.0077
8.00888 11.3674 -25.009
7.88081 11.4292 -25.0128
7.75275 11.4909 -25.0166
17.3033 -4.37336 -24.773
17.2865 -4.22291 -24.772
17.2696 -4.07246 -24.7709
17.1903 -4.00252 -24.7723
17.1735 -3.85207 -24.7712
17.0942 -3.78213 -24.7726
17.0149 -3.71218 -24.7739
16.9355 -3.64224 -24.7753
16.9187 -3.49179 -24.7742
16.8394 -3.42185 -24.7756
16.8225 -3.2714 -24.7746
16.7432 -3.20146 -24.7759
16.6639 -3.13152 -24.7773
16.5846 -3.06158 -24.7787
16.5677 -2.91112 -24.7776
16.4884 -2.84118 -24.779
16.4091 -2.77124 -24.7803
16.3298 -2.7013 -24.7817
16.3129 -2.55085 -24.7806
16.2336 -2.4809 -24.782
16.2168 -2.33045 -24.7809
16.1375 -2.26051 -24.7823
16.1206 -2.11007 -24.7812
16.0413 -2.04012 -24.7826
15.962 -1.97018 -24.784
15.8827 -1.90023 -24.7854
15.7409 -1.9108 -24.7891
15.6616 -1.84085 -24.7905
15.5823 -1.77091 -24.7919
15.5029 -1.70097 -24.7932
15.4861 -1.55052 -24.7922
15.4068 -1.48058 -24.7935
15.3899 -1.33013 -24.7925
15.3106 -1.26019 -24.7939
15.2938 -1.10974 -24.7928
15.2144 -1.03979 -24.7942
15.1351 -0.969853 -24.7955
15.0558 -0.899909 -24.7969
14.9765 -0.829965 -24.7983
14.8972 -0.760021 -24.7996
14.8803 -0.609576 -24.7986
14.926 -0.378621 -24.7951
14.9091 -0.228175 -24.794
14.8298 -0.158231 -24.7954
14.7505 -0.0882869 -24.7968
14.6712 -0.0183468 -24.7981
14.5918 0.0515971 -24.7995
14.5125 0.121541 -24.8009
14.4332 0.191485 -24.8022
14.4164 0.341933 -24.8012
14.3995 0.492382 -24.8001
14.4451 0.723334 -24.7966
14.4283 0.873782 -24.7956
14.4114 1.02423 -24.7945
14.3946 1.17468 -24.7935
14.3777 1.32512 -24.7924
14.2984 1.39507 -24.7938
14.2191 1.46501 -24.7951
14.2023 1.61546 -24.7941
14.1229 1.6854 -24.7954
14.1061 1.83585 -24.7944
14.0268 1.9058 -24.7958
14.0099 2.05624 -24.7947
13.9306 2.12618 -24.7961
13.9138 2.27663 -24.795
13.8969 2.42708 -24.7939
13.8176 2.49703 -24.7953
13.8632 2.72798 -24.7918
13.9088 2.95893 -24.7884
13.892 3.10938 -24.7873
13.8751 3.25982 -24.7862
13.8583 3.41028 -24.7852
13.779 3.48022 -24.7865
13.7621 3.63066 -24.7855
13.6828 3.70061 -24.7869
13.7284 3.93156 -24.7834
13.7116 4.08201 -24.7823
13.6947 4.23246 -24.7813
13.6779 4.38291 -24.7802
13.5986 4.45285 -24.7816
13.5817 4.6033 -24.7805
13.5024 4.67324 -24.7819
13.4855 4.82369 -24.7808
13.4687 4.97413 -24.7798
13.4519 5.12458 -24.7787
13.435 5.27503 -24.7776
13.4806 5.50599 -24.7742
13.5262 5.73694 -24.7707
13.5718 5.96789 -24.7672
13.555 6.11834 -24.7662
13.5382 6.26878 -24.7651
13.5213 6.41923 -24.764
13.442 6.48918 -24.7654
13.4251 6.63962 -24.7644
13.4083 6.79007 -24.7633
13.329 6.86001 -24.7647
13.3121 7.01046 -24.7636
13.2953 7.16091 -24.7625
13.2784 7.31136 -24.7615
13.324 7.54231 -24.758
13.3697 7.77326 -24.7545
13.3528 7.92371 -24.7535
13.3984 8.15466 -24.75
13.3816 8.30511 -24.7489
13.4272 8.53606 -24.7455
13.4103 8.68652 -24.7444
13.3935 8.83696 -24.7433
13.3142 8.9069 -24.7447
13.2973 9.05735 -24.7437
13.218 9.1273 -24.745
13.1387 9.19724 -24.7464
13.1219 9.34769 -24.7453
13.0425 9.41763 -24.7467
12.9632 9.48757 -24.7481
12.8839 9.55752 -24.7494
12.8046 9.62746 -24.7508
12.7253 9.6974 -24.7522
12.646 9.76734 -24.7535
12.6291 9.91779 -24.7525
12.6123 10.0682 -24.7514
12.5954 10.2187 -24.7504
12.5786 10.3691 -24.7493
12.4368 10.3586 -24.7531
12.3575 10.4285 -24.7544
12.2157 10.418 -24.7582
12.1364 10.4879 -24.7596
12.0571 10.5578 -24.761
11.9777 10.6278 -24.7623
11.8984 10.6977 -24.7637
11.8191 10.7677 -24.7651
11.7398 10.8376 -24.7664
11.598 10.8271 -24.7702
11.5187 10.897 -24.7716
11.3769 10.8864 -24.7754
11.1727 10.7954 -24.7816
11.0934 10.8653 -24.783
11.0141 10.9353 -24.7843
10.8723 10.9247 -24.7881
10.793 10.9946 -24.7895
10.7136 11.0646 -24.7908
10.6343 11.1345 -24.7922
10.555 11.2045 -24.7936
10.4132 11.1939 -24.7974
10.3339 11.2638 -24.7987
10.1921 11.2533 -24.8025
10.1128 11.3232 -24.8039
10.0335 11.3932 -24.8053
9.89173 11.3826 -24.809
9.81241 11.4526 -24.8104
9.7331 11.5225 -24.8118
9.59131 11.5119 -24.8156
9.44953 11.5014 -24.8194
9.30776 11.4908 -24.8231
9.16598 11.4803 -24.8269
9.0242 11.4697 -24.8307
8.94488 11.5396 -24.8321
8.8031 11.5291 -24.8359
8.66132 11.5185 -24.8397
8.58201 11.5885 -24.841
8.44022 11.5779 -24.8448
12.6256 10.5538 -24.7298
12.5497 10.7766 -24.7264
12.446 10.7975 -24.7277
12.3423 10.8184 -24.7291
12.2387 10.8393 -24.7305
12.135 10.8603 -24.7318
12.0314 10.8812 -24.7332
11.9277 10.9021 -24.7346
11.824 10.923 -24.7359
11.7342 11.0449 -24.7349
11.6306 11.0658 -24.7362
11.5269 11.0867 -24.7376
11.4232 11.1076 -24.739
11.3196 11.1285 -24.7403
11.2298 11.2504 -24.7393
11.1261 11.2713 -24.7406
11.0225 11.2922 -24.742
10.9188 11.3131 -24.7434
10.8151 11.3341 -24.7447
10.7115 11.355 -24.7461
10.6078 11.3759 -24.7475
10.5042 11.3968 -24.7488
10.4005 11.4177 -24.7502
10.3107 11.5396 -24.7491
10.207 11.5605 -24.7505
10.1034 11.5814 -24.7519
9.99969 11.6023 -24.7533
9.89603 11.6232 -24.7546
9.79237 11.6442 -24.756
9.68871 11.6651 -24.7573
9.58505 11.686 -24.7587
9.48139 11.7069 -24.7601
9.39158 11.8288 -24.759
9.28792 11.8497 -24.7604
9.18426 11.8706 -24.7617
9.0806 11.8915 -24.7631
8.96309 11.8115 -24.7669
8.85943 11.8324 -24.7683
8.74193 11.7524 -24.7721
8.63827 11.7733 -24.7734
8.52076 11.6932 -24.7772
8.4171 11.7142 -24.7786
8.32729 11.836 -24.7775
8.22363 11.8569 -24.7789
8.11997 11.8779 -24.7803
8.01631 11.8988 -24.7816
7.91265 11.9197 -24.783
7.82283 12.0416 -24.7819
7.71917 12.0625 -24.7833
7.61551 12.0834 -24.7847
7.52569 12.2052 -24.7836
7.42203 12.2262 -24.785
7.33222 12.348 -24.7839
7.22856 12.3689 -24.7853
7.1249 12.3899 -24.7867
7.02124 12.4108 -24.788
6.91758 12.4317 -24.7894
6.81392 12.4526 -24.7907
6.71026 12.4735 -24.7921
6.59275 12.3935 -24.7959
6.48909 12.4144 -24.7973
6.38543 12.4353 -24.7986
6.26793 12.3553 -24.8024
6.16427 12.3762 -24.8038
6.06061 12.3971 -24.8052
5.9431 12.3171 -24.8089
5.83944 12.338 -24.8103
5.73578 12.3589 -24.8117
5.63212 12.3798 -24.813
5.52846 12.4007 -24.8144
5.4248 12.4216 -24.8158
5.3073 12.3416 -24.8196
5.20364 12.3625 -24.8209
5.09998 12.3834 -24.8223
4.98247 12.3034 -24.8261
4.87881 12.3243 -24.8275
4.77515 12.3452 -24.8288
4.67149 12.3661 -24.8302
4.56783 12.3871 -24.8315
4.46417 12.408 -24.8329
4.34667 12.3279 -24.8367
4.17379 11.8441 -24.8502
4.08397 11.966 -24.8491
3.98031 11.9869 -24.8505
3.86281 11.9068 -24.8543
3.7453 11.8268 -24.8581
3.6278 11.7468 -24.8619
3.51029 11.6667 -24.8656
3.40663 11.6876 -24.867
3.30297 11.7086 -24.8684
3.19931 11.7295 -24.8698
3.09565 11.7504 -24.8711
2.99199 11.7713 -24.8725
2.87449 11.6913 -24.8763
2.77083 11.7122 -24.8776
2.66717 11.7331 -24.879
2.54966 11.6531 -24.8828
2.446 11.674 -24.8842
2.3285 11.5939 -24.8879
2.19715 11.413 -24.8942
2.07964 11.3329 -24.8979
1.97598 11.3538 -24.8993
1.85848 11.2738 -24.9031
1.75482 11.2947 -24.9045
1.60963 11.0128 -24.9131
1.50597 11.0337 -24.9145
1.40231 11.0546 -24.9158
1.2848 10.9746 -24.9196
1.18114 10.9955 -24.921
1.06364 10.9154 -24.9248
0.946133 10.8354 -24.9286
0.828628 10.7554 -24.9324
0.711123 10.6753 -24.9361
0.593619 10.5953 -24.9399
0.462268 10.4143 -24.9462
0.330923 10.2333 -24.9524
0.227262 10.2542 -24.9537
0.109757 10.1742 -24.9575
-0.00774658 10.0942 -24.9613
-0.139099 9.91317 -24.9675
-0.284291 9.63123 -24.9762
-0.401794 9.55119 -24.9799
-0.519297 9.47116 -24.9837
-0.636803 9.39112 -24.9875
-0.754308 9.31108 -24.9913
-0.927191 8.82724 -25.0048
6.38765 12.2649 -24.8142
6.24894 12.3255 -24.8132
6.14871 12.2918 -24.8145
6.04848 12.2581 -24.8159
5.94825 12.2244 -24.8173
5.84802 12.1907 -24.8186
5.7093 12.2513 -24.8176
5.60907 12.2176 -24.8189
5.50884 12.1839 -24.8203
5.37013 12.2445 -24.8192
5.2699 12.2108 -24.8206
5.16967 12.1771 -24.822
5.03095 12.2377 -24.8209
4.89223 12.2983 -24.8199
4.79201 12.2646 -24.8212
4.69177 12.2309 -24.8226
4.59154 12.1972 -24.824
4.49131 12.1635 -24.8253
4.3526 12.2241 -24.8243
4.25237 12.1904 -24.8256
4.19063 12.0623 -24.8294
4.09039 12.0286 -24.8308
3.99016 11.9949 -24.8322
3.88993 11.9612 -24.8335
3.78971 11.9274 -24.8349
3.68947 11.8937 -24.8362
3.58925 11.86 -24.8376
3.48901 11.8263 -24.839
3.3503 11.8869 -24.8379
3.25007 11.8532 -24.8393
3.18833 11.7251 -24.8431
3.08809 11.6914 -24.8445
2.98786 11.6577 -24.8458
2.88764 11.624 -24.8472
2.78741 11.5903 -24.8485
2.57172 11.8396 -24.8426
2.47149 11.8059 -24.844
2.37126 11.7722 -24.8454
2.27103 11.7384 -24.8467
2.1708 11.7047 -24.8481
2.07057 11.671 -24.8495
2.00882 11.5429 -24.8533
1.90859 11.5092 -24.8546
1.80836 11.4755 -24.856
1.70813 11.4418 -24.8574
1.56942 11.5024 -24.8563
1.50767 11.3744 -24.8601
1.40744 11.3406 -24.8615
1.30721 11.3069 -24.8628
1.28396 11.0845 -24.869
1.22221 10.9564 -24.8728
1.12198 10.9227 -24.8742
1.02175 10.889 -24.8755
0.921523 10.8553 -24.8769
0.821293 10.8216 -24.8783
0.682577 10.8822 -24.8772
0.582347 10.8485 -24.8786
0.520604 10.7204 -24.8824
0.420374 10.6867 -24.8838
0.320143 10.653 -24.8851
0.219913 10.6193 -24.8865
0.119684 10.5856 -24.8878
0.0194542 10.5518 -24.8892
-0.0807762 10.5181 -24.8906
-0.142519 10.3901 -24.8944
-0.24275 10.3563 -24.8957
-0.304491 10.2283 -24.8995
-0.366234 10.1002 -24.9033
-0.466465 10.0665 -24.9047
-0.566695 10.0328 -24.9061
-0.62844 9.90471 -24.9098
-0.651695 9.68229 -24.916
-0.713439 9.55423 -24.9198
-0.813669 9.52051 -24.9212
-0.913899 9.4868 -24.9226
-1.01413 9.45308 -24.9239
-1.07587 9.32501 -24.9277
-1.1761 9.29129 -24.9291
-1.23785 9.16323 -24.9329
-1.33808 9.12951 -24.9342
-1.43831 9.0958 -24.9356
-1.50005 8.96773 -24.9394
-1.60028 8.93401 -24.9408
-1.66202 8.80595 -24.9445
-1.76226 8.77223 -24.9459
-1.824 8.64417 -24.9497
-1.92423 8.61045 -24.9511
-1.94749 8.38803 -24.9573
-1.97074 8.16561 -24.9635
-2.07097 8.1319 -24.9649
-2.13272 8.00383 -24.9687
-2.23294 7.97012 -24.97
-2.33318 7.9364 -24.9714
-2.43341 7.90268 -24.9727
-2.49515 7.77462 -24.9765
-2.59538 7.7409 -24.9779
-2.69561 7.70718 -24.9793
-2.75735 7.57911 -24.9831
-2.85758 7.5454 -24.9844
-2.95781 7.51168 -24.9858
-3.01955 7.38361 -24.9896
-3.0813 7.25555 -24.9934
-3.18153 7.22183 -24.9947
-3.24327 7.09377 -24.9985
-3.3435 7.06005 -24.9999
-3.44373 7.02633 -25.0013
-3.54396 6.99262 -25.0026
-3.64419 6.9589 -25.004
-3.70593 6.83083 -25.0078
-3.80616 6.79711 -25.0092
-3.90639 6.76339 -25.0105
-3.81419 6.25793 -25.024
3.7387 12.586 -24.8893
3.50775 12.6316 -24.8858
3.43781 12.5523 -24.8872
3.12635 12.6603 -24.8813
2.9759 12.6435 -24.8802
2.82545 12.6266 -24.8792
2.75551 12.5473 -24.8805
2.60507 12.5305 -24.8795
2.53512 12.4512 -24.8808
2.46518 12.3718 -24.8822
2.39523 12.2925 -24.8836
2.32529 12.2132 -24.8849
2.17484 12.1964 -24.8839
2.02439 12.1795 -24.8828
1.87395 12.1627 -24.8818
1.80401 12.0834 -24.8831
1.65356 12.0665 -24.8821
1.58361 11.9872 -24.8834
1.51367 11.9079 -24.8848
1.44373 11.8286 -24.8862
1.37378 11.7492 -24.8875
1.22334 11.7324 -24.8865
1.15339 11.6531 -24.8878
1.08345 11.5738 -24.8892
0.933002 11.5569 -24.8881
0.782557 11.5401 -24.8871
0.712612 11.4608 -24.8885
0.562164 11.4439 -24.8874
0.49222 11.3646 -24.8888
0.422277 11.2853 -24.8901
0.352336 11.206 -24.8915
0.201885 11.1891 -24.8904
0.131941 11.1098 -24.8918
-0.0185037 11.0929 -24.8907
-0.168952 11.0761 -24.8897
-0.238894 10.9968 -24.8911
-0.308837 10.9175 -24.8924
-0.459288 10.9006 -24.8914
-0.529232 10.8213 -24.8927
-0.518668 10.6795 -24.8965
-0.588609 10.6002 -24.8979
-0.658553 10.5209 -24.8992
-0.728497 10.4416 -24.9006
-0.79844 10.3623 -24.902
-0.948889 10.3454 -24.9009
-1.01883 10.2661 -24.9023
-1.08878 10.1868 -24.9037
-1.15872 10.1075 -24.905
-1.22866 10.0282 -24.9064
-1.2986 9.94884 -24.9078
-1.36855 9.86953 -24.9091
-1.43849 9.79021 -24.9105
-1.58894 9.77336 -24.9094
-1.65888 9.69405 -24.9108
-1.72882 9.61473 -24.9122
-1.79877 9.53542 -24.9135
-1.86871 9.4561 -24.9149
-1.93865 9.37679 -24.9163
-2.0086 9.29748 -24.9176
-2.07854 9.21816 -24.919
-2.14848 9.13884 -24.9204
-2.21842 9.05953 -24.9217
-2.28837 8.98022 -24.9231
-2.35831 8.9009 -24.9245
-2.42825 8.82159 -24.9258
-2.4982 8.74227 -24.9272
-2.56814 8.66296 -24.9286
-2.63808 8.58364 -24.9299
-2.70803 8.50433 -24.9313
-2.77797 8.42501 -24.9326
-2.84791 8.3457 -24.934
-2.91786 8.26638 -24.9354
-2.9878 8.18707 -24.9368
-3.05774 8.10775 -24.9381
-3.04718 7.96598 -24.9419
-3.11713 7.88666 -24.9433
-3.18707 7.80735 -24.9446
-3.25701 7.72803 -24.946
-3.32696 7.64872 -24.9474
-3.4774 7.63187 -24.9463
-3.54734 7.55255 -24.9477
-3.61729 7.47324 -24.9491
-3.68723 7.39392 -24.9504
-3.75717 7.31461 -24.9518
-3.82712 7.23529 -24.9531
-3.89706 7.15598 -24.9545
-3.96701 7.07666 -24.9559
-4.03695 6.99735 -24.9572
-4.10689 6.91803 -24.9586
-4.17683 6.83872 -24.96
-4.24678 6.75941 -24.9613
-4.31672 6.68009 -24.9627
-4.46717 6.66324 -24.9617
-4.53711 6.58393 -24.963
-4.60706 6.50461 -24.9644
-4.677 6.4253 -24.9657
-4.82745 6.40845 -24.9647
-4.89739 6.32913 -24.966
-4.96733 6.24982 -24.9674
-5.03728 6.17051 -24.9688
-5.10722 6.09119 -24.9702
-5.09666 5.94941 -24.9739
-5.1666 5.8701 -24.9753
-5.23655 5.79078 -24.9767
-5.30649 5.71147 -24.978
-5.29593 5.56968 -24.9818
-5.36587 5.49037 -24.9832
-5.43581 5.41106 -24.9846
-5.42525 5.26928 -24.9884
-5.5757 5.25243 -24.9873
-5.64564 5.17311 -24.9887
-5.79609 5.15626 -24.9876
-5.86603 5.07695 -24.989
-5.85547 4.93517 -24.9928
-5.92541 4.85585 -24.9941
-5.91486 4.71408 -24.9979
-5.9848 4.63476 -24.9993
-5.97423 4.49298 -25.0031
-5.88317 4.28873 -25.0093
-5.95311 4.20942 -25.0107
-6.02306 4.13011 -25.012
-6.093 4.05079 -25.0134
-6.24344 4.03394 -25.0123
-6.31339 3.95462 -25.0137
-6.30283 3.81285 -25.0175
-6.37277 3.73353 -25.0188
-6.36221 3.59175 -25.0226
-6.35165 3.44997 -25.0264
-6.34109 3.30819 -25.0302
-6.41103 3.22888 -25.0316
-6.40047 3.08709 -25.0354
-6.47041 3.00778 -25.0367
-6.45985 2.866 -25.0405
-6.44929 2.72422 -25.0443
-6.43873 2.58244 -25.0481
-6.50867 2.50312 -25.0495
-6.49811 2.36134 -25.0533
-6.56805 2.28203 -25.0546
-6.63799 2.20272 -25.056
-6.62743 2.06094 -25.0598
-6.61687 1.91915 -25.0636
-3.89902 7.55841 -24.9624
-4.0209 7.4686 -24.9614
-4.14276 7.37878 -24.9603
-4.46653 7.31665 -24.9544
-4.5884 7.22684 -24.9534
-4.60931 7.12318 -24.9547
-4.73118 7.03336 -24.9537
-4.85305 6.94354 -24.9526
-4.97492 6.85373 -24.9516
-5.09678 6.76391 -24.9505
-5.1177 6.66025 -24.9519
-5.13861 6.55659 -24.9532
-5.15953 6.45293 -24.9546
-5.28139 6.36312 -24.9535
-5.30231 6.25946 -24.9549
-5.32323 6.1558 -24.9563
-5.34414 6.05214 -24.9576
-5.36506 5.94848 -24.959
-5.48692 5.85866 -24.9579
-5.50784 5.755 -24.9593
-5.52875 5.65134 -24.9607
-5.65062 5.56152 -24.9596
-5.67153 5.45786 -24.961
-5.7934 5.36805 -24.9599
-5.81432 5.26439 -24.9613
-6.13809 5.20226 -24.9554
-6.25995 5.11244 -24.9543
-6.28087 5.00878 -24.9557
-6.40274 4.91897 -24.9546
-6.42365 4.81531 -24.956
-6.44457 4.71165 -24.9574
-6.56643 4.62183 -24.9563
-6.58735 4.51817 -24.9577
-6.70921 4.42836 -24.9566
-6.73013 4.3247 -24.958
-6.852 4.23488 -24.9569
-6.87292 4.13122 -24.9583
-6.99478 4.0414 -24.9572
-7.01569 3.93774 -24.9586
-7.03661 3.83408 -24.96
-7.05752 3.73042 -24.9613
-6.97749 3.61292 -24.9651
-6.9984 3.50926 -24.9665
-7.01932 3.4056 -24.9679
-7.04024 3.30194 -24.9692
-7.06115 3.19828 -24.9706
-6.98111 3.08077 -24.9744
-7.00203 2.97711 -24.9758
-6.92199 2.85961 -24.9795
-6.9429 2.75595 -24.9809
-6.96382 2.65229 -24.9823
-6.98474 2.54863 -24.9836
-7.00565 2.44497 -24.985
-7.02657 2.34131 -24.9864
-7.04748 2.23765 -24.9877
-7.0684 2.13399 -24.9891
-7.19026 2.04417 -24.988
-7.21118 1.94051 -24.9894
-7.23209 1.83685 -24.9908
-7.25301 1.73319 -24.9921
-7.27392 1.62953 -24.9935
-7.19389 1.51203 -24.9973
-7.2148 1.40837 -24.9987
-7.23572 1.30471 -25
-7.15568 1.1872 -25.0038
-7.1766 1.08354 -25.0052
-7.09656 0.966037 -25.009
-7.11747 0.862377 -25.0103
-7.03744 0.744872 -25.0141
-7.05835 0.641213 -25.0155
-7.07927 0.537553 -25.0169
-6.99923 0.420049 -25.0206
-7.02015 0.31639 -25.022
-6.7382 0.171193 -25.0307
-6.65817 0.0536904 -25.0344
-6.57813 -0.0638152 -25.0382
-6.59905 -0.167473 -25.0396
-6.51901 -0.284979 -25.0434
-6.53992 -0.388638 -25.0448
-6.45989 -0.506143 -25.0485
-6.86601 4.37255 -24.9714
-6.92664 4.23383 -24.9703
-6.98727 4.09512 -24.9693
-7.14226 3.91791 -24.9658
-7.20289 3.7792 -24.9647
-7.26352 3.64048 -24.9637
-7.32415 3.50176 -24.9626
-7.38478 3.36305 -24.9615
-7.35107 3.26282 -24.9629
-7.4117 3.1241 -24.9619
-7.47233 2.98539 -24.9608
-7.43861 2.88516 -24.9622
-7.49925 2.74644 -24.9611
-7.74858 2.53075 -24.9552
-7.80921 2.39204 -24.9541
-7.86984 2.25332 -24.9531
-7.93047 2.1146 -24.952
-7.89676 2.01437 -24.9534
-7.86304 1.91414 -24.9548
-7.92367 1.77543 -24.9537
-7.88995 1.6752 -24.9551
-7.85624 1.57497 -24.9565
-7.91687 1.43625 -24.9554
-7.88315 1.33602 -24.9568
-7.94379 1.1973 -24.9557
-7.91007 1.09707 -24.9571
-7.87635 0.996843 -24.9584
-7.84263 0.896613 -24.9598
-7.90327 0.757895 -24.9587
-7.86955 0.657667 -24.9601
-7.83583 0.557437 -24.9615
-7.80212 0.457206 -24.9628
-7.7684 0.356976 -24.9642
-7.73468 0.256746 -24.9656
-7.70096 0.156518 -24.9669
-7.5729 0.0947742 -24.9707
-7.53918 -0.00545549 -24.9721
-7.50546 -0.105685 -24.9734
-7.47175 -0.205917 -24.9748
-7.43803 -0.306145 -24.9762
-7.40431 -0.406376 -24.9776
-7.37059 -0.506606 -24.9789
-7.33688 -0.606835 -24.9803
-7.20881 -0.668579 -24.9841
-7.17509 -0.768808 -24.9854
-7.14138 -0.869039 -24.9868
-7.10766 -0.969268 -24.9882
-7.07394 -1.0695 -24.9895
-6.94588 -1.13124 -24.9933
-6.91216 -1.23147 -24.9947
-6.87844 -1.3317 -24.9961
-6.75038 -1.39345 -24.9998
-6.71666 -1.49368 -25.0012
-6.68294 -1.59391 -25.0026
-6.64923 -1.69413 -25.004
-6.61551 -1.79437 -25.0053
-6.58179 -1.8946 -25.0067
-6.54808 -1.99483 -25.008
-6.42001 -2.05657 -25.0118
-6.38629 -2.1568 -25.0132
-6.35258 -2.25703 -25.0146
-6.22451 -2.31877 -25.0184
-6.19079 -2.419 -25.0197
-6.06273 -2.48075 -25.0235
-6.02901 -2.58098 -25.0249
-5.99529 -2.68121 -25.0262
-5.96158 -2.78144 -25.0276
-5.92786 -2.88167 -25.029
-5.89414 -2.98189 -25.0303
-5.76608 -3.04364 -25.0341
-5.73236 -3.14387 -25.0355
-5.69864 -3.2441 -25.0369
-5.57057 -3.30584 -25.0406
-5.53686 -3.40607 -25.042
-5.50314 -3.5063 -25.0434
-5.46942 -3.60653 -25.0448
-5.43571 -3.70676 -25.0461
-5.40199 -3.80699 -25.0475
-5.27393 -3.86874 -25.0513
-5.24021 -3.96897 -25.0526
-5.20649 -4.0692 -25.054
-5.17278 -4.16943 -25.0554
-5.13906 -4.26966 -25.0567
-5.10534 -4.36989 -25.0581
-5.07162 -4.47012 -25.0595
-5.03791 -4.57034 -25.0608
-5.00419 -4.67058 -25.0622
-4.97047 -4.77081 -25.0636
-4.8424 -4.83255 -25.0674
-4.80869 -4.93278 -25.0687
-4.77497 -5.03301 -25.0701
-4.74125 -5.13324 -25.0715
-4.70754 -5.23347 -25.0728
-4.67382 -5.3337 -25.0742
-4.6401 -5.43393 -25.0755
-4.51204 -5.49567 -25.0793
-4.47832 -5.5959 -25.0807
-4.4446 -5.69613 -25.0821
-4.41089 -5.79636 -25.0834
-4.37717 -5.89659 -25.0848
-4.34345 -5.99682 -25.0862
-4.30973 -6.09705 -25.0875
-4.27602 -6.19728 -25.0889
-4.14795 -6.25902 -25.0927
-4.11424 -6.35925 -25.0941
-4.08052 -6.45948 -25.0954
-4.0468 -6.55971 -25.0968
-4.01308 -6.65994 -25.0982
-3.97937 -6.76017 -25.0995
-3.94565 -6.8604 -25.1009
-3.91193 -6.96063 -25.1022
-3.87821 -7.06086 -25.1036
-3.8445 -7.16109 -25.105
-3.81078 -7.26132 -25.1064
-3.77707 -7.36156 -25.1077
-3.74335 -7.46178 -25.1091
-3.61528 -7.52353 -25.1129
-3.58157 -7.62376 -25.1142
-3.54785 -7.72399 -25.1156
-3.51413 -7.82422 -25.117
-3.48041 -7.92445 -25.1183
-3.4467 -8.02468 -25.1197
-3.41298 -8.12491 -25.1211
-3.37926 -8.22514 -25.1224
-3.34555 -8.32537 -25.1238
-3.21748 -8.38711 -25.1276
-3.18376 -8.48734 -25.129
-3.15005 -8.58757 -25.1303
-3.11633 -8.6878 -25.1317
-3.08261 -8.78803 -25.1331
-2.95455 -8.84977 -25.1368
-2.92083 -8.95 -25.1382
-2.88711 -9.05023 -25.1396
-2.8534 -9.15046 -25.1409
-2.81968 -9.25069 -25.1423
-2.78596 -9.35092 -25.1437
-2.75224 -9.45115 -25.145
-2.62418 -9.5129 -25.1488
-2.59046 -9.61313 -25.1502
-2.55674 -9.71336 -25.1516
-2.42868 -9.7751 -25.1553
-2.30061 -9.83684 -25.1591
-2.26689 -9.93707 -25.1605
-2.23318 -10.0373 -25.1619
-2.19946 -10.1375 -25.1632
-2.0714 -10.1993 -25.167
-2.03768 -10.2995 -25.1684
-2.00396 -10.3997 -25.1698
-1.97025 -10.5 -25.1711
-1.93653 -10.6002 -25.1725
-1.90281 -10.7004 -25.1739
-1.86909 -10.8007 -25.1752
-1.83538 -10.9009 -25.1766
-1.70731 -10.9626 -25.1804
-1.67359 -11.0629 -25.1817
-1.63988 -11.1631 -25.1831
-1.60616 -11.2633 -25.1845
-1.47809 -11.3251 -25.1883
-1.44437 -11.4253 -25.1896
-1.31631 -11.487 -25.1934
-1.28259 -11.5873 -25.1948
-1.15453 -11.649 -25.1986
-1.02646 -11.7108 -25.2024
-0.426649 -11.5801 -25.2183
-0.29858 -11.6418 -25.2221
-0.264864 -11.742 -25.2234
-0.231148 -11.8423 -25.2248
-0.197431 -11.9425 -25.2262
-0.163712 -12.0427 -25.2275
-0.129996 -12.143 -25.2289
-0.00193095 -12.2047 -25.2327
0.0317857 -12.3049 -25.234
0.0655055 -12.4052 -25.2354
0.193568 -12.4669 -25.2392
0.227283 -12.5671 -25.2406
0.355352 -12.6289 -25.2444
0.389067 -12.7291 -25.2457
0.517137 -12.7908 -25.2495
0.550853 -12.8911 -25.2509
0.678919 -12.9528 -25.2547
