ply
format ascii 1.0
element vertex 1293
property float x
property float y
property float z
element face 0
property list uchar uint vertex_indices
end_header
3.353466 -12.077600 -166.832018
3.825933 -12.310613 -166.821269
4.056885 -12.356230 -166.817788
4.207333 -12.339381 -166.816731
4.277276 -12.260066 -166.818097
4.427724 -12.243217 -166.817040
4.497667 -12.163902 -166.818406
4.567611 -12.084587 -166.819772
4.718058 -12.067738 -166.818715
5.110020 -12.238286 -166.810389
5.260468 -12.221436 -166.809332
5.410916 -12.204587 -166.808275
5.480859 -12.125273 -166.809641
5.631307 -12.108424 -166.808583
5.701250 -12.029109 -166.809949
5.771193 -11.949794 -166.811315
5.921641 -11.932945 -166.810258
5.991584 -11.853630 -166.811624
6.142032 -11.836781 -166.810567
6.211975 -11.757466 -166.811933
6.281918 -11.678152 -166.813299
6.351862 -11.598837 -166.814665
6.502309 -11.581988 -166.813608
6.572253 -11.502673 -166.814974
6.722700 -11.485824 -166.813917
6.873148 -11.468975 -166.812860
7.023596 -11.452126 -166.811803
7.093539 -11.372811 -166.813169
7.163482 -11.293496 -166.814535
7.313930 -11.276647 -166.813478
7.383873 -11.197333 -166.814844
7.453817 -11.118018 -166.816210
7.604264 -11.101169 -166.815153
7.674208 -11.021854 -166.816519
7.744151 -10.942539 -166.817885
7.894599 -10.925690 -166.816828
7.964542 -10.846376 -166.818194
8.034485 -10.767061 -166.819560
8.104428 -10.687746 -166.820926
8.254876 -10.670897 -166.819869
8.324819 -10.591582 -166.821235
8.394762 -10.512268 -166.822601
8.464705 -10.432953 -166.823967
8.534649 -10.353638 -166.825333
8.685096 -10.336789 -166.824276
8.755040 -10.257475 -166.825642
8.905487 -10.240625 -166.824584
9.055935 -10.223776 -166.823527
9.125878 -10.144462 -166.824893
9.276326 -10.127612 -166.823836
9.346269 -10.048298 -166.825202
9.496717 -10.031449 -166.824145
9.566660 -9.952134 -166.825511
9.717108 -9.935285 -166.824454
9.867556 -9.918436 -166.823397
9.937499 -9.839121 -166.824763
10.007442 -9.759806 -166.826129
10.157890 -9.742957 -166.825072
10.227833 -9.663642 -166.826438
10.297777 -9.584328 -166.827804
10.448224 -9.567479 -166.826747
10.598672 -9.550629 -166.825690
10.749120 -9.533780 -166.824633
10.819063 -9.454466 -166.825999
10.969511 -9.437616 -166.824942
11.039454 -9.358302 -166.826308
11.109397 -9.278987 -166.827674
11.259845 -9.262138 -166.826616
11.329788 -9.182823 -166.827982
11.399732 -9.103509 -166.829348
11.469675 -9.024194 -166.830714
11.539618 -8.944879 -166.832081
11.609561 -8.865565 -166.833447
11.760009 -8.848715 -166.832389
11.829952 -8.769401 -166.833755
11.899895 -8.690086 -166.835121
11.969838 -8.610771 -166.836487
12.120286 -8.593922 -166.835430
12.190229 -8.514607 -166.836796
12.260172 -8.435293 -166.838162
12.330116 -8.355978 -166.839528
12.400059 -8.276663 -166.840894
12.470002 -8.197349 -166.842260
12.539945 -8.118034 -166.843626
12.609888 -8.038719 -166.844992
12.679831 -7.959405 -166.846358
12.669270 -7.817624 -166.850148
12.739213 -7.738310 -166.851514
12.809156 -7.658995 -166.852880
12.798595 -7.517215 -166.856669
12.868538 -7.437900 -166.858035
12.938481 -7.358585 -166.859401
12.927919 -7.216805 -166.863190
12.997863 -7.137491 -166.864556
13.067806 -7.058176 -166.865922
13.057244 -6.916396 -166.869711
13.127187 -6.837081 -166.871077
13.197131 -6.757766 -166.872443
13.186569 -6.615986 -166.876232
13.256512 -6.536671 -166.877598
13.245951 -6.394891 -166.881387
13.235389 -6.253111 -166.885177
13.224828 -6.111331 -166.888966
13.214266 -5.969550 -166.892755
13.284209 -5.890236 -166.894121
13.273648 -5.748456 -166.897910
13.263086 -5.606675 -166.901699
13.252525 -5.464895 -166.905488
13.080954 -5.198184 -166.914124
12.909383 -4.931472 -166.922759
12.898821 -4.789692 -166.926548
12.888260 -4.647912 -166.930337
12.877698 -4.506132 -166.934127
12.867137 -4.364352 -166.937916
12.454052 -3.910244 -166.953820
12.362986 -3.705998 -166.960033
12.271919 -3.501752 -166.966245
12.261358 -3.359972 -166.970034
12.250796 -3.218192 -166.973823
12.240235 -3.076411 -166.977612
12.229673 -2.934631 -166.981402
12.219112 -2.792851 -166.985191
12.128046 -2.588605 -166.991403
12.036979 -2.384359 -166.997615
12.026418 -2.242579 -167.001404
12.015856 -2.100799 -167.005193
11.924790 -1.896553 -167.011406
6.031855 -11.898981 -166.840249
6.052771 -11.795321 -166.841615
6.174638 -11.705505 -166.840557
6.902216 -11.698755 -166.824962
7.024083 -11.608939 -166.823904
7.044998 -11.505279 -166.825270
7.166865 -11.415463 -166.824213
7.288732 -11.325647 -166.823156
7.612503 -11.263520 -166.817253
7.734370 -11.173704 -166.816196
7.856237 -11.083889 -166.815139
7.877153 -10.980228 -166.816505
7.999020 -10.890413 -166.815448
8.120887 -10.800597 -166.814391
8.242754 -10.710781 -166.813333
8.465573 -10.634809 -166.809853
8.587440 -10.544994 -166.808796
8.709307 -10.455178 -166.807739
8.831174 -10.365362 -166.806682
8.852089 -10.261702 -166.808048
8.873004 -10.158042 -166.809414
8.994871 -10.068226 -166.808357
9.318642 -10.006099 -166.802453
9.440509 -9.916283 -166.801396
9.562376 -9.826467 -166.800339
9.684243 -9.736651 -166.799282
10.108966 -9.688368 -166.790956
10.230833 -9.598552 -166.789899
10.352700 -9.508737 -166.788841
10.474567 -9.418921 -166.787784
10.697386 -9.342949 -166.784304
11.122109 -9.294666 -166.775978
11.243976 -9.204851 -166.774920
11.365843 -9.115035 -166.773863
11.487710 -9.025219 -166.772806
11.609577 -8.935403 -166.771749
11.731444 -8.845587 -166.770692
11.853311 -8.755771 -166.769635
11.975178 -8.665956 -166.768578
11.996093 -8.562295 -166.769944
12.017008 -8.458635 -166.771310
12.138875 -8.368819 -166.770253
12.159790 -8.265159 -166.771619
12.281657 -8.175343 -166.770562
12.403525 -8.085528 -166.769505
12.424440 -7.981867 -166.770871
12.546307 -7.892052 -166.769813
12.567222 -7.788391 -166.771179
12.588137 -7.684731 -166.772545
12.710004 -7.594916 -166.771488
12.730919 -7.491255 -166.772854
12.852786 -7.401440 -166.771797
12.873701 -7.297779 -166.773163
12.894616 -7.194119 -166.774529
13.016484 -7.104303 -166.773472
13.037399 -7.000643 -166.774838
13.058314 -6.896983 -166.776204
13.079229 -6.793323 -166.777570
13.100144 -6.689663 -166.778936
13.222011 -6.599847 -166.777879
13.242926 -6.496187 -166.779245
13.263841 -6.392527 -166.780611
13.284756 -6.288866 -166.781977
13.305672 -6.185206 -166.783343
13.427539 -6.095390 -166.782286
13.448454 -5.991730 -166.783652
13.469369 -5.888070 -166.785018
13.389332 -5.770566 -166.788807
13.410247 -5.666905 -166.790173
13.431162 -5.563245 -166.791539
13.351126 -5.445741 -166.795328
13.372041 -5.342081 -166.796694
13.392956 -5.238420 -166.798060
13.312919 -5.120916 -166.801850
13.232882 -5.003412 -166.805639
13.253797 -4.899751 -166.807005
13.173761 -4.782247 -166.810794
13.194676 -4.678587 -166.812160
13.215591 -4.574927 -166.813526
13.135554 -4.457422 -166.817315
13.156469 -4.353762 -166.818681
13.076432 -4.236257 -166.822470
13.097348 -4.132597 -166.823836
13.017311 -4.015093 -166.827625
13.038226 -3.911433 -166.828991
12.958189 -3.793928 -166.832781
12.979104 -3.690268 -166.834147
12.899068 -3.572763 -166.837936
12.919983 -3.469103 -166.839302
12.839946 -3.351599 -166.843091
12.860861 -3.247939 -166.844457
12.780824 -3.130434 -166.848246
12.700787 -3.012930 -166.852035
12.620751 -2.895425 -166.855824
12.641666 -2.791765 -166.857190
12.561629 -2.674261 -166.860979
12.582544 -2.570600 -166.862345
12.502507 -2.453096 -166.866135
12.523422 -2.349436 -166.867501
12.443386 -2.231931 -166.871290
12.464301 -2.128271 -166.872656
12.384264 -2.010767 -166.876445
12.405179 -1.907106 -166.877811
12.325142 -1.789602 -166.881600
12.245106 -1.672098 -166.885389
12.266021 -1.568437 -166.886755
12.286936 -1.464777 -166.888121
12.206899 -1.347273 -166.891910
12.227814 -1.243613 -166.893276
12.147777 -1.126108 -166.897066
12.168693 -1.022448 -166.898432
12.088656 -0.904943 -166.902221
12.008619 -0.787439 -166.906010
12.029534 -0.683779 -166.907376
12.050449 -0.580119 -166.908742
11.970413 -0.462614 -166.912531
11.991328 -0.358954 -166.913897
12.012243 -0.255294 -166.915263
11.932206 -0.137789 -166.919052
11.852169 -0.020285 -166.922841
11.873084 0.083375 -166.924207
11.793048 0.200880 -166.927997
11.813963 0.304540 -166.929363
11.834878 0.408200 -166.930729
11.754841 0.525705 -166.934518
11.775756 0.629365 -166.935884
11.796671 0.733025 -166.937250
11.716635 0.850529 -166.941039
11.737550 0.954190 -166.942405
11.657513 1.071694 -166.946194
11.678428 1.175354 -166.947560
11.598391 1.292859 -166.951349
11.518354 1.410363 -166.955138
11.438318 1.527868 -166.958927
11.459233 1.631528 -166.960293
11.480148 1.735188 -166.961659
11.400111 1.852693 -166.965449
11.421026 1.956353 -166.966815
11.340989 2.073857 -166.970604
11.361905 2.177517 -166.971970
11.281868 2.295022 -166.975759
11.302783 2.398682 -166.977125
11.222746 2.516186 -166.980914
11.243661 2.619847 -166.982280
11.264576 2.723507 -166.983646
11.285492 2.827167 -166.985012
11.306407 2.930827 -166.986378
11.226370 3.048332 -166.990167
11.247285 3.151992 -166.991533
11.167248 3.269496 -166.995322
11.087211 3.387001 -166.999112
10.805271 3.532194 -167.007747
10.725234 3.649698 -167.011536
10.746149 3.753358 -167.012902
10.666112 3.870863 -167.016691
10.687028 3.974523 -167.018057
10.707943 4.078183 -167.019423
10.728858 4.181843 -167.020789
10.749773 4.285504 -167.022155
10.770688 4.389164 -167.023521
10.690651 4.506668 -167.027310
10.711566 4.610328 -167.028676
10.631530 4.727833 -167.032466
10.450541 4.859182 -167.038678
10.471456 4.962842 -167.040044
10.391419 5.080346 -167.043833
10.412334 5.184007 -167.045199
10.332298 5.301511 -167.048988
10.353213 5.405171 -167.050354
10.273176 5.522676 -167.054143
10.193139 5.640180 -167.057933
9.507391 5.840751 -167.076260
9.427354 5.958255 -167.080050
9.347317 6.075760 -167.083839
9.065377 6.220953 -167.092474
12.555040 -8.207023 -166.798259
12.521323 -8.106793 -166.799625
12.487606 -8.006564 -166.800991
12.453889 -7.906334 -166.802357
12.891918 -7.613672 -166.791608
12.952550 -7.474956 -166.790550
13.296229 -7.220780 -166.782224
13.545560 -7.005091 -166.776321
13.606192 -6.866375 -166.775263
13.666824 -6.727658 -166.774206
13.633107 -6.627429 -166.775572
13.693739 -6.488712 -166.774515
13.660022 -6.388482 -166.775881
13.626305 -6.288252 -166.777247
13.686937 -6.149536 -166.776190
13.747569 -6.010820 -166.775133
13.713852 -5.910590 -166.776499
13.774484 -5.771874 -166.775442
13.740767 -5.671644 -166.776808
13.801399 -5.532927 -166.775751
13.767682 -5.432697 -166.777117
13.733965 -5.332468 -166.778483
13.794598 -5.193751 -166.777426
13.760881 -5.093521 -166.778792
13.727164 -4.993291 -166.780158
13.693447 -4.893061 -166.781524
13.659730 -4.792832 -166.782890
13.626013 -4.692602 -166.784256
13.592296 -4.592372 -166.785622
13.558579 -4.492142 -166.786988
13.524862 -4.391912 -166.788354
13.491145 -4.291682 -166.789720
13.457428 -4.191452 -166.791086
13.423711 -4.091222 -166.792452
13.389994 -3.990992 -166.793818
13.356277 -3.890762 -166.795184
13.322560 -3.790532 -166.796550
13.288843 -3.690302 -166.797916
13.349475 -3.551586 -166.796859
13.315758 -3.451356 -166.798225
13.282041 -3.351126 -166.799591
13.248324 -3.250896 -166.800957
13.214607 -3.150666 -166.802323
13.180890 -3.050436 -166.803689
13.147173 -2.950207 -166.805055
13.113456 -2.849977 -166.806421
13.079739 -2.749747 -166.807787
13.046022 -2.649517 -166.809153
13.106654 -2.510800 -166.808096
13.072937 -2.410571 -166.809462
13.039220 -2.310341 -166.810828
13.005503 -2.210111 -166.812194
12.971786 -2.109881 -166.813560
12.938069 -2.009651 -166.814926
12.904352 -1.909421 -166.816292
12.870635 -1.809191 -166.817658
12.836918 -1.708961 -166.819024
12.897550 -1.570245 -166.817967
12.863833 -1.470015 -166.819333
12.830116 -1.369785 -166.820699
12.796399 -1.269555 -166.822065
12.762682 -1.169325 -166.823431
12.728965 -1.069095 -166.824797
12.695248 -0.968865 -166.826163
12.661531 -0.868635 -166.827529
12.627814 -0.768405 -166.828895
12.594097 -0.668175 -166.830261
12.560380 -0.567946 -166.831627
12.526663 -0.467716 -166.832993
12.492946 -0.367486 -166.834359
12.459229 -0.267256 -166.835725
12.425512 -0.167026 -166.837091
12.391795 -0.066796 -166.838457
12.358078 0.033434 -166.839823
12.324361 0.133664 -166.841189
12.290644 0.233894 -166.842555
12.256927 0.334124 -166.843921
12.223210 0.434354 -166.845287
12.189493 0.534584 -166.846653
12.155776 0.634814 -166.848019
12.122059 0.735043 -166.849385
12.088342 0.835273 -166.850751
12.054625 0.935503 -166.852117
12.020908 1.035733 -166.853483
11.987191 1.135963 -166.854849
12.047823 1.274679 -166.853792
12.014106 1.374909 -166.855158
11.980389 1.475139 -166.856524
11.946672 1.575369 -166.857890
11.912955 1.675599 -166.859256
11.879238 1.775829 -166.860622
11.845521 1.876059 -166.861988
11.811804 1.976289 -166.863354
11.778087 2.076519 -166.864720
11.744370 2.176749 -166.866086
11.710653 2.276979 -166.867453
11.676936 2.377209 -166.868819
11.643219 2.477438 -166.870185
11.609502 2.577668 -166.871551
11.670134 2.716385 -166.870493
11.636417 2.816615 -166.871859
11.602700 2.916845 -166.873225
11.568983 3.017074 -166.874591
11.535266 3.117304 -166.875958
11.501549 3.217534 -166.877324
11.467832 3.317764 -166.878690
11.434115 3.417994 -166.880056
11.400398 3.518224 -166.881422
11.461030 3.656940 -166.880364
11.427313 3.757170 -166.881730
11.393596 3.857400 -166.883096
11.359879 3.957630 -166.884463
11.326162 4.057860 -166.885829
11.292445 4.158090 -166.887195
11.258728 4.258320 -166.888561
11.225011 4.358550 -166.889927
11.191294 4.458780 -166.891293
11.157577 4.559010 -166.892659
11.218209 4.697726 -166.891602
11.184492 4.797956 -166.892968
11.150775 4.898186 -166.894334
11.117058 4.998416 -166.895700
11.083341 5.098646 -166.897066
11.049624 5.198876 -166.898432
11.015907 5.299106 -166.899798
10.982190 5.399335 -166.901164
10.854124 5.461079 -166.904953
10.820407 5.561309 -166.906319
10.692341 5.623052 -166.910108
10.658624 5.723282 -166.911474
10.624907 5.823512 -166.912840
10.496841 5.885256 -166.916629
10.463124 5.985486 -166.917995
10.335058 6.047229 -166.921784
10.301341 6.147459 -166.923150
10.173275 6.209203 -166.926939
10.045209 6.270946 -166.930729
9.917143 6.332690 -166.934518
9.883426 6.432920 -166.935884
9.849709 6.533150 -166.937250
9.815992 6.633380 -166.938616
9.687926 6.695123 -166.942405
9.559859 6.756867 -166.946194
9.431793 6.818610 -166.949983
9.303727 6.880354 -166.953772
9.270010 6.980584 -166.955138
9.236293 7.080814 -166.956504
9.108227 7.142557 -166.960293
8.980161 7.204301 -166.964083
8.757746 7.227558 -166.970295
8.629680 7.289302 -166.974084
8.501614 7.351045 -166.977873
8.467897 7.451275 -166.979239
8.339830 7.513019 -166.983028
8.211764 7.574762 -166.986817
8.083698 7.636506 -166.990607
8.049981 7.736736 -166.991973
7.921915 7.798479 -166.995762
7.888198 7.898709 -166.997128
7.760132 7.960453 -167.000917
7.726415 8.060682 -167.002283
7.598349 8.122426 -167.006072
7.564632 8.222656 -167.007438
11.685965 3.020896 -166.845500
11.731581 3.251849 -166.842020
11.652266 3.321792 -166.843386
11.635417 3.472240 -166.842329
11.556102 3.542183 -166.843695
11.539253 3.692631 -166.842638
11.459938 3.762574 -166.844004
11.380623 3.832517 -166.845370
11.301309 3.902460 -166.846736
11.221994 3.972403 -166.848102
11.205145 4.122851 -166.847045
11.250761 4.353804 -166.843564
11.296377 4.584757 -166.840084
11.279528 4.735205 -166.839027
11.262679 4.885653 -166.837970
11.183364 4.955596 -166.839336
11.104049 5.025539 -166.840702
11.087200 5.175987 -166.839645
11.007885 5.245930 -166.841011
10.928570 5.315873 -166.842377
10.911721 5.466321 -166.841320
10.832406 5.536264 -166.842686
10.815557 5.686712 -166.841629
10.736242 5.756656 -166.842995
10.719393 5.907104 -166.841937
10.640078 5.977047 -166.843304
10.623229 6.127495 -166.842246
10.543914 6.197438 -166.843612
10.464599 6.267381 -166.844978
10.385284 6.337324 -166.846344
10.305970 6.407267 -166.847710
10.289120 6.557715 -166.846653
10.209806 6.627658 -166.848019
10.130491 6.697602 -166.849385
10.113642 6.848049 -166.848328
10.034327 6.917993 -166.849694
9.955012 6.987936 -166.851060
9.875697 7.057879 -166.852426
9.796382 7.127822 -166.853792
9.717068 7.197765 -166.855158
9.637753 7.267708 -166.856524
9.620904 7.418156 -166.855467
9.541589 7.488100 -166.856833
9.462274 7.558043 -166.858199
9.382959 7.627986 -166.859565
9.303644 7.697929 -166.860931
9.224330 7.767872 -166.862297
9.145015 7.837815 -166.863663
9.065700 7.907758 -166.865029
8.923920 7.897197 -166.868819
8.844605 7.967140 -166.870185
8.765290 8.037083 -166.871551
8.685975 8.107026 -166.872917
8.544195 8.096465 -166.876706
8.464880 8.166408 -166.878072
8.385565 8.236351 -166.879438
8.243785 8.225789 -166.883227
8.164470 8.295733 -166.884593
8.022690 8.285171 -166.888382
7.943375 8.355114 -166.889748
7.864060 8.425057 -166.891114
7.784746 8.495000 -166.892480
7.705431 8.564944 -166.893846
7.626116 8.634887 -166.895212
7.484336 8.624325 -166.899001
7.405021 8.694268 -166.900367
7.325706 8.764211 -166.901733
7.183926 8.753650 -166.905522
7.104611 8.823593 -166.906888
6.962831 8.813031 -166.910678
6.821050 8.802470 -166.914467
6.679270 8.791908 -166.918256
6.537490 8.781346 -166.922045
6.395709 8.770785 -166.925834
6.316395 8.840728 -166.927200
6.174614 8.830166 -166.930989
6.095299 8.900110 -166.932355
5.953519 8.889548 -166.936144
5.811739 8.878986 -166.939934
5.669958 8.868425 -166.943723
5.528178 8.857863 -166.947512
5.323932 8.766797 -166.953724
5.182152 8.756235 -166.957513
5.040372 8.745673 -166.961302
4.898591 8.735112 -166.965092
4.819276 8.805055 -166.966458
4.677496 8.794493 -166.970247
4.535716 8.783932 -166.974036
4.393936 8.773370 -166.977825
4.189690 8.682304 -166.984037
3.798047 8.349723 -166.997519
3.656267 8.339161 -167.001308
10.178291 6.690268 -166.856201
10.088475 6.812135 -166.855144
9.998660 6.934003 -166.854087
9.908844 7.055870 -166.853030
9.805184 7.076785 -166.854396
9.715368 7.198652 -166.853339
9.611708 7.219567 -166.854705
9.521892 7.341434 -166.853648
9.432076 7.463301 -166.852591
9.369949 7.787072 -166.846687
9.280133 7.908939 -166.845630
9.190317 8.030806 -166.844573
9.100501 8.152673 -166.843516
8.996841 8.173588 -166.844882
8.907025 8.295455 -166.843825
8.803365 8.316370 -166.845191
8.713549 8.438237 -166.844134
8.609889 8.459152 -166.845500
8.520073 8.581019 -166.844443
8.416413 8.601935 -166.845809
8.312753 8.622850 -166.847175
8.209093 8.643765 -166.848541
8.105433 8.664680 -166.849907
8.015617 8.786547 -166.848850
7.911957 8.807462 -166.850216
7.808297 8.828377 -166.851582
7.718481 8.950244 -166.850525
7.614821 8.971159 -166.851891
7.511160 8.992075 -166.853257
7.421345 9.113942 -166.852200
7.317684 9.134857 -166.853566
7.214024 9.155772 -166.854932
7.110364 9.176687 -166.856298
7.006704 9.197602 -166.857664
6.903044 9.218517 -166.859030
6.799384 9.239432 -166.860396
6.695723 9.260348 -166.861762
6.592063 9.281263 -166.863128
6.488403 9.302178 -166.864494
6.384743 9.323093 -166.865860
6.281083 9.344008 -166.867226
6.177423 9.364923 -166.868592
6.073762 9.385838 -166.869958
5.956258 9.305802 -166.873747
5.852598 9.326717 -166.875113
5.748938 9.347632 -166.876479
5.645277 9.368547 -166.877845
5.541617 9.389462 -166.879211
5.437957 9.410377 -166.880577
5.334297 9.431292 -166.881943
5.230637 9.452208 -166.883309
5.126977 9.473123 -166.884675
5.023317 9.494038 -166.886041
4.905812 9.414001 -166.889830
4.802152 9.434916 -166.891196
4.698492 9.455831 -166.892562
4.580987 9.375794 -166.896351
4.477327 9.396710 -166.897717
4.373667 9.417625 -166.899084
4.270007 9.438540 -166.900450
4.166347 9.459455 -166.901816
4.048842 9.379418 -166.905605
3.945182 9.400333 -166.906971
3.827677 9.320297 -166.910760
3.710173 9.240260 -166.914549
3.606513 9.261175 -166.915915
3.489008 9.181138 -166.919704
3.371504 9.101101 -166.923493
3.253999 9.021065 -166.927282
3.150339 9.041980 -166.928648
3.032835 8.961943 -166.932438
2.915330 8.881906 -166.936227
2.811670 8.902821 -166.937593
2.694166 8.822784 -166.941382
2.562817 8.641796 -166.947594
2.445312 8.561759 -166.951383
2.341652 8.582674 -166.952749
2.224148 8.502637 -166.956538
2.106643 8.422601 -166.960328
2.002983 8.443516 -166.961694
1.885479 8.363479 -166.965483
1.781818 8.384394 -166.966849
1.678158 8.405309 -166.968215
1.560654 8.325272 -166.972004
1.456994 8.346188 -166.973370
1.339489 8.266151 -166.977159
1.221985 8.186114 -166.980948
1.104480 8.106077 -166.984737
0.973131 7.925088 -166.990950
7.357016 9.050227 -166.898273
7.218300 9.110859 -166.897216
7.118070 9.077142 -166.898582
6.979354 9.137774 -166.897525
6.840637 9.198406 -166.896468
6.701921 9.259038 -166.895411
6.563205 9.319670 -166.894354
6.386002 9.474652 -166.890873
6.170313 9.723982 -166.884970
6.031597 9.784614 -166.883913
5.931367 9.750897 -166.885279
5.831137 9.717180 -166.886645
5.692421 9.777812 -166.885588
5.553704 9.838444 -166.884531
5.453474 9.804727 -166.885897
5.353244 9.771010 -166.887263
5.214528 9.831642 -166.886206
5.114298 9.797925 -166.887572
5.014068 9.764208 -166.888938
4.913838 9.730491 -166.890304
4.775122 9.791124 -166.889247
4.674892 9.757407 -166.890613
4.574662 9.723690 -166.891979
4.474432 9.689973 -166.893345
4.335716 9.750605 -166.892288
4.235486 9.716888 -166.893654
4.135256 9.683171 -166.895020
4.035026 9.649454 -166.896386
3.934796 9.615737 -166.897752
3.834566 9.582020 -166.899118
3.734337 9.548303 -166.900484
3.634107 9.514586 -166.901850
3.533877 9.480869 -166.903216
3.433647 9.447152 -166.904582
3.333417 9.413435 -166.905948
3.233187 9.379718 -166.907314
3.132957 9.346001 -166.908680
3.032727 9.312284 -166.910046
2.932497 9.278567 -166.911412
2.832267 9.244850 -166.912778
2.693551 9.305482 -166.911721
2.593321 9.271765 -166.913087
2.493091 9.238048 -166.914453
2.392861 9.204331 -166.915819
2.292631 9.170614 -166.917185
2.192401 9.136897 -166.918551
2.130658 9.008831 -166.922340
2.030428 8.975114 -166.923706
1.930198 8.941397 -166.925072
1.829968 8.907680 -166.926438
1.729738 8.873963 -166.927804
1.629508 8.840246 -166.929170
1.529278 8.806529 -166.930536
1.429048 8.772812 -166.931902
1.328818 8.739095 -166.933268
1.228588 8.705378 -166.934634
1.128359 8.671661 -166.936000
1.028129 8.637944 -166.937366
0.927899 8.604227 -166.938732
0.827669 8.570510 -166.940098
0.727439 8.536793 -166.941464
0.627209 8.503076 -166.942830
0.526979 8.469359 -166.944196
0.465235 8.341293 -166.947985
0.365006 8.307576 -166.949351
0.264776 8.273859 -166.950717
0.164546 8.240142 -166.952083
0.102802 8.112075 -166.955872
0.002572 8.078358 -166.957238
-0.097658 8.044641 -166.958604
-0.197888 8.010924 -166.959971
-0.298118 7.977207 -166.961337
-0.398347 7.943490 -166.962703
-0.460091 7.815424 -166.966492
-0.560321 7.781707 -166.967858
-0.622064 7.653641 -166.971647
-0.722294 7.619924 -166.973013
-0.784038 7.491858 -166.976802
-0.884268 7.458141 -166.978168
-0.946011 7.330075 -166.981957
-1.046241 7.296358 -166.983323
-1.107985 7.168292 -166.987112
-1.208215 7.134575 -166.988478
-1.308445 7.100858 -166.989844
-1.408675 7.067141 -166.991210
-1.470418 6.939075 -166.994999
1.392322 9.463910 -166.947093
1.241875 9.447060 -166.946036
1.171931 9.367746 -166.947402
1.101988 9.288431 -166.948768
0.951540 9.271582 -166.947710
0.881597 9.192267 -166.949076
0.731149 9.175418 -166.948019
0.661206 9.096103 -166.949385
0.510758 9.079254 -166.948328
0.440815 8.999940 -166.949694
0.290367 8.983090 -166.948637
0.220424 8.903776 -166.950003
0.150481 8.824461 -166.951369
0.000033 8.807612 -166.950312
-0.069910 8.728297 -166.951678
-0.220358 8.711448 -166.950621
-0.290301 8.632133 -166.951987
-0.360244 8.552819 -166.953353
-0.510692 8.535970 -166.952296
-0.580635 8.456655 -166.953662
-0.650578 8.377340 -166.955028
-0.720521 8.298026 -166.956394
-0.870969 8.281176 -166.955337
-0.940912 8.201862 -166.956703
-1.010855 8.122547 -166.958069
-1.080799 8.043232 -166.959435
-1.150742 7.963918 -166.960801
-1.220685 7.884603 -166.962167
-1.290628 7.805288 -166.963533
-1.360571 7.725974 -166.964899
-1.430514 7.646659 -166.966265
-1.500458 7.567344 -166.967631
-1.570401 7.488029 -166.968997
-1.640344 7.408715 -166.970363
-1.710287 7.329400 -166.971729
-1.860735 7.312551 -166.970672
-1.930678 7.233236 -166.972038
-2.000621 7.153922 -166.973404
-2.070564 7.074607 -166.974770
-2.140507 6.995292 -166.976136
-2.210451 6.915978 -166.977502
-2.280394 6.836663 -166.978868
-2.350337 6.757348 -166.980234
-2.420280 6.678033 -166.981600
-2.490223 6.598719 -166.982966
-2.560166 6.519404 -166.984332
-2.630110 6.440089 -166.985698
-2.700053 6.360775 -166.987064
-2.769996 6.281460 -166.988430
-2.759434 6.139680 -166.992219
-2.829378 6.060365 -166.993585
-2.899321 5.981050 -166.994951
-2.969264 5.901736 -166.996317
-3.039207 5.822421 -166.997683
-3.109150 5.743106 -166.999049
-3.179093 5.663792 -167.000415
-3.249036 5.584477 -167.001781
-3.318980 5.505162 -167.003147
-3.388923 5.425848 -167.004513
-3.458866 5.346533 -167.005879
-3.528809 5.267218 -167.007245
-3.598752 5.187904 -167.008612
-3.668695 5.108589 -167.009978
-3.738639 5.029274 -167.011344
-3.728077 4.887494 -167.015133
-3.798020 4.808179 -167.016499
-3.867963 4.728865 -167.017865
-3.937907 4.649550 -167.019231
-3.927345 4.507770 -167.023020
-3.997288 4.428455 -167.024386
-3.986727 4.286675 -167.028175
-4.056670 4.207360 -167.029541
-3.965604 4.003114 -167.035753
-3.874537 3.798869 -167.041966
-3.863976 3.657088 -167.045755
-3.853414 3.515308 -167.049544
-3.762348 3.311062 -167.055756
-3.751787 3.169282 -167.059545
-3.741225 3.027502 -167.063334
-3.730664 2.885722 -167.067124
-3.359683 6.632218 -166.990318
-3.481550 6.542402 -166.989261
-3.502465 6.438742 -166.990627
-3.523380 6.335082 -166.991993
-3.544295 6.231422 -166.993359
-3.565210 6.127761 -166.994725
-3.586125 6.024101 -166.996091
-3.607040 5.920441 -166.997457
-3.728908 5.830625 -166.996400
-3.749823 5.726965 -166.997766
-3.770738 5.623305 -166.999132
-3.791653 5.519645 -167.000498
-3.812568 5.415985 -167.001864
-3.833483 5.312324 -167.003230
-3.854398 5.208664 -167.004596
-3.875313 5.105004 -167.005962
-3.896229 5.001344 -167.007328
-4.018096 4.911528 -167.006271
-4.039011 4.807868 -167.007637
-4.059926 4.704208 -167.009003
-4.080841 4.600548 -167.010369
-4.101756 4.496888 -167.011735
-4.122671 4.393227 -167.013101
-4.143586 4.289567 -167.014467
-4.164502 4.185907 -167.015833
-4.185417 4.082247 -167.017199
-4.206332 3.978587 -167.018565
-4.227247 3.874927 -167.019931
-4.248162 3.771266 -167.021297
-4.370029 3.681451 -167.020240
-4.390944 3.577790 -167.021606
-4.411859 3.474130 -167.022972
-4.432774 3.370470 -167.024338
-4.453690 3.266810 -167.025704
-4.474605 3.163150 -167.027070
-4.394568 3.045645 -167.030859
-4.415483 2.941985 -167.032225
-4.436398 2.838325 -167.033591
-4.558265 2.748509 -167.032534
-4.579180 2.644849 -167.033900
-4.600096 2.541189 -167.035266
-4.621011 2.437529 -167.036632
-4.742878 2.347713 -167.035575
-4.763793 2.244053 -167.036941
-4.784708 2.140393 -167.038307
-4.805623 2.036732 -167.039673
-4.826538 1.933072 -167.041039
-4.847453 1.829412 -167.042405
-4.868368 1.725752 -167.043771
-4.889284 1.622092 -167.045137
-5.011151 1.532276 -167.044080
-5.032066 1.428616 -167.045446
-5.052981 1.324956 -167.046812
-5.073896 1.221295 -167.048178
-5.094811 1.117635 -167.049544
-5.014774 1.000131 -167.053333
-5.035690 0.896471 -167.054699
-5.056605 0.792810 -167.056065
-5.077520 0.689150 -167.057431
-4.997483 0.571646 -167.061220
-5.018398 0.467986 -167.062586
-5.039313 0.364325 -167.063952
-4.959276 0.246821 -167.067741
-5.081144 0.157005 -167.066684
-5.102059 0.053345 -167.068050
-5.122974 -0.050315 -167.069416
-5.143889 -0.153975 -167.070782
-5.164804 -0.257635 -167.072148
-5.185719 -0.361296 -167.073514
-5.206634 -0.464956 -167.074880
-5.227549 -0.568616 -167.076246
-5.147513 -0.686120 -167.080035
-5.168428 -0.789781 -167.081402
-5.189343 -0.893441 -167.082768
-5.210258 -0.997101 -167.084134
-5.231173 -1.100761 -167.085500
-5.252088 -1.204421 -167.086866
-5.172052 -1.321926 -167.090655
-5.192967 -1.425586 -167.092021
-5.213882 -1.529246 -167.093387
-5.234797 -1.632906 -167.094753
-5.154760 -1.750411 -167.098542
-5.175675 -1.854071 -167.099908
-5.196590 -1.957731 -167.101274
-5.217506 -2.061391 -167.102640
-5.238421 -2.165051 -167.104006
-5.259336 -2.268711 -167.105372
-5.280251 -2.372372 -167.106738
-5.301166 -2.476032 -167.108104
-5.221129 -2.593536 -167.111893
-5.242044 -2.697196 -167.113259
-5.262960 -2.800857 -167.114625
-5.283875 -2.904517 -167.115991
-5.719338 -0.630919 -167.024825
-5.779970 -0.769635 -167.023768
-5.840602 -0.908352 -167.022711
-5.901235 -1.047068 -167.021654
-5.867518 -1.147298 -167.023020
-5.833801 -1.247528 -167.024386
-5.800084 -1.347758 -167.025752
-5.766367 -1.447988 -167.027118
-5.826999 -1.586704 -167.026061
-5.793282 -1.686934 -167.027427
-5.759565 -1.787164 -167.028793
-5.820197 -1.925880 -167.027736
-5.786480 -2.026110 -167.029102
-5.752763 -2.126340 -167.030468
-5.719046 -2.226570 -167.031834
-5.685329 -2.326800 -167.033200
-5.651612 -2.427030 -167.034566
-5.617895 -2.527260 -167.035932
-5.584178 -2.627490 -167.037298
-5.550461 -2.727720 -167.038664
-5.516744 -2.827950 -167.040030
-5.483027 -2.928179 -167.041396
-5.449310 -3.028409 -167.042762
-5.415593 -3.128639 -167.044128
-5.381876 -3.228869 -167.045494
-5.348159 -3.329099 -167.046860
-5.314442 -3.429329 -167.048226
-5.186376 -3.491073 -167.052015
-5.152659 -3.591303 -167.053381
-5.118942 -3.691532 -167.054747
-5.085225 -3.791762 -167.056113
-5.051508 -3.891992 -167.057479
-5.017791 -3.992222 -167.058845
-4.984074 -4.092452 -167.060211
-4.950357 -4.192682 -167.061577
-4.822291 -4.254426 -167.065366
-4.788574 -4.354656 -167.066732
-4.754857 -4.454885 -167.068098
-4.721140 -4.555115 -167.069464
-4.593073 -4.616859 -167.073254
-4.559356 -4.717089 -167.074620
-4.431290 -4.778832 -167.078409
-4.303224 -4.840576 -167.082198
-4.175158 -4.902319 -167.085987
-4.047092 -4.964063 -167.089776
-4.013375 -5.064293 -167.091142
-3.885309 -5.126037 -167.094931
-3.851592 -5.226266 -167.096297
-3.912224 -5.364983 -167.095240
-3.878507 -5.465213 -167.096606
-3.844790 -5.565443 -167.097972
-3.811073 -5.665672 -167.099338
-3.683007 -5.727416 -167.103127
-3.649290 -5.827646 -167.104493
-3.615573 -5.927876 -167.105859
-3.487507 -5.989619 -167.109649
-3.453790 -6.089849 -167.111015
-3.420073 -6.190079 -167.112381
-3.386356 -6.290309 -167.113747
-3.258290 -6.352053 -167.117536
-3.224573 -6.452283 -167.118902
-3.096507 -6.514026 -167.122691
-3.062790 -6.614256 -167.124057
-5.913654 -3.501112 -166.990723
-5.896805 -3.651560 -166.989666
-5.817490 -3.721503 -166.991032
-5.738175 -3.791446 -166.992398
-5.721326 -3.941894 -166.991341
-5.642012 -4.011837 -166.992707
-5.562697 -4.081780 -166.994073
-5.545848 -4.232228 -166.993016
-5.466533 -4.302171 -166.994382
-5.387218 -4.372115 -166.995748
-5.307904 -4.442058 -166.997114
-5.228589 -4.512001 -166.998480
-5.211740 -4.662449 -166.997423
-5.132425 -4.732392 -166.998789
-5.053110 -4.802335 -167.000155
-5.036261 -4.952783 -166.999098
-4.956947 -5.022726 -167.000464
-4.877632 -5.092669 -167.001830
-4.798317 -5.162612 -167.003196
-4.719003 -5.232555 -167.004562
-4.639688 -5.302499 -167.005928
-4.560373 -5.372442 -167.007294
-4.543524 -5.522890 -167.006237
-4.464209 -5.592833 -167.007603
-4.447360 -5.743281 -167.006545
-4.368046 -5.813224 -167.007911
-4.288731 -5.883167 -167.009277
-4.209416 -5.953110 -167.010643
-4.130101 -6.023053 -167.012010
-4.050787 -6.092996 -167.013376
-4.033938 -6.243444 -167.012318
-3.954623 -6.313387 -167.013684
-3.875308 -6.383331 -167.015050
-3.858459 -6.533778 -167.013993
-3.779144 -6.603722 -167.015359
-3.699830 -6.673665 -167.016725
-3.620515 -6.743608 -167.018091
-3.603666 -6.894056 -167.017034
-3.524351 -6.963999 -167.018400
-3.445037 -7.033942 -167.019766
-3.365722 -7.103885 -167.021132
-3.286407 -7.173828 -167.022498
-3.207092 -7.243771 -167.023864
-3.127778 -7.313715 -167.025230
-3.048463 -7.383658 -167.026596
-3.031614 -7.534106 -167.025539
-2.952299 -7.604049 -167.026905
-2.872985 -7.673992 -167.028271
-2.793670 -7.743935 -167.029637
-2.714355 -7.813878 -167.031003
-2.635041 -7.883821 -167.032369
-2.618191 -8.034269 -167.031312
-2.538877 -8.104212 -167.032678
-2.459562 -8.174156 -167.034044
-2.380247 -8.244099 -167.035410
-2.300933 -8.314042 -167.036776
-2.221618 -8.383985 -167.038142
-2.142303 -8.453928 -167.039508
-2.062989 -8.523871 -167.040874
-1.983674 -8.593815 -167.042240
-1.904359 -8.663758 -167.043606
-1.825045 -8.733701 -167.044972
-1.745730 -8.803644 -167.046338
-1.666415 -8.873587 -167.047704
-1.587100 -8.943530 -167.049070
-1.507786 -9.013473 -167.050436
-1.428471 -9.083417 -167.051802
-1.349156 -9.153360 -167.053169
-1.269842 -9.223303 -167.054535
-1.190527 -9.293246 -167.055901
-1.111212 -9.363189 -167.057267
-1.031898 -9.433132 -167.058633
-0.952583 -9.503076 -167.059999
-0.873268 -9.573019 -167.061365
-0.793954 -9.642962 -167.062731
-0.714639 -9.712905 -167.064097
-0.635324 -9.782848 -167.065463
-0.556010 -9.852791 -167.066829
-0.476695 -9.922735 -167.068195
-0.397380 -9.992678 -167.069561
-0.318066 -10.062621 -167.070927
-0.238751 -10.132564 -167.072293
-0.159436 -10.202507 -167.073659
-0.080121 -10.272450 -167.075025
-0.000807 -10.342393 -167.076391
0.078508 -10.412337 -167.077757
0.157823 -10.482280 -167.079123
0.237137 -10.552223 -167.080489
0.316452 -10.622166 -167.081855
0.458232 -10.611605 -167.085644
0.537547 -10.681548 -167.087010
0.616862 -10.751491 -167.088376
0.696176 -10.821434 -167.089742
0.775491 -10.891377 -167.091108
0.854806 -10.961320 -167.092474
0.934120 -11.031264 -167.093840
1.075901 -11.020702 -167.097629
1.155215 -11.090645 -167.098995
1.234530 -11.160588 -167.100361
1.313845 -11.230531 -167.101727
1.393159 -11.300475 -167.103093
1.472474 -11.370418 -167.104459
1.614254 -11.359856 -167.108248
1.693569 -11.429799 -167.109614
1.772884 -11.499743 -167.110980
1.852198 -11.569686 -167.112346
1.993978 -11.559124 -167.116136
2.073293 -11.629067 -167.117502
2.215073 -11.618506 -167.121291
2.419319 -11.527440 -167.127503
2.686030 -11.355869 -167.136138
2.827811 -11.345307 -167.139928
2.969591 -11.334746 -167.143717
3.111371 -11.324184 -167.147506
3.253151 -11.313623 -167.151295
-2.286275 -8.178866 -166.962442
-2.182615 -8.199782 -166.963808
-2.092799 -8.321649 -166.962751
-1.989139 -8.342564 -166.964117
-1.899323 -8.464431 -166.963060
-1.809507 -8.586298 -166.962002
-1.733536 -8.809117 -166.958522
-1.643720 -8.930984 -166.957465
-1.553904 -9.052851 -166.956408
-1.450244 -9.073766 -166.957774
-1.360428 -9.195633 -166.956717
-1.256768 -9.216548 -166.958083
-1.166952 -9.338415 -166.957026
-1.063292 -9.359330 -166.958392
-0.959632 -9.380246 -166.959758
-0.869816 -9.502113 -166.958701
-0.766156 -9.523028 -166.960067
-0.690184 -9.745847 -166.956587
-0.614213 -9.968666 -166.953106
-0.510552 -9.989581 -166.954472
-0.420737 -10.111448 -166.953415
-0.330921 -10.233315 -166.952358
-0.241105 -10.355182 -166.951301
-0.137445 -10.376097 -166.952667
-0.033785 -10.397012 -166.954033
0.056031 -10.518879 -166.952976
0.159691 -10.539794 -166.954342
0.263352 -10.560709 -166.955708
0.353167 -10.682577 -166.954651
0.442983 -10.804444 -166.953594
0.546643 -10.825359 -166.954960
0.650304 -10.846274 -166.956326
0.753964 -10.867189 -166.957692
0.857624 -10.888104 -166.959058
0.947440 -11.009971 -166.958001
1.037256 -11.131838 -166.956944
1.140916 -11.152753 -166.958310
1.230732 -11.274620 -166.957253
1.334392 -11.295535 -166.958619
1.424208 -11.417403 -166.957561
1.527868 -11.438318 -166.958927
1.631528 -11.459233 -166.960293
1.735188 -11.480148 -166.961659
1.838848 -11.501063 -166.963025
1.942508 -11.521978 -166.964392
2.032324 -11.643845 -166.963334
2.135984 -11.664760 -166.964700
2.239644 -11.685675 -166.966066
2.343305 -11.706591 -166.967432
2.433120 -11.828458 -166.966375
2.536781 -11.849373 -166.967741
2.640441 -11.870288 -166.969107
2.744101 -11.891203 -166.970473
2.847761 -11.912118 -166.971839
2.951421 -11.933033 -166.973205
3.055081 -11.953948 -166.974571
3.158742 -11.974864 -166.975937
3.262402 -11.995779 -166.977303
3.366062 -12.016694 -166.978669
3.469722 -12.037609 -166.980035
3.573382 -12.058524 -166.981402
3.677042 -12.079439 -166.982768
3.780703 -12.100354 -166.984134
3.898207 -12.020318 -166.987923
4.001867 -12.041233 -166.989289
4.105527 -12.062148 -166.990655
4.223032 -11.982111 -166.994444
4.326692 -12.003026 -166.995810
4.430352 -12.023941 -166.997176
4.547857 -11.943905 -167.000965
4.651517 -11.964820 -167.002331
4.796710 -11.682879 -167.010966
4.914214 -11.602842 -167.014756
5.031719 -11.522805 -167.018545
5.135379 -11.543721 -167.019911
5.239039 -11.564636 -167.021277
5.356544 -11.484599 -167.025066
5.474048 -11.404562 -167.028855
5.591553 -11.324525 -167.032644
5.709057 -11.244489 -167.036433
5.826562 -11.164452 -167.040222
5.944066 -11.084415 -167.044012
6.061571 -11.004378 -167.047801
6.165231 -11.025293 -167.049167
6.282735 -10.945257 -167.052956
6.414084 -10.764268 -167.059168
-0.150143 -9.952029 -166.905117
-0.011427 -10.012661 -166.904060
0.127289 -10.073294 -166.903003
0.266006 -10.133926 -166.901946
0.520181 -10.477605 -166.893619
0.658897 -10.538237 -166.892562
0.836100 -10.693218 -166.889082
0.974816 -10.753851 -166.888025
1.075046 -10.720134 -166.889391
1.213763 -10.780766 -166.888334
1.352479 -10.841398 -166.887277
1.491195 -10.902030 -166.886220
1.745371 -11.245709 -166.877893
1.961060 -11.495040 -166.871990
2.099776 -11.555672 -166.870933
2.238492 -11.616304 -166.869876
2.377209 -11.676936 -166.868819
2.477438 -11.643219 -166.870185
2.616155 -11.703851 -166.869127
2.754871 -11.764483 -166.868070
2.855101 -11.730766 -166.869436
2.955331 -11.697049 -166.870802
3.094047 -11.757681 -166.869745
3.194277 -11.723964 -166.871111
3.294507 -11.690247 -166.872477
3.433223 -11.750880 -166.871420
3.571940 -11.811512 -166.870363
3.749142 -11.966493 -166.866883
3.887859 -12.027125 -166.865826
3.988089 -11.993408 -166.867192
4.088318 -11.959691 -166.868558
4.227035 -12.020323 -166.867501
4.327265 -11.986606 -166.868867
4.427495 -11.952889 -166.870233
4.527725 -11.919172 -166.871599
4.627954 -11.885455 -166.872965
4.728184 -11.851738 -166.874331
4.866901 -11.912370 -166.873274
4.967131 -11.878653 -166.874640
5.067361 -11.844936 -166.876006
5.167590 -11.811219 -166.877372
5.267820 -11.777502 -166.878738
5.368050 -11.743785 -166.880104
5.468280 -11.710068 -166.881470
5.568510 -11.676351 -166.882836
5.630254 -11.548285 -166.886625
5.730484 -11.514568 -166.887991
5.830714 -11.480851 -166.889357
5.930943 -11.447134 -166.890723
6.031173 -11.413417 -166.892089
6.092917 -11.285351 -166.895878
6.193147 -11.251634 -166.897244
6.293377 -11.217917 -166.898610
6.393607 -11.184200 -166.899976
6.455350 -11.056134 -166.903765
6.555580 -11.022417 -166.905131
6.655810 -10.988700 -166.906497
6.756040 -10.954983 -166.907863
6.856270 -10.921266 -166.909229
6.956500 -10.887549 -166.910595
7.056730 -10.853832 -166.911961
7.156960 -10.820115 -166.913327
7.257190 -10.786398 -166.914693
7.318933 -10.658332 -166.918483
7.419163 -10.624615 -166.919849
7.480907 -10.496549 -166.923638
7.581137 -10.462832 -166.925004
7.681367 -10.429115 -166.926370
7.781596 -10.395398 -166.927736
7.881826 -10.361681 -166.929102
7.982056 -10.327964 -166.930468
8.082286 -10.294247 -166.931834
8.182516 -10.260530 -166.933200
8.282746 -10.226813 -166.934566
8.382976 -10.193096 -166.935932
8.483206 -10.159379 -166.937298
8.544949 -10.031313 -166.941087
8.645179 -9.997596 -166.942453
8.745409 -9.963879 -166.943819
8.845639 -9.930162 -166.945185
8.945869 -9.896445 -166.946551
9.046099 -9.862728 -166.947917
9.146329 -9.829011 -166.949283
9.246559 -9.795294 -166.950649
9.346789 -9.761577 -166.952015
9.447019 -9.727860 -166.953381
9.547249 -9.694143 -166.954747
9.608992 -9.566076 -166.958536
9.709222 -9.532359 -166.959902
9.809452 -9.498642 -166.961268
9.909682 -9.464925 -166.962634
10.009912 -9.431208 -166.964000
10.110142 -9.397491 -166.965366
10.210372 -9.363774 -166.966732
10.310602 -9.330057 -166.968098
10.410832 -9.296340 -166.969464
10.511062 -9.262623 -166.970830
10.611291 -9.228906 -166.972196
10.673035 -9.100840 -166.975986
10.773265 -9.067123 -166.977352
10.873495 -9.033406 -166.978718
10.973725 -8.999689 -166.980084
11.035468 -8.871623 -166.983873
11.135698 -8.837906 -166.985239
11.235928 -8.804189 -166.986605
11.336158 -8.770472 -166.987971
11.436388 -8.736755 -166.989337
11.536618 -8.703038 -166.990703
11.598361 -8.574972 -166.994492
11.583132 -8.258208 -167.003127
11.644876 -8.130142 -167.006917
11.745106 -8.096425 -167.008283
11.806849 -7.968359 -167.012072
11.907079 -7.934642 -167.013438
11.968823 -7.806575 -167.017227
12.030566 -7.678509 -167.021016
12.130796 -7.644792 -167.022382
12.192540 -7.516726 -167.026171
12.254283 -7.388660 -167.029960
12.316027 -7.260594 -167.033749
12.377770 -7.132528 -167.037539
12.247082 -6.532716 -167.053443
12.231853 -6.215952 -167.062079
12.255110 -5.993537 -167.068291
