ply
format ascii 1.0
element vertex 1337
property float x
property float y
property float z
element face 0
property list uchar uint vertex_indices
end_header
3.815371 -12.168833 -165.825058
4.126829 -12.276915 -165.819155
4.357781 -12.322531 -165.815674
4.508229 -12.305682 -165.814617
4.658677 -12.288833 -165.813560
4.728620 -12.209518 -165.814926
4.879068 -12.192669 -165.813869
4.949011 -12.113355 -165.815235
5.099459 -12.096505 -165.814178
5.249907 -12.079656 -165.813121
5.400354 -12.062807 -165.812064
5.470298 -11.983492 -165.813430
5.620745 -11.966643 -165.812373
5.771193 -11.949794 -165.811315
5.841136 -11.870479 -165.812681
5.991584 -11.853630 -165.811624
6.061527 -11.774316 -165.812990
6.211975 -11.757466 -165.811933
6.281918 -11.678152 -165.813299
6.351862 -11.598837 -165.814665
6.502309 -11.581988 -165.813608
6.572253 -11.502673 -165.814974
6.642196 -11.423359 -165.816340
6.792644 -11.406509 -165.815283
6.862587 -11.327195 -165.816649
7.013035 -11.310346 -165.815592
7.082978 -11.231031 -165.816958
7.152921 -11.151716 -165.818324
7.303369 -11.134867 -165.817267
7.373312 -11.055552 -165.818633
7.443255 -10.976238 -165.819999
7.513198 -10.896923 -165.821365
7.583141 -10.817608 -165.822731
7.733589 -10.800759 -165.821674
7.803532 -10.721445 -165.823040
7.953980 -10.704595 -165.821983
8.023923 -10.625281 -165.823349
8.093867 -10.545966 -165.824715
8.244314 -10.529117 -165.823658
8.314258 -10.449802 -165.825024
8.384201 -10.370487 -165.826390
8.454144 -10.291173 -165.827756
8.604592 -10.274324 -165.826699
8.755040 -10.257475 -165.825642
8.905487 -10.240625 -165.824584
8.975431 -10.161311 -165.825950
9.045374 -10.081996 -165.827317
9.115317 -10.002681 -165.828683
9.265765 -9.985832 -165.827625
9.335708 -9.906517 -165.828991
9.405651 -9.827203 -165.830357
9.556099 -9.810354 -165.829300
9.706547 -9.793505 -165.828243
9.776490 -9.714190 -165.829609
9.926938 -9.697341 -165.828552
9.996881 -9.618026 -165.829918
10.147329 -9.601177 -165.828861
10.217272 -9.521862 -165.830227
10.367720 -9.505013 -165.829170
10.437663 -9.425698 -165.830536
10.588111 -9.408849 -165.829479
10.738559 -9.392000 -165.828422
10.808502 -9.312685 -165.829788
10.878445 -9.233371 -165.831154
11.028893 -9.216522 -165.830097
11.098836 -9.137207 -165.831463
11.168779 -9.057892 -165.832829
11.238722 -8.978577 -165.834195
11.389170 -8.961728 -165.833138
11.459113 -8.882414 -165.834504
11.529056 -8.803099 -165.835870
11.679504 -8.786250 -165.834813
11.749447 -8.706935 -165.836179
11.819390 -8.627620 -165.837545
11.889334 -8.548306 -165.838911
11.959277 -8.468991 -165.840277
12.109725 -8.452142 -165.839219
12.179668 -8.372827 -165.840586
12.249611 -8.293513 -165.841952
12.319554 -8.214198 -165.843318
12.308993 -8.072418 -165.847107
12.378936 -7.993103 -165.848473
12.448879 -7.913788 -165.849839
12.518822 -7.834474 -165.851205
12.588765 -7.755159 -165.852571
12.578204 -7.613379 -165.856360
12.648147 -7.534064 -165.857726
12.718090 -7.454749 -165.859092
12.707528 -7.312969 -165.862881
12.777472 -7.233654 -165.864247
12.847415 -7.154340 -165.865613
12.836853 -7.012559 -165.869402
12.906796 -6.933245 -165.870768
12.896235 -6.791465 -165.874557
12.966178 -6.712150 -165.875923
12.955616 -6.570370 -165.879713
13.025560 -6.491055 -165.881079
13.014998 -6.349275 -165.884868
13.004437 -6.207495 -165.888657
12.993875 -6.065714 -165.892446
12.983314 -5.923934 -165.896235
13.053257 -5.844619 -165.897601
13.042695 -5.702839 -165.901390
12.951629 -5.498593 -165.907603
12.941067 -5.356813 -165.911392
12.930506 -5.215033 -165.915181
12.919944 -5.073253 -165.918970
12.828878 -4.869007 -165.925182
12.737812 -4.664761 -165.931394
12.727250 -4.522981 -165.935184
12.797194 -4.443666 -165.936550
12.706127 -4.239420 -165.942762
12.293042 -3.785313 -165.958667
12.282481 -3.643532 -165.962456
12.271919 -3.501752 -165.966245
12.341863 -3.422437 -165.967611
12.331301 -3.280657 -165.971400
12.240235 -3.076411 -165.977612
12.149169 -2.872166 -165.983825
12.058102 -2.667920 -165.990037
12.047541 -2.526140 -165.993826
12.036979 -2.384359 -165.997615
12.026418 -2.242579 -166.001404
6.052771 -11.795321 -165.841615
6.275590 -11.719349 -165.838134
6.700312 -11.671066 -165.829808
6.822179 -11.581251 -165.828751
7.044998 -11.505279 -165.825270
7.166865 -11.415463 -165.824213
7.288732 -11.325647 -165.823156
7.410599 -11.235832 -165.822099
7.532467 -11.146016 -165.821042
7.654334 -11.056200 -165.819985
7.776201 -10.966384 -165.818928
7.797116 -10.862724 -165.820294
7.918983 -10.772908 -165.819237
7.939898 -10.669248 -165.820603
8.061765 -10.579432 -165.819546
8.183632 -10.489616 -165.818489
8.305499 -10.399800 -165.817431
8.528318 -10.323829 -165.813951
8.650185 -10.234013 -165.812894
8.873004 -10.158042 -165.809414
8.994871 -10.068226 -165.808357
9.015786 -9.964566 -165.809723
9.137653 -9.874750 -165.808666
9.360472 -9.798778 -165.805185
9.583291 -9.722807 -165.801705
9.907062 -9.660680 -165.795802
9.927977 -9.557019 -165.797168
10.049844 -9.467204 -165.796111
10.171711 -9.377388 -165.795054
10.293578 -9.287572 -165.793997
10.516397 -9.211600 -165.790516
10.739216 -9.135629 -165.787036
10.962035 -9.059657 -165.783556
11.184854 -8.983686 -165.780076
11.609577 -8.935403 -165.771749
11.731444 -8.845587 -165.770692
11.752359 -8.741927 -165.772058
11.773274 -8.638267 -165.773424
11.895141 -8.548451 -165.772367
11.916056 -8.444791 -165.773733
11.936971 -8.341131 -165.775099
11.957887 -8.237471 -165.776465
12.079754 -8.147655 -165.775408
12.302573 -8.071683 -165.771928
12.424440 -7.981867 -165.770871
12.445355 -7.878207 -165.772237
12.466270 -7.774547 -165.773603
12.588137 -7.684731 -165.772545
12.609052 -7.581071 -165.773911
12.629967 -7.477411 -165.775278
12.650882 -7.373751 -165.776644
12.772749 -7.283935 -165.775586
12.793665 -7.180275 -165.776952
12.814580 -7.076615 -165.778318
12.835495 -6.972955 -165.779684
12.957362 -6.883139 -165.778627
12.978277 -6.779479 -165.779993
12.999192 -6.675818 -165.781359
13.020107 -6.572158 -165.782725
13.041022 -6.468498 -165.784091
13.061938 -6.364838 -165.785457
13.082853 -6.261178 -165.786823
13.103768 -6.157518 -165.788189
13.124683 -6.053857 -165.789555
13.145598 -5.950197 -165.790922
13.166513 -5.846537 -165.792288
13.288380 -5.756721 -165.791230
13.208343 -5.639217 -165.795020
13.229259 -5.535557 -165.796386
13.250174 -5.431896 -165.797752
13.170137 -5.314392 -165.801541
13.191052 -5.210732 -165.802907
13.211967 -5.107072 -165.804273
13.232882 -5.003412 -165.805639
13.152846 -4.885907 -165.809428
13.173761 -4.782247 -165.810794
13.093724 -4.664742 -165.814583
13.013687 -4.547238 -165.818372
13.034602 -4.443578 -165.819738
12.954565 -4.326073 -165.823527
12.975481 -4.222413 -165.824893
12.996396 -4.118753 -165.826259
13.017311 -4.015093 -165.827625
12.937274 -3.897588 -165.831415
12.857237 -3.780084 -165.835204
12.878152 -3.676424 -165.836570
12.798116 -3.558919 -165.840359
12.819031 -3.455259 -165.841725
12.738994 -3.337755 -165.845514
12.658957 -3.220250 -165.849303
12.679872 -3.116590 -165.850669
12.599836 -2.999085 -165.854458
12.620751 -2.895425 -165.855824
12.540714 -2.777921 -165.859613
12.561629 -2.674261 -165.860979
12.481592 -2.556756 -165.864769
12.502507 -2.453096 -165.866135
12.422471 -2.335591 -165.869924
12.342434 -2.218087 -165.873713
12.363349 -2.114427 -165.875079
12.283312 -1.996922 -165.878868
12.304227 -1.893262 -165.880234
12.325142 -1.789602 -165.881600
12.346058 -1.685942 -165.882966
12.266021 -1.568437 -165.886755
12.185984 -1.450933 -165.890544
12.206899 -1.347273 -165.891910
12.126862 -1.229768 -165.895700
12.046826 -1.112264 -165.899489
12.067741 -1.008604 -165.900855
12.088656 -0.904943 -165.902221
12.008619 -0.787439 -165.906010
12.029534 -0.683779 -165.907376
11.949497 -0.566274 -165.911165
11.970413 -0.462614 -165.912531
11.890376 -0.345110 -165.916320
11.911291 -0.241449 -165.917686
11.831254 -0.123945 -165.921475
11.852169 -0.020285 -165.922841
11.772132 0.097220 -165.926630
11.793048 0.200880 -165.927997
11.713011 0.318384 -165.931786
11.733926 0.422044 -165.933152
11.653889 0.539549 -165.936941
11.674804 0.643209 -165.938307
11.594767 0.760714 -165.942096
11.514731 0.878218 -165.945885
11.535646 0.981878 -165.947251
11.455609 1.099383 -165.951040
11.476524 1.203043 -165.952406
11.497439 1.306703 -165.953772
11.417403 1.424208 -165.957561
11.438318 1.527868 -165.958927
11.358281 1.645372 -165.962717
11.278244 1.762877 -165.966506
11.299159 1.866537 -165.967872
11.219122 1.984041 -165.971661
11.240038 2.087701 -165.973027
11.260953 2.191362 -165.974393
11.281868 2.295022 -165.975759
11.201831 2.412526 -165.979548
10.919890 2.557719 -165.988183
10.940806 2.661380 -165.989549
10.961721 2.765040 -165.990915
10.881684 2.882544 -165.994705
10.902599 2.986204 -165.996071
10.923514 3.089865 -165.997437
10.944429 3.193525 -165.998803
10.965344 3.297185 -166.000169
10.885308 3.414689 -166.003958
10.906223 3.518350 -166.005324
10.826186 3.635854 -166.009113
10.746149 3.753358 -166.012902
10.666112 3.870863 -166.016691
10.687028 3.974523 -166.018057
10.707943 4.078183 -166.019423
10.728858 4.181843 -166.020789
10.648821 4.299348 -166.024578
10.669736 4.403008 -166.025944
10.589699 4.520513 -166.029734
10.509663 4.638017 -166.033523
10.429626 4.755522 -166.037312
10.349589 4.873026 -166.041101
10.269552 4.990531 -166.044890
10.189515 5.108035 -166.048679
10.210431 5.211695 -166.050045
10.130394 5.329200 -166.053834
10.050357 5.446704 -166.057624
9.768416 5.591897 -166.066259
9.688380 5.709402 -166.070048
9.507391 5.840751 -166.076260
9.326402 5.972099 -166.082473
12.952550 -7.474956 -165.790550
13.013182 -7.336239 -165.789493
13.073814 -7.197523 -165.788436
13.134446 -7.058807 -165.787379
13.289427 -6.881604 -165.783899
13.350060 -6.742888 -165.782842
13.316343 -6.642658 -165.784208
13.376975 -6.503941 -165.783151
13.531956 -6.326739 -165.779670
13.592588 -6.188022 -165.778613
13.653220 -6.049306 -165.777556
13.619503 -5.949076 -165.778922
13.585786 -5.848846 -165.780288
13.646418 -5.710130 -165.779231
13.612701 -5.609900 -165.780597
13.673333 -5.471184 -165.779540
13.733965 -5.332468 -165.778483
13.700248 -5.232238 -165.779849
13.666531 -5.132008 -165.781215
13.727164 -4.993291 -165.780158
13.693447 -4.893061 -165.781524
13.659730 -4.792832 -165.782890
13.626013 -4.692602 -165.784256
13.592296 -4.592372 -165.785622
13.464229 -4.530628 -165.789411
13.430512 -4.430398 -165.790777
13.396795 -4.330168 -165.792143
13.457428 -4.191452 -165.791086
13.423711 -4.091222 -165.792452
13.389994 -3.990992 -165.793818
13.356277 -3.890762 -165.795184
13.322560 -3.790532 -165.796550
13.288843 -3.690302 -165.797916
13.255126 -3.590072 -165.799282
13.221409 -3.489843 -165.800648
13.187692 -3.389613 -165.802014
13.153975 -3.289383 -165.803380
13.120258 -3.189153 -165.804746
13.086541 -3.088923 -165.806112
13.052824 -2.988693 -165.807478
13.019107 -2.888463 -165.808844
12.985390 -2.788233 -165.810210
12.951673 -2.688003 -165.811576
13.012305 -2.549287 -165.810519
12.978588 -2.449057 -165.811885
12.944871 -2.348827 -165.813251
12.911154 -2.248597 -165.814617
12.877437 -2.148367 -165.815983
12.843720 -2.048137 -165.817349
12.810003 -1.947907 -165.818715
12.776286 -1.847677 -165.820081
12.742569 -1.747447 -165.821447
12.803201 -1.608731 -165.820390
12.769484 -1.508501 -165.821756
12.735767 -1.408271 -165.823122
12.702050 -1.308041 -165.824488
12.668333 -1.207811 -165.825854
12.634616 -1.107582 -165.827220
12.600899 -1.007352 -165.828586
12.567182 -0.907122 -165.829952
12.533465 -0.806892 -165.831318
12.499748 -0.706662 -165.832684
12.466031 -0.606432 -165.834050
12.432314 -0.506202 -165.835416
12.398597 -0.405972 -165.836782
12.364880 -0.305742 -165.838148
12.331163 -0.205512 -165.839514
12.297446 -0.105282 -165.840880
12.263729 -0.005052 -165.842246
12.230012 0.095178 -165.843612
12.290644 0.233894 -165.842555
12.256927 0.334124 -165.843921
12.223210 0.434354 -165.845287
12.189493 0.534584 -165.846653
12.155776 0.634814 -165.848019
12.122059 0.735043 -165.849385
12.088342 0.835273 -165.850751
12.054625 0.935503 -165.852117
12.020908 1.035733 -165.853483
11.987191 1.135963 -165.854849
11.953474 1.236193 -165.856215
11.919757 1.336423 -165.857581
11.980389 1.475139 -165.856524
11.946672 1.575369 -165.857890
11.912955 1.675599 -165.859256
11.879238 1.775829 -165.860622
11.845521 1.876059 -165.861988
11.811804 1.976289 -165.863354
11.778087 2.076519 -165.864720
11.744370 2.176749 -165.866086
11.710653 2.276979 -165.867453
11.676936 2.377209 -165.868819
11.643219 2.477438 -165.870185
11.609502 2.577668 -165.871551
11.575785 2.677898 -165.872917
11.542068 2.778128 -165.874283
11.508351 2.878358 -165.875649
11.568983 3.017074 -165.874591
11.535266 3.117304 -165.875958
11.501549 3.217534 -165.877324
11.467832 3.317764 -165.878690
11.434115 3.417994 -165.880056
11.400398 3.518224 -165.881422
11.366681 3.618454 -165.882788
11.332964 3.718684 -165.884154
11.299247 3.818914 -165.885520
11.359879 3.957630 -165.884463
11.326162 4.057860 -165.885829
11.292445 4.158090 -165.887195
11.258728 4.258320 -165.888561
11.225011 4.358550 -165.889927
11.191294 4.458780 -165.891293
11.157577 4.559010 -165.892659
11.123860 4.659240 -165.894025
11.090143 4.759470 -165.895391
11.056426 4.859699 -165.896757
11.022709 4.959929 -165.898123
10.988992 5.060159 -165.899489
10.955275 5.160389 -165.900855
10.921558 5.260619 -165.902221
10.793492 5.322363 -165.906010
10.759775 5.422593 -165.907376
10.631709 5.484336 -165.911165
10.597992 5.584566 -165.912531
10.564275 5.684796 -165.913897
10.530558 5.785026 -165.915263
10.402492 5.846769 -165.919052
10.368775 5.946999 -165.920418
10.335058 6.047229 -165.921784
10.206992 6.108973 -165.925573
10.173275 6.209203 -165.926939
10.045209 6.270946 -165.930729
10.011492 6.371176 -165.932095
9.883426 6.432920 -165.935884
9.755360 6.494663 -165.939673
9.532944 6.517921 -165.945885
9.404878 6.579664 -165.949674
9.182463 6.602921 -165.955886
9.054397 6.664665 -165.959676
8.926331 6.726408 -165.963465
8.892614 6.826638 -165.964831
8.764548 6.888382 -165.968620
8.636482 6.950125 -165.972409
8.602765 7.050355 -165.973775
8.474698 7.112099 -165.977564
8.440981 7.212329 -165.978930
8.312915 7.274072 -165.982719
8.279198 7.374302 -165.984085
8.151132 7.436046 -165.987875
8.117415 7.536276 -165.989241
7.989349 7.598019 -165.993030
7.955632 7.698249 -165.994396
7.827566 7.759993 -165.998185
7.699500 7.821736 -166.001974
7.665783 7.921966 -166.003340
7.537717 7.983710 -166.007129
7.409651 8.045453 -166.010918
7.281585 8.107197 -166.014707
13.821300 -4.556895 -165.865310
13.991847 -4.164932 -165.856984
13.974998 -4.014484 -165.855927
13.958149 -3.864036 -165.854870
13.878834 -3.794093 -165.856236
13.799519 -3.724150 -165.857602
13.720204 -3.654207 -165.858968
13.703355 -3.503759 -165.857910
13.624040 -3.433816 -165.859276
13.544725 -3.363873 -165.860642
13.465411 -3.293930 -165.862009
13.386096 -3.223986 -165.863375
13.369247 -3.073538 -165.862317
13.352397 -2.923091 -165.861260
13.335548 -2.772643 -165.860203
13.256233 -2.702699 -165.861569
13.239384 -2.552251 -165.860512
13.222535 -2.401804 -165.859455
13.143220 -2.331860 -165.860821
13.126371 -2.181412 -165.859764
13.109521 -2.030964 -165.858707
13.092672 -1.880517 -165.857650
13.075823 -1.730069 -165.856593
13.058974 -1.579621 -165.855535
13.042124 -1.429173 -165.854478
13.025275 -1.278725 -165.853421
12.945960 -1.208782 -165.854787
12.929111 -1.058334 -165.853730
12.849796 -0.988390 -165.855096
12.770482 -0.918447 -165.856462
12.753632 -0.767999 -165.855405
12.674318 -0.698056 -165.856771
12.657468 -0.547608 -165.855714
12.640619 -0.397160 -165.854657
12.623770 -0.246712 -165.853600
12.606921 -0.096264 -165.852543
12.590071 0.054183 -165.851486
12.573222 0.204631 -165.850428
12.493907 0.274575 -165.851794
12.477058 0.425023 -165.850737
12.460209 0.575470 -165.849680
12.443359 0.725918 -165.848623
12.364045 0.795862 -165.849989
12.347195 0.946310 -165.848932
12.267881 1.016253 -165.850298
12.188566 1.086196 -165.851664
12.109251 1.156139 -165.853030
12.092402 1.306587 -165.851973
12.013087 1.376530 -165.853339
11.996238 1.526978 -165.852282
12.041854 1.757931 -165.848802
12.025005 1.908379 -165.847745
12.008155 2.058827 -165.846687
11.928841 2.128770 -165.848053
11.849526 2.198713 -165.849419
11.832677 2.349161 -165.848362
11.753362 2.419104 -165.849728
11.798978 2.650057 -165.846248
11.719663 2.720000 -165.847614
11.702814 2.870448 -165.846557
11.685965 3.020896 -165.845500
11.669116 3.171344 -165.844443
11.589801 3.241287 -165.845809
11.572952 3.391735 -165.844752
11.493637 3.461678 -165.846118
11.476788 3.612126 -165.845061
11.397473 3.682069 -165.846427
11.318158 3.752012 -165.847793
11.176378 3.741451 -165.851582
11.034597 3.730889 -165.855371
10.955282 3.800832 -165.856737
11.250761 4.353804 -165.843564
11.233912 4.504252 -165.842507
11.217062 4.654700 -165.841450
11.137748 4.724643 -165.842816
11.120898 4.875091 -165.841759
11.041584 4.945034 -165.843125
10.962269 5.014977 -165.844491
10.945420 5.165425 -165.843434
10.866105 5.235369 -165.844800
10.849255 5.385817 -165.843743
10.769941 5.455760 -165.845109
10.753091 5.606208 -165.844052
10.673777 5.676151 -165.845418
10.656927 5.826599 -165.844361
10.577613 5.896542 -165.845727
10.560763 6.046990 -165.844670
10.481449 6.116933 -165.846036
10.402134 6.186876 -165.847402
10.385284 6.337324 -165.846344
10.305970 6.407267 -165.847710
10.226655 6.477210 -165.849076
10.147340 6.547154 -165.850442
10.068025 6.617097 -165.851809
10.051176 6.767545 -165.850751
9.971861 6.837488 -165.852117
9.892546 6.907431 -165.853483
9.813232 6.977374 -165.854849
9.733917 7.047317 -165.856215
9.717068 7.197765 -165.855158
9.637753 7.267708 -165.856524
9.558438 7.337652 -165.857890
9.479123 7.407595 -165.859256
9.399808 7.477538 -165.860622
9.320494 7.547481 -165.861988
9.241179 7.617424 -165.863354
9.099399 7.606863 -165.867144
9.020084 7.676806 -165.868510
8.940769 7.746749 -165.869876
8.861454 7.816692 -165.871242
8.782139 7.886635 -165.872608
8.640359 7.876074 -165.876397
8.561044 7.946017 -165.877763
8.481729 8.015960 -165.879129
8.402415 8.085903 -165.880495
8.323100 8.155846 -165.881861
8.243785 8.225789 -165.883227
8.164470 8.295733 -165.884593
8.085156 8.365676 -165.885959
7.943375 8.355114 -165.889748
7.864060 8.425057 -165.891114
7.784746 8.495000 -165.892480
7.705431 8.564944 -165.893846
7.563651 8.554382 -165.897635
7.484336 8.624325 -165.899001
7.342555 8.613763 -165.902790
7.263241 8.683707 -165.904156
7.121460 8.673145 -165.907946
7.042145 8.743088 -165.909312
6.900365 8.732527 -165.913101
6.821050 8.802470 -165.914467
6.679270 8.791908 -165.918256
6.537490 8.781346 -165.922045
6.458175 8.851290 -165.923411
6.316395 8.840728 -165.927200
6.237080 8.910671 -165.928566
6.095299 8.900110 -165.932355
6.015985 8.970053 -165.933721
5.874204 8.959491 -165.937510
5.732424 8.948929 -165.941300
5.528178 8.857863 -165.947512
5.386398 8.847301 -165.951301
5.244617 8.836740 -165.955090
4.977906 8.665169 -165.963726
4.898591 8.735112 -165.965092
4.756811 8.724550 -165.968881
4.615031 8.713988 -165.972670
4.535716 8.783932 -165.974036
4.331470 8.692865 -165.980248
3.877362 8.279780 -165.996153
3.735582 8.269218 -165.999942
3.656267 8.339161 -166.001308
3.576952 8.409104 -166.002674
3.435172 8.398543 -166.006463
10.316390 6.143679 -165.865585
10.254263 6.467449 -165.859682
10.164447 6.589317 -165.858625
10.088475 6.812135 -165.855144
9.998660 6.934003 -165.854087
9.908844 7.055870 -165.853030
9.819028 7.177737 -165.851973
9.729212 7.299604 -165.850916
9.625552 7.320519 -165.852282
9.535736 7.442386 -165.851225
9.445920 7.564253 -165.850168
9.342260 7.585168 -165.851534
9.252444 7.707035 -165.850477
9.162628 7.828902 -165.849419
9.072813 7.950769 -165.848362
8.969152 7.971684 -165.849728
8.879337 8.093551 -165.848671
8.789521 8.215418 -165.847614
8.699705 8.337285 -165.846557
8.609889 8.459152 -165.845500
8.506229 8.480068 -165.846866
8.416413 8.601935 -165.845809
8.312753 8.622850 -165.847175
8.222937 8.744717 -165.846118
8.119277 8.765632 -165.847484
8.015617 8.786547 -165.848850
7.925801 8.908414 -165.847793
7.822141 8.929329 -165.849159
7.718481 8.950244 -165.850525
7.614821 8.971159 -165.851891
7.511160 8.992075 -165.853257
7.407500 9.012990 -165.854623
7.303840 9.033905 -165.855989
7.200180 9.054820 -165.857355
7.110364 9.176687 -165.856298
7.006704 9.197602 -165.857664
6.903044 9.218517 -165.859030
6.799384 9.239432 -165.860396
6.695723 9.260348 -165.861762
6.592063 9.281263 -165.863128
6.488403 9.302178 -165.864494
6.384743 9.323093 -165.865860
6.281083 9.344008 -165.867226
6.177423 9.364923 -165.868592
6.073762 9.385838 -165.869958
5.956258 9.305802 -165.873747
5.852598 9.326717 -165.875113
5.748938 9.347632 -165.876479
5.645277 9.368547 -165.877845
5.541617 9.389462 -165.879211
5.437957 9.410377 -165.880577
5.334297 9.431292 -165.881943
5.230637 9.452208 -165.883309
5.126977 9.473123 -165.884675
5.023317 9.494038 -165.886041
4.905812 9.414001 -165.889830
4.802152 9.434916 -165.891196
4.698492 9.455831 -165.892562
4.594832 9.476746 -165.893928
4.491171 9.497662 -165.895294
4.373667 9.417625 -165.899084
4.270007 9.438540 -165.900450
4.166347 9.459455 -165.901816
4.062686 9.480370 -165.903182
3.945182 9.400333 -165.906971
3.841522 9.421248 -165.908337
3.737862 9.442164 -165.909703
3.620357 9.362127 -165.913492
3.516697 9.383042 -165.914858
3.413037 9.403957 -165.916224
3.295532 9.323920 -165.920013
3.178028 9.243884 -165.923802
3.060523 9.163847 -165.927591
2.956863 9.184762 -165.928957
2.839359 9.104725 -165.932746
2.708010 8.923736 -165.938959
2.590505 8.843700 -165.942748
2.459157 8.662711 -165.948960
2.327808 8.481722 -165.955172
2.210303 8.401685 -165.958962
2.106643 8.422601 -165.960328
1.989139 8.342564 -165.964117
1.885479 8.363479 -165.965483
1.767974 8.283442 -165.969272
1.664314 8.304357 -165.970638
1.532965 8.123369 -165.976850
1.415461 8.043332 -165.980639
1.297956 7.963295 -165.984428
1.180452 7.883258 -165.988218
1.076791 7.904173 -165.989584
0.959287 7.824137 -165.993373
0.855627 7.845052 -165.994739
0.738122 7.765015 -165.998528
0.592929 7.483074 -166.007163
0.475425 7.403038 -166.010952
0.357920 7.323001 -166.014742
6.902381 9.326472 -165.892679
6.763665 9.387104 -165.891622
6.624948 9.447737 -165.890564
6.524718 9.414020 -165.891930
6.386002 9.474652 -165.890873
6.247286 9.535284 -165.889816
6.108570 9.595916 -165.888759
5.969853 9.656548 -165.887702
5.869623 9.622831 -165.889068
5.730907 9.683463 -165.888011
5.592191 9.744095 -165.886954
5.453474 9.804727 -165.885897
5.314758 9.865359 -165.884840
5.214528 9.831642 -165.886206
5.075812 9.892275 -165.885149
4.975582 9.858558 -165.886515
4.875352 9.824841 -165.887881
4.775122 9.791124 -165.889247
4.636406 9.851756 -165.888189
4.536176 9.818039 -165.889555
4.435946 9.784322 -165.890922
4.335716 9.750605 -165.892288
4.235486 9.716888 -165.893654
4.135256 9.683171 -165.895020
4.035026 9.649454 -165.896386
3.934796 9.615737 -165.897752
3.834566 9.582020 -165.899118
3.734337 9.548303 -165.900484
3.634107 9.514586 -165.901850
3.533877 9.480869 -165.903216
3.433647 9.447152 -165.904582
3.333417 9.413435 -165.905948
3.233187 9.379718 -165.907314
3.132957 9.346001 -165.908680
2.994241 9.406633 -165.907623
2.894011 9.372916 -165.908989
2.793781 9.339199 -165.910355
2.693551 9.305482 -165.911721
2.593321 9.271765 -165.913087
2.493091 9.238048 -165.914453
2.392861 9.204331 -165.915819
2.292631 9.170614 -165.917185
2.192401 9.136897 -165.918551
2.092171 9.103180 -165.919917
1.991941 9.069463 -165.921283
1.891712 9.035746 -165.922649
1.791482 9.002029 -165.924015
1.729738 8.873963 -165.927804
1.629508 8.840246 -165.929170
1.529278 8.806529 -165.930536
1.429048 8.772812 -165.931902
1.328818 8.739095 -165.933268
1.228588 8.705378 -165.934634
1.128359 8.671661 -165.936000
1.028129 8.637944 -165.937366
0.927899 8.604227 -165.938732
0.827669 8.570510 -165.940098
0.727439 8.536793 -165.941464
0.627209 8.503076 -165.942830
0.526979 8.469359 -165.944196
0.426749 8.435642 -165.945562
0.326519 8.401925 -165.946928
0.264776 8.273859 -165.950717
0.164546 8.240142 -165.952083
0.064316 8.206425 -165.953449
-0.035914 8.172708 -165.954815
-0.136144 8.138991 -165.956181
-0.197888 8.010924 -165.959971
-0.298118 7.977207 -165.961337
-0.398347 7.943490 -165.962703
-0.498577 7.909773 -165.964069
-0.560321 7.781707 -165.967858
-0.622064 7.653641 -165.971647
-0.683808 7.525575 -165.975436
-0.784038 7.491858 -165.976802
-0.845782 7.363792 -165.980591
-0.946011 7.330075 -165.981957
-1.046241 7.296358 -165.983323
-1.107985 7.168292 -165.987112
-1.208215 7.134575 -165.988478
-1.308445 7.100858 -165.989844
-1.370188 6.972792 -165.993633
-1.470418 6.939075 -165.994999
-1.532162 6.811009 -165.998789
0.440815 8.999940 -165.949694
0.370872 8.920625 -165.951060
0.220424 8.903776 -165.950003
0.069976 8.886927 -165.948946
0.000033 8.807612 -165.950312
-0.150415 8.790763 -165.949255
-0.220358 8.711448 -165.950621
-0.290301 8.632133 -165.951987
-0.360244 8.552819 -165.953353
-0.430187 8.473504 -165.954719
-0.580635 8.456655 -165.953662
-0.650578 8.377340 -165.955028
-0.720521 8.298026 -165.956394
-0.790464 8.218711 -165.957760
-0.940912 8.201862 -165.956703
-1.010855 8.122547 -165.958069
-1.080799 8.043232 -165.959435
-1.150742 7.963918 -165.960801
-1.220685 7.884603 -165.962167
-1.290628 7.805288 -165.963533
-1.360571 7.725974 -165.964899
-1.430514 7.646659 -165.966265
-1.500458 7.567344 -165.967631
-1.570401 7.488029 -165.968997
-1.640344 7.408715 -165.970363
-1.710287 7.329400 -165.971729
-1.780230 7.250085 -165.973095
-1.850173 7.170771 -165.974461
-1.920117 7.091456 -165.975827
-1.990060 7.012141 -165.977193
-2.140507 6.995292 -165.976136
-2.210451 6.915978 -165.977502
-2.280394 6.836663 -165.978868
-2.350337 6.757348 -165.980234
-2.420280 6.678033 -165.981600
-2.490223 6.598719 -165.982966
-2.560166 6.519404 -165.984332
-2.630110 6.440089 -165.985698
-2.700053 6.360775 -165.987064
-2.769996 6.281460 -165.988430
-2.839939 6.202145 -165.989796
-2.829378 6.060365 -165.993585
-2.899321 5.981050 -165.994951
-2.969264 5.901736 -165.996317
-3.039207 5.822421 -165.997683
-3.109150 5.743106 -165.999049
-3.179093 5.663792 -166.000415
-3.249036 5.584477 -166.001781
-3.318980 5.505162 -166.003147
-3.388923 5.425848 -166.004513
-3.458866 5.346533 -166.005879
-3.528809 5.267218 -166.007245
-3.598752 5.187904 -166.008612
-3.668695 5.108589 -166.009978
-3.738639 5.029274 -166.011344
-3.728077 4.887494 -166.015133
-3.798020 4.808179 -166.016499
-3.867963 4.728865 -166.017865
-3.857402 4.587084 -166.021654
-3.927345 4.507770 -166.023020
-3.675269 4.178593 -166.034078
-3.728908 5.830625 -165.996400
-3.749823 5.726965 -165.997766
-3.770738 5.623305 -165.999132
-3.791653 5.519645 -166.000498
-3.913520 5.429829 -165.999441
-3.934435 5.326169 -166.000807
-3.955350 5.222509 -166.002173
-3.976265 5.118848 -166.003539
-3.997180 5.015188 -166.004905
-4.018096 4.911528 -166.006271
-4.039011 4.807868 -166.007637
-4.059926 4.704208 -166.009003
-4.080841 4.600548 -166.010369
-4.101756 4.496888 -166.011735
-4.122671 4.393227 -166.013101
-4.244538 4.303412 -166.012044
-4.265453 4.199751 -166.013410
-4.286369 4.096091 -166.014776
-4.307284 3.992431 -166.016142
-4.328199 3.888771 -166.017508
-4.349114 3.785111 -166.018874
-4.370029 3.681451 -166.020240
-4.390944 3.577790 -166.021606
-4.411859 3.474130 -166.022972
-4.432774 3.370470 -166.024338
-4.453690 3.266810 -166.025704
-4.474605 3.163150 -166.027070
-4.495520 3.059490 -166.028436
-4.516435 2.955829 -166.029802
-4.537350 2.852169 -166.031168
-4.558265 2.748509 -166.032534
-4.579180 2.644849 -166.033900
-4.600096 2.541189 -166.035266
-4.621011 2.437529 -166.036632
-4.641926 2.333868 -166.037998
-4.763793 2.244053 -166.036941
-4.784708 2.140393 -166.038307
-4.805623 2.036732 -166.039673
-4.826538 1.933072 -166.041039
-4.746501 1.815568 -166.044828
-4.767417 1.711908 -166.046194
-4.788332 1.608247 -166.047560
-4.910199 1.518432 -166.046503
-4.931114 1.414771 -166.047869
-4.952029 1.311111 -166.049235
-4.972944 1.207451 -166.050601
-4.993859 1.103791 -166.051967
-5.014774 1.000131 -166.053333
-5.035690 0.896471 -166.054699
-5.056605 0.792810 -166.056065
-5.077520 0.689150 -166.057431
-5.098435 0.585490 -166.058797
-5.119350 0.481830 -166.060163
-5.140265 0.378170 -166.061529
-5.161180 0.274510 -166.062895
-5.182095 0.170849 -166.064261
-5.203011 0.067189 -166.065627
-5.223926 -0.036471 -166.066993
-5.143889 -0.153975 -166.070782
-5.164804 -0.257635 -166.072148
-5.185719 -0.361296 -166.073514
-5.206634 -0.464956 -166.074880
-5.227549 -0.568616 -166.076246
-5.248465 -0.672276 -166.077612
-5.269380 -0.775936 -166.078978
-5.290295 -0.879596 -166.080344
-5.311210 -0.983257 -166.081710
-5.332125 -1.086917 -166.083076
-5.353040 -1.190577 -166.084442
-5.373955 -1.294237 -166.085808
-5.293919 -1.411742 -166.089598
-5.314834 -1.515402 -166.090964
-5.335749 -1.619062 -166.092330
-5.356664 -1.722722 -166.093696
-5.377579 -1.826382 -166.095062
-5.297542 -1.943887 -166.098851
-5.318457 -2.047547 -166.100217
-5.339373 -2.151207 -166.101583
-5.360288 -2.254867 -166.102949
-5.280251 -2.372372 -166.106738
-5.301166 -2.476032 -166.108104
-5.322081 -2.579692 -166.109470
-5.242044 -2.697196 -166.113259
-5.941753 -0.607662 -166.018613
-6.002386 -0.746378 -166.017556
-5.968669 -0.846608 -166.018922
-6.029301 -0.985325 -166.017865
-5.995584 -1.085554 -166.019231
-5.961867 -1.185784 -166.020597
-5.928150 -1.286014 -166.021963
-5.988782 -1.424731 -166.020906
-5.955065 -1.524961 -166.022272
-5.921348 -1.625190 -166.023638
-5.887631 -1.725420 -166.025004
-5.853914 -1.825650 -166.026370
-5.820197 -1.925880 -166.027736
-5.786480 -2.026110 -166.029102
-5.752763 -2.126340 -166.030468
-5.719046 -2.226570 -166.031834
-5.685329 -2.326800 -166.033200
-5.651612 -2.427030 -166.034566
-5.617895 -2.527260 -166.035932
-5.584178 -2.627490 -166.037298
-5.550461 -2.727720 -166.038664
-5.516744 -2.827950 -166.040030
-5.483027 -2.928179 -166.041396
-5.449310 -3.028409 -166.042762
-5.415593 -3.128639 -166.044128
-5.381876 -3.228869 -166.045494
-5.348159 -3.329099 -166.046860
-5.314442 -3.429329 -166.048226
-5.280725 -3.529559 -166.049592
-5.247008 -3.629789 -166.050958
-5.213291 -3.730019 -166.052324
-5.179574 -3.830249 -166.053690
-5.051508 -3.891992 -166.057479
-5.112140 -4.030709 -166.056422
-5.078423 -4.130939 -166.057788
-5.044706 -4.231168 -166.059154
-5.010989 -4.331398 -166.060520
-4.882923 -4.393142 -166.064309
-4.849206 -4.493372 -166.065675
-4.815489 -4.593602 -166.067041
-4.781772 -4.693832 -166.068407
-4.653706 -4.755575 -166.072196
-4.525639 -4.817319 -166.075986
-4.491922 -4.917549 -166.077352
-4.363856 -4.979292 -166.081141
-4.330139 -5.079522 -166.082507
-4.296422 -5.179752 -166.083873
-4.262705 -5.279982 -166.085239
-4.134639 -5.341726 -166.089028
-4.100922 -5.441955 -166.090394
-3.972856 -5.503699 -166.094183
-3.844790 -5.565443 -166.097972
-3.811073 -5.665672 -166.099338
-3.683007 -5.727416 -166.103127
-3.554941 -5.789160 -166.106917
-3.426875 -5.850903 -166.110706
-3.393158 -5.951133 -166.112072
-3.265092 -6.012877 -166.115861
-3.231375 -6.113107 -166.117227
-3.197658 -6.213336 -166.118593
-3.069591 -6.275080 -166.122382
-3.035874 -6.375310 -166.123748
-5.692559 -3.560494 -165.995878
-5.675710 -3.710942 -165.994821
-5.658861 -3.861389 -165.993764
-5.579546 -3.931333 -165.995130
-5.500231 -4.001276 -165.996496
-5.483382 -4.151724 -165.995439
-5.404067 -4.221667 -165.996805
-5.324753 -4.291610 -165.998171
-5.307904 -4.442058 -165.997114
-5.228589 -4.512001 -165.998480
-5.149274 -4.581944 -165.999846
-5.132425 -4.732392 -165.998789
-5.053110 -4.802335 -166.000155
-4.973796 -4.872278 -166.001521
-4.894481 -4.942221 -166.002887
-4.877632 -5.092669 -166.001830
-4.798317 -5.162612 -166.003196
-4.719003 -5.232555 -166.004562
-4.639688 -5.302499 -166.005928
-4.560373 -5.372442 -166.007294
-4.481059 -5.442385 -166.008660
-4.401744 -5.512328 -166.010026
-4.322429 -5.582271 -166.011392
-4.305580 -5.732719 -166.010335
-4.226265 -5.802662 -166.011701
-4.146951 -5.872605 -166.013067
-4.067636 -5.942549 -166.014433
-3.988321 -6.012492 -166.015799
-3.971472 -6.162940 -166.014742
-3.892157 -6.232883 -166.016108
-3.875308 -6.383331 -166.015050
-3.795994 -6.453274 -166.016416
-3.716679 -6.523217 -166.017782
-3.699830 -6.673665 -166.016725
-3.620515 -6.743608 -166.018091
-3.541200 -6.813551 -166.019457
-3.461886 -6.883494 -166.020823
-3.382571 -6.953437 -166.022189
-3.303256 -7.023380 -166.023555
-3.286407 -7.173828 -166.022498
-3.207092 -7.243771 -166.023864
-3.127778 -7.313715 -166.025230
-3.048463 -7.383658 -166.026596
-3.031614 -7.534106 -166.025539
-2.952299 -7.604049 -166.026905
-2.872985 -7.673992 -166.028271
-2.793670 -7.743935 -166.029637
-2.714355 -7.813878 -166.031003
-2.635041 -7.883821 -166.032369
-2.618191 -8.034269 -166.031312
-2.538877 -8.104212 -166.032678
-2.459562 -8.174156 -166.034044
-2.380247 -8.244099 -166.035410
-2.300933 -8.314042 -166.036776
-2.221618 -8.383985 -166.038142
-2.142303 -8.453928 -166.039508
-2.062989 -8.523871 -166.040874
-1.983674 -8.593815 -166.042240
-1.904359 -8.663758 -166.043606
-1.825045 -8.733701 -166.044972
-1.745730 -8.803644 -166.046338
-1.666415 -8.873587 -166.047704
-1.587100 -8.943530 -166.049070
-1.507786 -9.013473 -166.050436
-1.428471 -9.083417 -166.051802
-1.349156 -9.153360 -166.053169
-1.269842 -9.223303 -166.054535
-1.190527 -9.293246 -166.055901
-1.111212 -9.363189 -166.057267
-1.031898 -9.433132 -166.058633
-0.952583 -9.503076 -166.059999
-0.873268 -9.573019 -166.061365
-0.793954 -9.642962 -166.062731
-0.714639 -9.712905 -166.064097
-0.635324 -9.782848 -166.065463
-0.556010 -9.852791 -166.066829
-0.476695 -9.922735 -166.068195
-0.397380 -9.992678 -166.069561
-0.318066 -10.062621 -166.070927
-0.238751 -10.132564 -166.072293
-0.159436 -10.202507 -166.073659
-0.080121 -10.272450 -166.075025
-0.000807 -10.342393 -166.076391
0.078508 -10.412337 -166.077757
0.157823 -10.482280 -166.079123
0.299603 -10.471718 -166.082912
0.378918 -10.541661 -166.084278
0.458232 -10.611605 -166.085644
0.537547 -10.681548 -166.087010
0.616862 -10.751491 -166.088376
0.696176 -10.821434 -166.089742
0.775491 -10.891377 -166.091108
0.854806 -10.961320 -166.092474
0.934120 -11.031264 -166.093840
1.075901 -11.020702 -166.097629
1.155215 -11.090645 -166.098995
1.234530 -11.160588 -166.100361
1.376310 -11.150027 -166.104150
1.455625 -11.219970 -166.105516
1.534940 -11.289913 -166.106882
1.676720 -11.279352 -166.110672
1.756034 -11.349295 -166.112038
1.835349 -11.419238 -166.113404
1.914664 -11.489181 -166.114770
2.056444 -11.478619 -166.118559
2.135759 -11.548563 -166.119925
2.277539 -11.538001 -166.123714
2.794112 -11.044412 -166.142042
2.873427 -11.114355 -166.143408
3.015207 -11.103793 -166.147197
3.094522 -11.173736 -166.148563
3.236302 -11.163175 -166.152352
3.315617 -11.233118 -166.153718
3.519863 -11.142052 -166.159930
-1.360428 -9.195633 -165.956717
-1.270612 -9.317500 -165.955660
-1.180796 -9.439367 -165.954603
-1.077136 -9.460282 -165.955969
-0.973476 -9.481197 -165.957335
-0.869816 -9.502113 -165.958701
-0.766156 -9.523028 -165.960067
-0.676340 -9.644895 -165.959010
-0.572680 -9.665810 -165.960376
-0.482864 -9.787677 -165.959319
-0.393048 -9.909544 -165.958261
-0.330921 -10.233315 -165.952358
-0.241105 -10.355182 -165.951301
-0.151289 -10.477049 -165.950244
-0.047629 -10.497964 -165.951610
0.056031 -10.518879 -165.952976
0.145847 -10.640746 -165.951919
0.249507 -10.661661 -165.953285
0.339323 -10.783528 -165.952228
0.442983 -10.804444 -165.953594
0.546643 -10.825359 -165.954960
0.636459 -10.947226 -165.953903
0.740119 -10.968141 -165.955269
0.843780 -10.989056 -165.956635
0.933595 -11.110923 -165.955578
1.023411 -11.232790 -165.954520
1.127071 -11.253705 -165.955886
1.230732 -11.274620 -165.957253
1.334392 -11.295535 -165.958619
1.438052 -11.316451 -165.959985
1.541712 -11.337366 -165.961351
1.631528 -11.459233 -165.960293
1.735188 -11.480148 -165.961659
1.838848 -11.501063 -165.963025
1.942508 -11.521978 -165.964392
2.046168 -11.542893 -165.965758
2.149829 -11.563808 -165.967124
2.239644 -11.685675 -165.966066
2.343305 -11.706591 -165.967432
2.446965 -11.727506 -165.968798
2.550625 -11.748421 -165.970164
2.654285 -11.769336 -165.971530
2.757945 -11.790251 -165.972897
2.861605 -11.811166 -165.974263
2.965266 -11.832081 -165.975629
3.068926 -11.852997 -165.976995
3.172586 -11.873912 -165.978361
3.276246 -11.894827 -165.979727
3.379906 -11.915742 -165.981093
3.483566 -11.936657 -165.982459
3.601071 -11.856620 -165.986248
3.704731 -11.877535 -165.987614
3.808391 -11.898451 -165.988980
3.912051 -11.919366 -165.990346
4.015712 -11.940281 -165.991712
4.133216 -11.860244 -165.995501
4.236876 -11.881159 -165.996867
4.340536 -11.902074 -165.998233
4.458041 -11.822037 -166.002022
4.603234 -11.540097 -166.010658
4.720738 -11.460060 -166.014447
4.838243 -11.380023 -166.018236
4.941903 -11.400938 -166.019602
5.059408 -11.320902 -166.023391
5.163068 -11.341817 -166.024757
5.280572 -11.261780 -166.028546
5.398077 -11.181743 -166.032335
5.529426 -11.000755 -166.038548
5.633086 -11.021670 -166.039914
5.750590 -10.941633 -166.043703
5.868095 -10.861596 -166.047492
5.985599 -10.781559 -166.051281
6.103104 -10.701523 -166.055070
6.220608 -10.621486 -166.058859
6.338113 -10.541449 -166.062648
6.455617 -10.461412 -166.066438
6.559277 -10.482327 -166.067804
6.662937 -10.503242 -166.069170
6.780442 -10.423206 -166.072959
6.897946 -10.343169 -166.076748
7.015451 -10.263132 -166.080537
7.132955 -10.183095 -166.084326
7.236616 -10.204010 -166.085692
7.354120 -10.123974 -166.089481
7.471624 -10.043937 -166.093270
7.589129 -9.963900 -166.097060
7.706633 -9.883863 -166.100849
7.824138 -9.803827 -166.104638
7.927798 -9.824742 -166.106004
8.100680 -9.340897 -166.119485
8.204340 -9.361812 -166.120851
8.308000 -9.382728 -166.122218
8.411660 -9.403643 -166.123584
8.515321 -9.424558 -166.124950
8.632825 -9.344521 -166.128739
8.736485 -9.365436 -166.130105
8.840145 -9.386351 -166.131471
8.943805 -9.407266 -166.132837
9.061310 -9.327230 -166.136626
9.178814 -9.247193 -166.140415
9.282475 -9.268108 -166.141781
9.399979 -9.188071 -166.145570
9.517484 -9.108034 -166.149359
9.634988 -9.027998 -166.153148
9.752493 -8.947961 -166.156938
-0.643265 -9.581435 -165.913135
-0.504549 -9.642067 -165.912078
-0.365832 -9.702699 -165.911021
-0.073170 -10.140728 -165.900271
0.065546 -10.201360 -165.899214
0.242749 -10.356341 -165.895734
0.419951 -10.511322 -165.892253
0.558667 -10.571954 -165.891196
0.735870 -10.726935 -165.887716
0.874586 -10.787568 -165.886659
1.051789 -10.942549 -165.883179
1.190505 -11.003181 -165.882122
1.329222 -11.063813 -165.881065
1.467938 -11.124445 -165.880007
1.606654 -11.185077 -165.878950
1.783857 -11.340059 -165.875470
1.922573 -11.400691 -165.874413
2.061290 -11.461323 -165.873356
2.161520 -11.427606 -165.874722
2.300236 -11.488238 -165.873665
2.400466 -11.454521 -165.875031
2.539182 -11.515153 -165.873974
2.677898 -11.575785 -165.872917
2.816615 -11.636417 -165.871859
2.955331 -11.697049 -165.870802
3.055561 -11.663332 -165.872168
3.194277 -11.723964 -165.871111
3.332993 -11.784597 -165.870054
3.471710 -11.845229 -165.868997
3.610426 -11.905861 -165.867940
3.710656 -11.872144 -165.869306
3.849372 -11.932776 -165.868249
3.949602 -11.899059 -165.869615
4.049832 -11.865342 -165.870981
4.188548 -11.925974 -165.869924
4.288778 -11.892257 -165.871290
4.389008 -11.858540 -165.872656
4.489238 -11.824823 -165.874022
4.627954 -11.885455 -165.872965
4.728184 -11.851738 -165.874331
4.828414 -11.818021 -165.875697
4.928644 -11.784304 -165.877063
5.028874 -11.750587 -165.878429
5.129104 -11.716870 -165.879795
5.229334 -11.683153 -165.881161
5.329564 -11.649436 -165.882527
5.429794 -11.615719 -165.883893
5.530024 -11.582002 -165.885259
5.591767 -11.453936 -165.889048
5.691997 -11.420219 -165.890414
5.792227 -11.386502 -165.891780
5.853971 -11.258436 -165.895569
5.954201 -11.224719 -165.896935
6.054431 -11.191002 -165.898301
6.116174 -11.062936 -165.902090
6.216404 -11.029219 -165.903456
6.316634 -10.995502 -165.904822
6.416864 -10.961785 -165.906188
6.517094 -10.928068 -165.907554
6.617324 -10.894351 -165.908920
6.717554 -10.860634 -165.910286
6.817784 -10.826917 -165.911652
6.918013 -10.793200 -165.913018
7.018243 -10.759483 -165.914384
7.118473 -10.725766 -165.915751
7.180217 -10.597700 -165.919540
7.280447 -10.563983 -165.920906
7.380677 -10.530266 -165.922272
7.480907 -10.496549 -165.923638
7.581137 -10.462832 -165.925004
7.681367 -10.429115 -165.926370
7.743110 -10.301049 -165.930159
7.843340 -10.267332 -165.931525
7.943570 -10.233615 -165.932891
8.043800 -10.199898 -165.934257
8.144030 -10.166181 -165.935623
8.244260 -10.132464 -165.936989
8.344490 -10.098747 -165.938355
8.406233 -9.970680 -165.942144
8.506463 -9.936963 -165.943510
8.606693 -9.903246 -165.944876
8.706923 -9.869529 -165.946242
8.807153 -9.835812 -165.947608
8.868896 -9.707746 -165.951397
8.969126 -9.674029 -165.952763
9.069356 -9.640312 -165.954129
9.169586 -9.606595 -165.955495
9.269816 -9.572878 -165.956861
9.370046 -9.539161 -165.958227
9.470276 -9.505444 -165.959593
9.570506 -9.471727 -165.960959
9.670736 -9.438010 -165.962325
9.770966 -9.404293 -165.963691
9.871196 -9.370576 -165.965057
9.971426 -9.336859 -165.966423
10.071655 -9.303142 -165.967789
10.171885 -9.269425 -165.969156
10.272115 -9.235708 -165.970522
10.372345 -9.201991 -165.971888
10.472575 -9.168274 -165.973254
10.572805 -9.134557 -165.974620
10.673035 -9.100840 -165.975986
10.773265 -9.067123 -165.977352
10.873495 -9.033406 -165.978718
10.973725 -8.999689 -165.980084
11.035468 -8.871623 -165.983873
11.135698 -8.837906 -165.985239
11.197442 -8.709840 -165.989028
11.297672 -8.676123 -165.990394
11.359415 -8.548057 -165.994183
11.459645 -8.514340 -165.995549
11.559875 -8.480623 -165.996915
11.660105 -8.446906 -165.998281
11.760335 -8.413189 -165.999647
11.629647 -7.813377 -166.015552
11.691390 -7.685311 -166.019341
11.753134 -7.557245 -166.023130
11.853364 -7.523528 -166.024496
11.915107 -7.395462 -166.028285
11.976851 -7.267396 -166.032074
12.038594 -7.139330 -166.035864
12.100338 -7.011264 -166.039653
12.162081 -6.883198 -166.043442
12.223825 -6.755131 -166.047231
12.247082 -6.532716 -166.053443
