ply
format ascii 1.0
element vertex 1364
property float x
property float y
property float z
element face 0
property list uchar uint vertex_indices
end_header
3.042009 -11.969518 -164.837922
3.272962 -12.015135 -164.834441
3.745428 -12.248148 -164.823692
3.976381 -12.293764 -164.820212
4.126829 -12.276915 -164.819155
4.438286 -12.384997 -164.813251
4.588734 -12.368148 -164.812194
4.658677 -12.288833 -164.813560
4.809125 -12.271984 -164.812503
4.879068 -12.192669 -164.813869
4.949011 -12.113355 -164.815235
5.099459 -12.096505 -164.814178
5.249907 -12.079656 -164.813121
5.400354 -12.062807 -164.812064
5.470298 -11.983492 -164.813430
5.620745 -11.966643 -164.812373
5.690689 -11.887329 -164.813739
5.841136 -11.870479 -164.812681
5.911080 -11.791165 -164.814047
6.061527 -11.774316 -164.812990
6.131471 -11.695001 -164.814356
6.281918 -11.678152 -164.813299
6.351862 -11.598837 -164.814665
6.421805 -11.519522 -164.816031
6.572253 -11.502673 -164.814974
6.642196 -11.423359 -164.816340
6.792644 -11.406509 -164.815283
6.862587 -11.327195 -164.816649
7.013035 -11.310346 -164.815592
7.082978 -11.231031 -164.816958
7.152921 -11.151716 -164.818324
7.222864 -11.072402 -164.819690
7.373312 -11.055552 -164.818633
7.443255 -10.976238 -164.819999
7.513198 -10.896923 -164.821365
7.583141 -10.817608 -164.822731
7.733589 -10.800759 -164.821674
7.803532 -10.721445 -164.823040
7.953980 -10.704595 -164.821983
8.023923 -10.625281 -164.823349
8.174371 -10.608432 -164.822292
8.244314 -10.529117 -164.823658
8.314258 -10.449802 -164.825024
8.464705 -10.432953 -164.823967
8.534649 -10.353638 -164.825333
8.685096 -10.336789 -164.824276
8.755040 -10.257475 -164.825642
8.905487 -10.240625 -164.824584
8.975431 -10.161311 -164.825950
9.045374 -10.081996 -164.827317
9.195822 -10.065147 -164.826259
9.265765 -9.985832 -164.827625
9.335708 -9.906517 -164.828991
9.486156 -9.889668 -164.827934
9.556099 -9.810354 -164.829300
9.706547 -9.793505 -164.828243
9.776490 -9.714190 -164.829609
9.846433 -9.634875 -164.830975
9.996881 -9.618026 -164.829918
10.066824 -9.538711 -164.831284
10.217272 -9.521862 -164.830227
10.287215 -9.442547 -164.831593
10.437663 -9.425698 -164.830536
10.507606 -9.346384 -164.831902
10.658054 -9.329535 -164.830845
10.727997 -9.250220 -164.832211
10.797940 -9.170905 -164.833577
10.948388 -9.154056 -164.832520
11.018331 -9.074741 -164.833886
11.088274 -8.995427 -164.835252
11.158217 -8.916112 -164.836618
11.308665 -8.899263 -164.835561
11.378608 -8.819948 -164.836927
11.448552 -8.740633 -164.838293
11.598999 -8.723784 -164.837236
11.668943 -8.644470 -164.838602
11.738886 -8.565155 -164.839968
11.808829 -8.485840 -164.841334
11.878772 -8.406526 -164.842700
11.948715 -8.327211 -164.844066
12.018658 -8.247896 -164.845432
12.088602 -8.168581 -164.846798
12.158545 -8.089267 -164.848164
12.228488 -8.009952 -164.849530
12.298431 -7.930637 -164.850896
12.368374 -7.851323 -164.852262
12.357813 -7.709543 -164.856051
12.427756 -7.630228 -164.857417
12.497699 -7.550913 -164.858783
12.567642 -7.471598 -164.860149
12.557081 -7.329818 -164.863938
12.627024 -7.250504 -164.865304
12.696967 -7.171189 -164.866670
12.686405 -7.029409 -164.870459
12.756349 -6.950094 -164.871825
12.745787 -6.808314 -164.875614
12.815730 -6.728999 -164.876981
12.805169 -6.587219 -164.880770
12.875112 -6.507904 -164.882136
12.864550 -6.366124 -164.885925
12.934493 -6.286809 -164.887291
12.843427 -6.082563 -164.893503
12.832866 -5.940783 -164.897292
12.822304 -5.799003 -164.901081
12.811743 -5.657223 -164.904871
12.801181 -5.515443 -164.908660
12.871124 -5.436128 -164.910026
12.860563 -5.294348 -164.913815
12.769497 -5.090102 -164.920027
12.758935 -4.948322 -164.923816
12.748373 -4.806541 -164.927605
12.657307 -4.602296 -164.933818
12.485736 -4.335584 -164.942453
12.475175 -4.193804 -164.946242
12.464613 -4.052024 -164.950031
12.373547 -3.847778 -164.956244
12.362986 -3.705998 -164.960033
12.271919 -3.501752 -164.966245
12.180853 -3.297506 -164.972457
12.250796 -3.218192 -164.973823
12.240235 -3.076411 -164.977612
12.149169 -2.872166 -164.983825
12.058102 -2.667920 -164.990037
12.047541 -2.526140 -164.993826
12.036979 -2.384359 -164.997615
11.945913 -2.180114 -165.003827
11.452323 -1.663540 -165.022155
11.522267 -1.584225 -165.023521
11.511705 -1.442445 -165.027310
11.501144 -1.300665 -165.031100
5.788121 -12.078613 -164.842363
5.909988 -11.988797 -164.841306
6.031855 -11.898981 -164.840249
6.153723 -11.809165 -164.839191
6.275590 -11.719349 -164.838134
6.498409 -11.643378 -164.834654
6.721227 -11.567406 -164.831174
6.843095 -11.477590 -164.830117
6.964962 -11.387775 -164.829060
7.086829 -11.297959 -164.828003
7.107744 -11.194299 -164.829369
7.229611 -11.104483 -164.828311
7.452430 -11.028511 -164.824831
7.574297 -10.938695 -164.823774
7.696164 -10.848880 -164.822717
7.818031 -10.759064 -164.821660
7.939898 -10.669248 -164.820603
8.061765 -10.579432 -164.819546
8.183632 -10.489616 -164.818489
8.204547 -10.385956 -164.819855
8.225462 -10.282296 -164.821221
8.751137 -10.247857 -164.810471
8.973956 -10.171886 -164.806991
9.095823 -10.082070 -164.805934
9.318642 -10.006099 -164.802453
9.440509 -9.916283 -164.801396
9.562376 -9.826467 -164.800339
9.684243 -9.736651 -164.799282
9.806110 -9.646835 -164.798225
9.927977 -9.557019 -164.797168
10.251748 -9.494892 -164.791265
10.474567 -9.418921 -164.787784
10.596434 -9.329105 -164.786727
10.819253 -9.253133 -164.783247
10.941120 -9.163318 -164.782190
11.062987 -9.073502 -164.781133
11.184854 -8.983686 -164.780076
11.306721 -8.893870 -164.779019
11.327636 -8.790210 -164.780385
11.449503 -8.700394 -164.779327
11.571370 -8.610578 -164.778270
11.693237 -8.520762 -164.777213
11.815104 -8.430947 -164.776156
11.936971 -8.341131 -164.775099
11.957887 -8.237471 -164.776465
12.079754 -8.147655 -164.775408
12.100669 -8.043995 -164.776774
12.222536 -7.954179 -164.775717
12.243451 -7.850519 -164.777083
12.365318 -7.760703 -164.776026
12.487185 -7.670887 -164.774969
12.508100 -7.567227 -164.776335
12.529015 -7.463567 -164.777701
12.650882 -7.373751 -164.776644
12.671797 -7.270091 -164.778010
12.692713 -7.166431 -164.779376
12.713628 -7.062770 -164.780742
12.835495 -6.972955 -164.779684
12.856410 -6.869294 -164.781050
12.877325 -6.765634 -164.782417
12.898240 -6.661974 -164.783783
13.020107 -6.572158 -164.782725
13.041022 -6.468498 -164.784091
13.061938 -6.364838 -164.785457
13.082853 -6.261178 -164.786823
13.103768 -6.157518 -164.788189
13.124683 -6.053857 -164.789555
13.145598 -5.950197 -164.790922
13.065561 -5.832693 -164.794711
13.086476 -5.729033 -164.796077
13.107392 -5.625372 -164.797443
13.027355 -5.507868 -164.801232
13.048270 -5.404208 -164.802598
13.069185 -5.300548 -164.803964
13.090100 -5.196888 -164.805330
13.111015 -5.093227 -164.806696
13.030978 -4.975723 -164.810485
13.051894 -4.872063 -164.811851
12.971857 -4.754558 -164.815640
12.992772 -4.650898 -164.817006
12.912735 -4.533394 -164.820795
12.832698 -4.415889 -164.824584
12.853614 -4.312229 -164.825950
12.773577 -4.194724 -164.829740
12.794492 -4.091064 -164.831106
12.815407 -3.987404 -164.832472
12.735370 -3.869900 -164.836261
12.756285 -3.766239 -164.837627
12.676249 -3.648735 -164.841416
12.697164 -3.545075 -164.842782
12.617127 -3.427570 -164.846571
12.638042 -3.323910 -164.847937
12.658957 -3.220250 -164.849303
12.578920 -3.102746 -164.853092
12.599836 -2.999085 -164.854458
12.620751 -2.895425 -164.855824
12.540714 -2.777921 -164.859613
12.460677 -2.660416 -164.863403
12.481592 -2.556756 -164.864769
12.401555 -2.439252 -164.868558
12.422471 -2.335591 -164.869924
12.342434 -2.218087 -164.873713
12.363349 -2.114427 -164.875079
12.283312 -1.996922 -164.878868
12.203275 -1.879418 -164.882657
12.224190 -1.775758 -164.884023
12.144154 -1.658253 -164.887812
12.165069 -1.554593 -164.889178
12.085032 -1.437089 -164.892968
12.105947 -1.333428 -164.894334
12.126862 -1.229768 -164.895700
12.046826 -1.112264 -164.899489
12.067741 -1.008604 -164.900855
11.987704 -0.891099 -164.904644
11.907667 -0.773595 -164.908433
11.928582 -0.669934 -164.909799
11.848545 -0.552430 -164.913588
11.869461 -0.448770 -164.914954
11.789424 -0.331265 -164.918743
11.810339 -0.227605 -164.920109
11.730302 -0.110101 -164.923898
11.751217 -0.006440 -164.925264
11.671181 0.111064 -164.929054
11.692096 0.214724 -164.930420
11.713011 0.318384 -164.931786
11.632974 0.435889 -164.935575
11.552937 0.553393 -164.939364
11.573852 0.657053 -164.940730
11.493816 0.774558 -164.944519
11.514731 0.878218 -164.945885
11.434694 0.995723 -164.949674
11.455609 1.099383 -164.951040
11.476524 1.203043 -164.952406
11.497439 1.306703 -164.953772
11.417403 1.424208 -164.957561
11.438318 1.527868 -164.958927
11.358281 1.645372 -164.962717
11.278244 1.762877 -164.966506
11.299159 1.866537 -164.967872
11.219122 1.984041 -164.971661
11.139086 2.101546 -164.975450
10.756193 2.260583 -164.986509
10.777108 2.364243 -164.987875
10.798023 2.467904 -164.989241
10.717987 2.585408 -164.993030
10.738902 2.689068 -164.994396
10.759817 2.792728 -164.995762
10.881684 2.882544 -164.994705
10.902599 2.986204 -164.996071
10.822562 3.103709 -164.999860
10.843477 3.207369 -165.001226
10.864393 3.311029 -165.002592
10.784356 3.428534 -165.006381
10.704319 3.546038 -165.010170
10.624282 3.663543 -165.013959
10.544245 3.781047 -165.017748
10.565161 3.884707 -165.019114
10.485124 4.002212 -165.022904
10.506039 4.105872 -165.024270
10.426002 4.223376 -165.028059
10.446917 4.327037 -165.029425
10.467832 4.430697 -165.030791
10.387796 4.548201 -165.034580
10.408711 4.651861 -165.035946
10.328674 4.769366 -165.039735
10.248637 4.886870 -165.043524
12.420172 -7.806104 -164.803723
12.480804 -7.667387 -164.802666
12.541436 -7.528671 -164.801609
12.979465 -7.236009 -164.790859
13.134446 -7.058807 -164.787379
13.195078 -6.920090 -164.786322
13.350060 -6.742888 -164.782842
13.410692 -6.604171 -164.781785
13.376975 -6.503941 -164.783151
13.437607 -6.365225 -164.782094
13.498239 -6.226509 -164.781036
13.464522 -6.126279 -164.782402
13.525154 -5.987563 -164.781345
13.491437 -5.887333 -164.782711
13.552069 -5.748616 -164.781654
13.612701 -5.609900 -164.780597
13.578984 -5.509670 -164.781963
13.639616 -5.370954 -164.780906
13.605899 -5.270724 -164.782272
13.572182 -5.170494 -164.783638
13.538465 -5.070264 -164.785004
13.599097 -4.931548 -164.783947
13.471031 -4.869804 -164.787736
13.437314 -4.769574 -164.789102
13.403597 -4.669344 -164.790468
13.369880 -4.569115 -164.791834
13.336163 -4.468885 -164.793200
13.302446 -4.368655 -164.794566
13.268729 -4.268425 -164.795932
13.235012 -4.168195 -164.797298
13.201295 -4.067965 -164.798664
13.167578 -3.967735 -164.800030
13.228210 -3.829019 -164.798973
13.194493 -3.728789 -164.800339
13.160776 -3.628559 -164.801705
13.127059 -3.528329 -164.803071
13.093342 -3.428099 -164.804437
13.059625 -3.327869 -164.805803
13.025908 -3.227639 -164.807169
12.992191 -3.127409 -164.808535
13.052824 -2.988693 -164.807478
13.019107 -2.888463 -164.808844
12.985390 -2.788233 -164.810210
12.951673 -2.688003 -164.811576
12.917956 -2.587773 -164.812942
12.884239 -2.487543 -164.814308
12.850522 -2.387313 -164.815674
12.816805 -2.287083 -164.817040
12.877437 -2.148367 -164.815983
12.843720 -2.048137 -164.817349
12.810003 -1.947907 -164.818715
12.776286 -1.847677 -164.820081
12.742569 -1.747447 -164.821447
12.708852 -1.647218 -164.822813
12.675135 -1.546988 -164.824179
12.641418 -1.446758 -164.825545
12.607701 -1.346528 -164.826911
12.573984 -1.246298 -164.828277
12.540267 -1.146068 -164.829643
12.506550 -1.045838 -164.831009
12.472833 -0.945608 -164.832375
12.533465 -0.806892 -164.831318
12.499748 -0.706662 -164.832684
12.466031 -0.606432 -164.834050
12.432314 -0.506202 -164.835416
12.398597 -0.405972 -164.836782
12.364880 -0.305742 -164.838148
12.331163 -0.205512 -164.839514
12.297446 -0.105282 -164.840880
12.263729 -0.005052 -164.842246
12.230012 0.095178 -164.843612
12.196295 0.195407 -164.844978
12.162578 0.295637 -164.846344
12.128861 0.395867 -164.847710
12.095144 0.496097 -164.849076
12.061427 0.596327 -164.850442
12.027710 0.696557 -164.851809
11.993993 0.796787 -164.853175
11.960276 0.897017 -164.854541
11.926559 0.997247 -164.855907
11.892842 1.097477 -164.857273
11.953474 1.236193 -164.856215
11.919757 1.336423 -164.857581
11.886040 1.436653 -164.858948
11.852323 1.536883 -164.860314
11.818606 1.637113 -164.861680
11.784889 1.737343 -164.863046
11.751172 1.837573 -164.864412
11.717455 1.937803 -164.865778
11.683738 2.038032 -164.867144
11.744370 2.176749 -164.866086
11.710653 2.276979 -164.867453
11.676936 2.377209 -164.868819
11.643219 2.477438 -164.870185
11.609502 2.577668 -164.871551
11.575785 2.677898 -164.872917
11.542068 2.778128 -164.874283
11.508351 2.878358 -164.875649
11.474634 2.978588 -164.877015
11.440917 3.078818 -164.878381
11.407200 3.179048 -164.879747
11.467832 3.317764 -164.878690
11.434115 3.417994 -164.880056
11.400398 3.518224 -164.881422
11.366681 3.618454 -164.882788
11.332964 3.718684 -164.884154
11.299247 3.818914 -164.885520
11.265530 3.919144 -164.886886
11.231813 4.019374 -164.888252
11.198096 4.119604 -164.889618
11.164379 4.219834 -164.890984
11.130662 4.320063 -164.892350
11.096945 4.420293 -164.893716
11.063228 4.520523 -164.895082
11.029511 4.620753 -164.896448
10.995794 4.720983 -164.897814
10.962077 4.821213 -164.899180
10.928360 4.921443 -164.900546
10.894643 5.021673 -164.901912
10.860926 5.121903 -164.903278
10.827209 5.222133 -164.904644
10.699143 5.283876 -164.908433
10.665426 5.384106 -164.909799
10.631709 5.484336 -164.911165
10.503643 5.546080 -164.914954
10.469926 5.646310 -164.916320
10.436209 5.746540 -164.917686
10.308143 5.808283 -164.921475
10.274426 5.908513 -164.922841
10.146360 5.970257 -164.926630
10.112643 6.070487 -164.927997
9.984577 6.132230 -164.931786
9.856511 6.193974 -164.935575
9.822794 6.294204 -164.936941
9.694727 6.355947 -164.940730
9.566661 6.417691 -164.944519
9.532944 6.517921 -164.945885
9.404878 6.579664 -164.949674
9.276812 6.641408 -164.953463
9.148746 6.703151 -164.957253
9.115029 6.803381 -164.958619
8.986963 6.865125 -164.962408
8.764548 6.888382 -164.968620
8.636482 6.950125 -164.972409
8.508415 7.011869 -164.976198
8.380349 7.073612 -164.979987
8.346632 7.173842 -164.981353
8.218566 7.235586 -164.985143
8.184849 7.335816 -164.986509
8.151132 7.436046 -164.987875
8.023066 7.497789 -164.991664
7.989349 7.598019 -164.993030
7.861283 7.659763 -164.996819
7.827566 7.759993 -164.998185
7.793849 7.860223 -164.999551
7.665783 7.921966 -165.003340
7.537717 7.983710 -165.007129
7.409651 8.045453 -165.010918
13.770752 -4.105551 -164.862139
13.691437 -4.035608 -164.863505
13.674588 -3.885160 -164.862448
13.595273 -3.815217 -164.863814
13.578424 -3.664769 -164.862757
13.561575 -3.514321 -164.861700
13.544725 -3.363873 -164.860642
13.465411 -3.293930 -164.862009
13.448561 -3.143482 -164.860951
13.369247 -3.073538 -164.862317
13.289932 -3.003595 -164.863683
13.273083 -2.853147 -164.862626
13.256233 -2.702699 -164.861569
13.176918 -2.632756 -164.862935
13.160069 -2.482308 -164.861878
13.143220 -2.331860 -164.860821
13.126371 -2.181412 -164.859764
13.109521 -2.030964 -164.858707
13.092672 -1.880517 -164.857650
13.013357 -1.810573 -164.859016
12.996508 -1.660125 -164.857959
12.979659 -1.509677 -164.856901
12.962810 -1.359230 -164.855844
12.945960 -1.208782 -164.854787
12.866646 -1.138838 -164.856153
12.849796 -0.988390 -164.855096
12.770482 -0.918447 -164.856462
12.691167 -0.848504 -164.857828
12.611852 -0.778561 -164.859194
12.595003 -0.628113 -164.858137
12.515688 -0.558170 -164.859503
12.498839 -0.407722 -164.858446
12.481989 -0.257274 -164.857389
12.465140 -0.106826 -164.856332
12.448291 0.043622 -164.855275
12.431442 0.194070 -164.854218
12.414592 0.344518 -164.853160
12.397743 0.494966 -164.852103
12.380894 0.645414 -164.851046
12.301579 0.715357 -164.852412
12.222264 0.785300 -164.853778
12.205415 0.935748 -164.852721
12.126100 1.005691 -164.854087
12.109251 1.156139 -164.853030
12.029936 1.226082 -164.854396
12.013087 1.376530 -164.853339
11.933772 1.446473 -164.854705
11.916923 1.596921 -164.853648
11.900074 1.747369 -164.852591
11.883224 1.897817 -164.851534
11.866375 2.048265 -164.850477
11.787060 2.118208 -164.851843
11.770211 2.268656 -164.850786
11.753362 2.419104 -164.849728
11.798978 2.650057 -164.846248
11.782129 2.800505 -164.845191
11.702814 2.870448 -164.846557
11.685965 3.020896 -164.845500
11.606650 3.090839 -164.846866
11.589801 3.241287 -164.845809
11.510486 3.311230 -164.847175
11.431171 3.381173 -164.848541
11.414322 3.531621 -164.847484
11.397473 3.682069 -164.846427
11.380623 3.832517 -164.845370
11.301309 3.902460 -164.846736
11.284459 4.052908 -164.845678
11.267610 4.203356 -164.844621
11.250761 4.353804 -164.843564
11.171446 4.423747 -164.844930
11.154597 4.574195 -164.843873
11.075282 4.644138 -164.845239
10.995967 4.714082 -164.846605
10.979118 4.864530 -164.845548
10.899803 4.934473 -164.846914
10.882954 5.084921 -164.845857
10.866105 5.235369 -164.844800
10.786790 5.305312 -164.846166
10.769941 5.455760 -164.845109
10.690626 5.525703 -164.846475
10.611311 5.595646 -164.847841
10.531996 5.665589 -164.849207
10.515147 5.816037 -164.848150
10.435832 5.885980 -164.849516
10.418983 6.036428 -164.848459
10.402134 6.186876 -164.847402
10.322819 6.256819 -164.848768
10.243504 6.326762 -164.850134
10.164189 6.396706 -164.851500
10.084875 6.466649 -164.852866
10.068025 6.617097 -164.851809
9.988711 6.687040 -164.853175
9.909396 6.756983 -164.854541
9.830081 6.826926 -164.855907
9.750766 6.896869 -164.857273
9.733917 7.047317 -164.856215
9.654602 7.117260 -164.857581
9.575287 7.187204 -164.858948
9.495973 7.257147 -164.860314
9.354192 7.246585 -164.864103
9.337343 7.397033 -164.863046
9.258028 7.466976 -164.864412
9.178713 7.536919 -164.865778
9.036933 7.526358 -164.869567
8.957618 7.596301 -164.870933
8.878303 7.666244 -164.872299
8.798989 7.736187 -164.873665
8.719674 7.806130 -164.875031
8.640359 7.876074 -164.876397
8.561044 7.946017 -164.877763
8.481729 8.015960 -164.879129
8.402415 8.085903 -164.880495
8.323100 8.155846 -164.881861
8.181320 8.145285 -164.885650
8.102005 8.215228 -164.887016
8.022690 8.285171 -164.888382
7.943375 8.355114 -164.889748
7.801595 8.344552 -164.893537
7.722280 8.414496 -164.894903
7.580500 8.403934 -164.898692
7.501185 8.473877 -164.900058
7.421870 8.543820 -164.901424
7.342555 8.613763 -164.902790
7.263241 8.683707 -164.904156
7.121460 8.673145 -164.907946
7.042145 8.743088 -164.909312
6.900365 8.732527 -164.913101
6.821050 8.802470 -164.914467
6.679270 8.791908 -164.918256
6.537490 8.781346 -164.922045
6.458175 8.851290 -164.923411
6.316395 8.840728 -164.927200
6.237080 8.910671 -164.928566
6.095299 8.900110 -164.932355
5.953519 8.889548 -164.936144
5.811739 8.878986 -164.939934
5.669958 8.868425 -164.943723
5.528178 8.857863 -164.947512
5.386398 8.847301 -164.951301
4.932290 8.434216 -164.967206
4.852975 8.504159 -164.968572
4.773660 8.574102 -164.969938
4.694345 8.644045 -164.971304
4.552565 8.633484 -164.975093
4.473250 8.703427 -164.976459
4.331470 8.692865 -164.980248
4.189690 8.682304 -164.984037
10.447739 6.324667 -164.859373
10.357923 6.446534 -164.858316
10.268107 6.568401 -164.857259
10.164447 6.589317 -164.858625
10.074631 6.711184 -164.857567
9.970971 6.732099 -164.858933
9.894999 6.954918 -164.855453
9.805184 7.076785 -164.854396
9.701523 7.097700 -164.855762
9.611708 7.219567 -164.854705
9.508047 7.240482 -164.856071
9.418232 7.362349 -164.855014
9.328416 7.484216 -164.853957
9.238600 7.606083 -164.852900
9.148784 7.727950 -164.851843
9.058968 7.849817 -164.850786
8.955308 7.870732 -164.852152
8.865492 7.992599 -164.851094
8.775676 8.114466 -164.850037
8.672016 8.135382 -164.851403
8.568356 8.156297 -164.852769
8.478540 8.278164 -164.851712
8.388724 8.400031 -164.850655
8.298909 8.521898 -164.849598
8.195248 8.542813 -164.850964
8.105433 8.664680 -164.849907
8.001773 8.685595 -164.851273
7.898112 8.706510 -164.852639
7.808297 8.828377 -164.851582
7.704636 8.849292 -164.852948
7.600976 8.870208 -164.854314
7.497316 8.891123 -164.855680
7.393656 8.912038 -164.857046
7.289996 8.932953 -164.858412
7.200180 9.054820 -164.857355
7.096520 9.075735 -164.858721
6.992860 9.096650 -164.860087
6.889199 9.117565 -164.861453
6.785539 9.138481 -164.862819
6.681879 9.159396 -164.864185
6.578219 9.180311 -164.865551
6.474559 9.201226 -164.866917
6.370899 9.222141 -164.868283
6.267238 9.243056 -164.869649
6.163578 9.263971 -164.871015
6.059918 9.284886 -164.872381
5.956258 9.305802 -164.873747
5.852598 9.326717 -164.875113
5.748938 9.347632 -164.876479
5.631433 9.267595 -164.880268
5.527773 9.288510 -164.881634
5.424113 9.309425 -164.883000
5.320453 9.330340 -164.884366
5.216793 9.351256 -164.885732
5.113132 9.372171 -164.887098
5.009472 9.393086 -164.888464
4.905812 9.414001 -164.889830
4.802152 9.434916 -164.891196
4.698492 9.455831 -164.892562
4.594832 9.476746 -164.893928
4.477327 9.396710 -164.897717
4.373667 9.417625 -164.899084
4.270007 9.438540 -164.900450
4.166347 9.459455 -164.901816
4.062686 9.480370 -164.903182
3.959026 9.501285 -164.904548
3.841522 9.421248 -164.908337
3.737862 9.442164 -164.909703
3.634201 9.463079 -164.911069
3.516697 9.383042 -164.914858
3.413037 9.403957 -164.916224
3.309377 9.424872 -164.917590
3.178028 9.243884 -164.923802
3.046679 9.062895 -164.930014
2.859953 8.478098 -164.945919
2.756293 8.499014 -164.947285
2.652633 8.519929 -164.948651
2.548972 8.540844 -164.950017
2.445312 8.561759 -164.951383
2.327808 8.481722 -164.955172
2.224148 8.502637 -164.956538
2.120487 8.523552 -164.957904
2.002983 8.443516 -164.961694
1.899323 8.464431 -164.963060
1.781818 8.384394 -164.966849
1.664314 8.304357 -164.970638
1.546809 8.224320 -164.974427
1.443149 8.245236 -164.975793
1.325645 8.165199 -164.979582
1.221985 8.186114 -164.980948
1.104480 8.106077 -164.984737
7.179814 9.205208 -164.894793
7.041097 9.265840 -164.893736
6.940867 9.232123 -164.895102
6.802151 9.292755 -164.894045
6.663435 9.353387 -164.892988
6.563205 9.319670 -164.894354
6.462975 9.285953 -164.895720
6.324259 9.346586 -164.894663
6.224029 9.312869 -164.896029
6.123799 9.279152 -164.897395
5.985082 9.339784 -164.896337
5.846366 9.400416 -164.895280
5.669163 9.555397 -164.891800
5.491961 9.710378 -164.888320
5.391731 9.676661 -164.889686
5.253015 9.737293 -164.888629
5.152785 9.703576 -164.889995
5.014068 9.764208 -164.888938
4.913838 9.730491 -164.890304
4.775122 9.791124 -164.889247
4.674892 9.757407 -164.890613
4.574662 9.723690 -164.891979
4.435946 9.784322 -164.890922
4.335716 9.750605 -164.892288
4.235486 9.716888 -164.893654
4.135256 9.683171 -164.895020
4.035026 9.649454 -164.896386
3.934796 9.615737 -164.897752
3.834566 9.582020 -164.899118
3.734337 9.548303 -164.900484
3.634107 9.514586 -164.901850
3.533877 9.480869 -164.903216
3.433647 9.447152 -164.904582
3.333417 9.413435 -164.905948
3.233187 9.379718 -164.907314
3.132957 9.346001 -164.908680
3.032727 9.312284 -164.910046
2.894011 9.372916 -164.908989
2.793781 9.339199 -164.910355
2.693551 9.305482 -164.911721
2.593321 9.271765 -164.913087
2.493091 9.238048 -164.914453
2.392861 9.204331 -164.915819
2.292631 9.170614 -164.917185
2.192401 9.136897 -164.918551
2.092171 9.103180 -164.919917
1.991941 9.069463 -164.921283
1.930198 8.941397 -164.925072
1.829968 8.907680 -164.926438
1.729738 8.873963 -164.927804
1.629508 8.840246 -164.929170
1.529278 8.806529 -164.930536
1.429048 8.772812 -164.931902
1.328818 8.739095 -164.933268
1.228588 8.705378 -164.934634
1.128359 8.671661 -164.936000
1.028129 8.637944 -164.937366
0.927899 8.604227 -164.938732
0.827669 8.570510 -164.940098
0.727439 8.536793 -164.941464
0.627209 8.503076 -164.942830
0.526979 8.469359 -164.944196
0.426749 8.435642 -164.945562
0.365006 8.307576 -164.949351
0.264776 8.273859 -164.950717
0.164546 8.240142 -164.952083
0.064316 8.206425 -164.953449
-0.035914 8.172708 -164.954815
-0.136144 8.138991 -164.956181
-0.197888 8.010924 -164.959971
-0.298118 7.977207 -164.961337
-0.398347 7.943490 -164.962703
-0.460091 7.815424 -164.966492
-0.560321 7.781707 -164.967858
-0.583578 7.559292 -164.974070
-0.645322 7.431226 -164.977859
-0.745552 7.397509 -164.979225
-0.845782 7.363792 -164.980591
-0.946011 7.330075 -164.981957
-1.007755 7.202009 -164.985746
-1.107985 7.168292 -164.987112
-1.208215 7.134575 -164.988478
-1.269958 7.006509 -164.992267
-1.370188 6.972792 -164.993633
0.972664 8.988021 -164.955289
0.822216 8.971172 -164.954232
0.671768 8.954323 -164.953175
0.521320 8.937474 -164.952117
0.290367 8.983090 -164.948637
0.139920 8.966241 -164.947580
-0.010528 8.949392 -164.946523
-0.080471 8.870077 -164.947889
-0.150415 8.790763 -164.949255
-0.220358 8.711448 -164.950621
-0.370806 8.694599 -164.949564
-0.440749 8.615284 -164.950930
-0.510692 8.535970 -164.952296
-0.580635 8.456655 -164.953662
-0.650578 8.377340 -164.955028
-0.720521 8.298026 -164.956394
-0.870969 8.281176 -164.955337
-0.940912 8.201862 -164.956703
-1.010855 8.122547 -164.958069
-1.080799 8.043232 -164.959435
-1.150742 7.963918 -164.960801
-1.220685 7.884603 -164.962167
-1.290628 7.805288 -164.963533
-1.360571 7.725974 -164.964899
-1.430514 7.646659 -164.966265
-1.500458 7.567344 -164.967631
-1.570401 7.488029 -164.968997
-1.640344 7.408715 -164.970363
-1.710287 7.329400 -164.971729
-1.780230 7.250085 -164.973095
-1.850173 7.170771 -164.974461
-1.920117 7.091456 -164.975827
-1.990060 7.012141 -164.977193
-2.140507 6.995292 -164.976136
-2.210451 6.915978 -164.977502
-2.280394 6.836663 -164.978868
-2.350337 6.757348 -164.980234
-2.420280 6.678033 -164.981600
-2.490223 6.598719 -164.982966
-2.560166 6.519404 -164.984332
-2.630110 6.440089 -164.985698
-2.700053 6.360775 -164.987064
-2.769996 6.281460 -164.988430
-2.839939 6.202145 -164.989796
-2.909882 6.122831 -164.991162
-2.899321 5.981050 -164.994951
-2.969264 5.901736 -164.996317
-3.039207 5.822421 -164.997683
-3.109150 5.743106 -164.999049
-3.179093 5.663792 -165.000415
-3.249036 5.584477 -165.001781
-3.318980 5.505162 -165.003147
-3.388923 5.425848 -165.004513
-3.458866 5.346533 -165.005879
-3.528809 5.267218 -165.007245
-3.598752 5.187904 -165.008612
-3.668695 5.108589 -165.009978
-3.738639 5.029274 -165.011344
-3.808582 4.949960 -165.012710
-3.878525 4.870645 -165.014076
-3.867963 4.728865 -165.017865
-3.937907 4.649550 -165.019231
-4.007850 4.570235 -165.020597
-3.997288 4.428455 -165.024386
-3.687077 6.037946 -164.993668
-3.707992 5.934285 -164.995034
-3.728908 5.830625 -164.996400
-3.850775 5.740809 -164.995343
-3.871690 5.637149 -164.996709
-3.892605 5.533489 -164.998075
-3.913520 5.429829 -164.999441
-3.934435 5.326169 -165.000807
-3.955350 5.222509 -165.002173
-3.976265 5.118848 -165.003539
-3.997180 5.015188 -165.004905
-4.018096 4.911528 -165.006271
-4.039011 4.807868 -165.007637
-4.059926 4.704208 -165.009003
-4.080841 4.600548 -165.010369
-4.101756 4.496888 -165.011735
-4.122671 4.393227 -165.013101
-4.244538 4.303412 -165.012044
-4.265453 4.199751 -165.013410
-4.286369 4.096091 -165.014776
-4.307284 3.992431 -165.016142
-4.328199 3.888771 -165.017508
-4.349114 3.785111 -165.018874
-4.370029 3.681451 -165.020240
-4.390944 3.577790 -165.021606
-4.411859 3.474130 -165.022972
-4.432774 3.370470 -165.024338
-4.453690 3.266810 -165.025704
-4.474605 3.163150 -165.027070
-4.495520 3.059490 -165.028436
-4.516435 2.955829 -165.029802
-4.537350 2.852169 -165.031168
-4.558265 2.748509 -165.032534
-4.579180 2.644849 -165.033900
-4.600096 2.541189 -165.035266
-4.621011 2.437529 -165.036632
-4.641926 2.333868 -165.037998
-4.662841 2.230208 -165.039364
-4.683756 2.126548 -165.040730
-4.704671 2.022888 -165.042096
-4.826538 1.933072 -165.041039
-4.847453 1.829412 -165.042405
-4.868368 1.725752 -165.043771
-4.889284 1.622092 -165.045137
-4.910199 1.518432 -165.046503
-4.931114 1.414771 -165.047869
-4.952029 1.311111 -165.049235
-4.972944 1.207451 -165.050601
-4.993859 1.103791 -165.051967
-5.014774 1.000131 -165.053333
-5.035690 0.896471 -165.054699
-5.056605 0.792810 -165.056065
-5.077520 0.689150 -165.057431
-5.098435 0.585490 -165.058797
-5.119350 0.481830 -165.060163
-5.140265 0.378170 -165.061529
-5.161180 0.274510 -165.062895
-5.182095 0.170849 -165.064261
-5.203011 0.067189 -165.065627
-5.223926 -0.036471 -165.066993
-5.244841 -0.140131 -165.068359
-5.265756 -0.243791 -165.069725
-5.185719 -0.361296 -165.073514
-5.206634 -0.464956 -165.074880
-5.227549 -0.568616 -165.076246
-5.248465 -0.672276 -165.077612
-5.269380 -0.775936 -165.078978
-5.290295 -0.879596 -165.080344
-5.311210 -0.983257 -165.081710
-5.332125 -1.086917 -165.083076
-5.353040 -1.190577 -165.084442
-5.373955 -1.294237 -165.085808
-5.394871 -1.397897 -165.087174
-5.415786 -1.501557 -165.088541
-5.436701 -1.605218 -165.089907
-5.356664 -1.722722 -165.093696
-5.377579 -1.826382 -165.095062
-5.398494 -1.930042 -165.096428
-5.419409 -2.033703 -165.097794
-5.339373 -2.151207 -165.101583
-5.360288 -2.254867 -165.102949
-5.381203 -2.358527 -165.104315
-5.301166 -2.476032 -165.108104
-5.322081 -2.579692 -165.109470
-5.342996 -2.683352 -165.110836
-5.363911 -2.787012 -165.112202
-5.384827 -2.890672 -165.113568
-5.304790 -3.008177 -165.117357
-5.389263 0.301609 -165.029802
-5.355546 0.201379 -165.031168
-5.416178 0.062662 -165.030111
-5.476810 -0.076054 -165.029054
-5.537442 -0.214770 -165.027997
-5.692423 -0.391973 -165.024516
-5.753055 -0.530689 -165.023459
-5.813687 -0.669406 -165.022402
-5.874319 -0.808122 -165.021345
-5.934952 -0.946838 -165.020288
-5.901235 -1.047068 -165.021654
-5.961867 -1.185784 -165.020597
-5.928150 -1.286014 -165.021963
-5.894433 -1.386244 -165.023329
-5.860716 -1.486474 -165.024695
-5.826999 -1.586704 -165.026061
-5.793282 -1.686934 -165.027427
-5.759565 -1.787164 -165.028793
-5.725848 -1.887394 -165.030159
-5.692131 -1.987624 -165.031525
-5.752763 -2.126340 -165.030468
-5.719046 -2.226570 -165.031834
-5.685329 -2.326800 -165.033200
-5.651612 -2.427030 -165.034566
-5.617895 -2.527260 -165.035932
-5.584178 -2.627490 -165.037298
-5.550461 -2.727720 -165.038664
-5.516744 -2.827950 -165.040030
-5.483027 -2.928179 -165.041396
-5.449310 -3.028409 -165.042762
-5.415593 -3.128639 -165.044128
-5.381876 -3.228869 -165.045494
-5.348159 -3.329099 -165.046860
-5.314442 -3.429329 -165.048226
-5.280725 -3.529559 -165.049592
-5.247008 -3.629789 -165.050958
-5.118942 -3.691532 -165.054747
-5.085225 -3.791762 -165.056113
-5.051508 -3.891992 -165.057479
-5.017791 -3.992222 -165.058845
-4.984074 -4.092452 -165.060211
-4.950357 -4.192682 -165.061577
-4.916640 -4.292912 -165.062943
-4.882923 -4.393142 -165.064309
-4.849206 -4.493372 -165.065675
-4.815489 -4.593602 -165.067041
-4.781772 -4.693832 -165.068407
-4.653706 -4.755575 -165.072196
-4.619989 -4.855805 -165.073562
-4.586272 -4.956035 -165.074928
-4.458205 -5.017779 -165.078718
-4.424488 -5.118009 -165.080084
-4.296422 -5.179752 -165.083873
-4.262705 -5.279982 -165.085239
-4.228988 -5.380212 -165.086605
-4.100922 -5.441955 -165.090394
-4.067205 -5.542185 -165.091760
-4.033488 -5.642415 -165.093126
-3.999771 -5.742645 -165.094492
-3.966054 -5.842875 -165.095858
-3.837988 -5.904619 -165.099647
-3.804271 -6.004849 -165.101013
-3.676205 -6.066592 -165.104802
-3.642488 -6.166822 -165.106168
-3.608771 -6.267052 -165.107534
-3.480705 -6.328796 -165.111323
-3.446988 -6.429026 -165.112689
-3.224573 -6.452283 -165.118902
-5.341602 -4.141162 -164.999228
-5.262287 -4.211105 -165.000594
-5.245438 -4.361553 -164.999537
-5.166123 -4.431496 -165.000903
-5.149274 -4.581944 -164.999846
-5.069960 -4.651887 -165.001212
-4.990645 -4.721830 -165.002578
-4.911330 -4.791773 -165.003944
-4.832016 -4.861717 -165.005310
-4.752701 -4.931660 -165.006676
-4.735852 -5.082108 -165.005619
-4.656537 -5.152051 -165.006985
-4.639688 -5.302499 -165.005928
-4.560373 -5.372442 -165.007294
-4.481059 -5.442385 -165.008660
-4.464209 -5.592833 -165.007603
-4.384895 -5.662776 -165.008969
-4.305580 -5.732719 -165.010335
-4.226265 -5.802662 -165.011701
-4.209416 -5.953110 -165.010643
-4.192567 -6.103558 -165.009586
-4.113252 -6.173501 -165.010952
-4.096403 -6.323949 -165.009895
-4.017088 -6.393892 -165.011261
-3.937774 -6.463835 -165.012627
-3.858459 -6.533778 -165.013993
-3.841610 -6.684226 -165.012936
-3.762295 -6.754169 -165.014302
-3.682981 -6.824113 -165.015668
-3.603666 -6.894056 -165.017034
-3.524351 -6.963999 -165.018400
-3.445037 -7.033942 -165.019766
-3.365722 -7.103885 -165.021132
-3.348873 -7.254333 -165.020075
-3.269558 -7.324276 -165.021441
-3.190243 -7.394219 -165.022807
-3.110929 -7.464162 -165.024173
-3.031614 -7.534106 -165.025539
-2.952299 -7.604049 -165.026905
-2.872985 -7.673992 -165.028271
-2.856135 -7.824440 -165.027214
-2.776821 -7.894383 -165.028580
-2.697506 -7.964326 -165.029946
-2.618191 -8.034269 -165.031312
-2.538877 -8.104212 -165.032678
-2.459562 -8.174156 -165.034044
-2.380247 -8.244099 -165.035410
-2.300933 -8.314042 -165.036776
-2.221618 -8.383985 -165.038142
-2.142303 -8.453928 -165.039508
-2.062989 -8.523871 -165.040874
-1.983674 -8.593815 -165.042240
-1.904359 -8.663758 -165.043606
-1.825045 -8.733701 -165.044972
-1.745730 -8.803644 -165.046338
-1.666415 -8.873587 -165.047704
-1.587100 -8.943530 -165.049070
-1.507786 -9.013473 -165.050436
-1.428471 -9.083417 -165.051802
-1.349156 -9.153360 -165.053169
-1.269842 -9.223303 -165.054535
-1.190527 -9.293246 -165.055901
-1.111212 -9.363189 -165.057267
-1.031898 -9.433132 -165.058633
-0.952583 -9.503076 -165.059999
-0.873268 -9.573019 -165.061365
-0.793954 -9.642962 -165.062731
-0.714639 -9.712905 -165.064097
-0.635324 -9.782848 -165.065463
-0.556010 -9.852791 -165.066829
-0.476695 -9.922735 -165.068195
-0.397380 -9.992678 -165.069561
-0.318066 -10.062621 -165.070927
-0.238751 -10.132564 -165.072293
-0.159436 -10.202507 -165.073659
-0.080121 -10.272450 -165.075025
-0.000807 -10.342393 -165.076391
0.078508 -10.412337 -165.077757
0.157823 -10.482280 -165.079123
0.299603 -10.471718 -165.082912
0.378918 -10.541661 -165.084278
0.458232 -10.611605 -165.085644
0.537547 -10.681548 -165.087010
0.616862 -10.751491 -165.088376
0.696176 -10.821434 -165.089742
0.775491 -10.891377 -165.091108
0.854806 -10.961320 -165.092474
0.996586 -10.950759 -165.096263
1.075901 -11.020702 -165.097629
1.155215 -11.090645 -165.098995
1.234530 -11.160588 -165.100361
1.313845 -11.230531 -165.101727
1.455625 -11.219970 -165.105516
1.534940 -11.289913 -165.106882
1.614254 -11.359856 -165.108248
1.756034 -11.349295 -165.112038
1.835349 -11.419238 -165.113404
1.977129 -11.408676 -165.117193
2.118910 -11.398115 -165.120982
2.260690 -11.387553 -165.124771
2.402470 -11.376992 -165.128560
2.606716 -11.285926 -165.134772
2.935893 -11.033850 -165.145831
3.015207 -11.103793 -165.147197
3.156988 -11.093232 -165.150986
3.298768 -11.082670 -165.154775
3.440548 -11.072109 -165.158564
-4.379728 -5.577828 -164.981909
-4.303756 -5.800647 -164.978429
-4.213940 -5.922514 -164.977372
-4.124124 -6.044381 -164.976315
-4.034309 -6.166248 -164.975257
-3.944493 -6.288115 -164.974200
-3.854677 -6.409982 -164.973143
-3.764861 -6.531850 -164.972086
-3.675045 -6.653717 -164.971029
-3.585229 -6.775584 -164.969972
-3.495414 -6.897451 -164.968915
-3.419442 -7.120270 -164.965435
-3.329626 -7.242137 -164.964377
-3.239810 -7.364004 -164.963320
-3.163839 -7.586823 -164.959840
-3.074023 -7.708690 -164.958783
-2.984207 -7.830557 -164.957726
-2.894391 -7.952424 -164.956669
-2.790731 -7.973339 -164.958035
-2.700915 -8.095206 -164.956978
-2.597255 -8.116121 -164.958344
-2.507439 -8.237988 -164.957287
-2.417624 -8.359855 -164.956230
-2.313963 -8.380770 -164.957596
-2.224148 -8.502637 -164.956538
-2.120487 -8.523552 -164.957904
-2.016827 -8.544468 -164.959270
-1.927011 -8.666335 -164.958213
-1.823351 -8.687250 -164.959579
-1.747380 -8.910069 -164.956099
-1.657564 -9.031936 -164.955042
-1.567748 -9.153803 -164.953985
-1.477932 -9.275670 -164.952928
-1.374272 -9.296585 -164.954294
-1.284456 -9.418452 -164.953237
-1.194641 -9.540319 -164.952180
-1.104825 -9.662186 -164.951122
-1.015009 -9.784053 -164.950065
-0.925193 -9.905920 -164.949008
-0.835377 -10.027787 -164.947951
-0.731717 -10.048702 -164.949317
-0.628057 -10.069618 -164.950683
-0.538241 -10.191485 -164.949626
-0.434581 -10.212400 -164.950992
-0.344765 -10.334267 -164.949935
-0.254949 -10.456134 -164.948878
-0.165133 -10.578001 -164.947821
-0.075318 -10.699868 -164.946764
0.028343 -10.720783 -164.948130
0.118158 -10.842650 -164.947073
0.221819 -10.863565 -164.948439
0.325479 -10.884480 -164.949805
0.429139 -10.905395 -164.951171
0.518955 -11.027263 -164.950114
0.622615 -11.048178 -164.951480
0.712431 -11.170045 -164.950422
0.816091 -11.190960 -164.951788
0.905907 -11.312827 -164.950731
1.009567 -11.333742 -164.952097
1.113227 -11.354657 -164.953463
1.216887 -11.375572 -164.954829
1.320547 -11.396487 -164.956195
1.424208 -11.417403 -164.957561
1.527868 -11.438318 -164.958927
1.631528 -11.459233 -164.960293
1.735188 -11.480148 -164.961659
1.838848 -11.501063 -164.963025
1.942508 -11.521978 -164.964392
2.046168 -11.542893 -164.965758
2.149829 -11.563808 -164.967124
2.239644 -11.685675 -164.966066
2.343305 -11.706591 -164.967432
2.446965 -11.727506 -164.968798
2.550625 -11.748421 -164.970164
2.654285 -11.769336 -164.971530
2.757945 -11.790251 -164.972897
2.861605 -11.811166 -164.974263
2.965266 -11.832081 -164.975629
3.068926 -11.852997 -164.976995
3.172586 -11.873912 -164.978361
3.276246 -11.894827 -164.979727
3.393751 -11.814790 -164.983516
3.497411 -11.835705 -164.984882
3.601071 -11.856620 -164.986248
3.704731 -11.877535 -164.987614
3.808391 -11.898451 -164.988980
3.912051 -11.919366 -164.990346
4.015712 -11.940281 -164.991712
4.119372 -11.961196 -164.993078
4.223032 -11.982111 -164.994444
4.326692 -12.003026 -164.995810
4.444196 -11.922989 -164.999599
4.547857 -11.943905 -165.000965
4.679205 -11.762916 -165.007177
4.838243 -11.380023 -165.018236
4.955747 -11.299987 -165.022025
5.073252 -11.219950 -165.025814
5.190756 -11.139913 -165.029603
5.294417 -11.160828 -165.030969
5.411921 -11.080791 -165.034758
5.515581 -11.101706 -165.036124
5.633086 -11.021670 -165.039914
5.750590 -10.941633 -165.043703
5.854250 -10.962548 -165.045069
5.985599 -10.781559 -165.051281
6.103104 -10.701523 -165.055070
6.206764 -10.722438 -165.056436
6.324268 -10.642401 -165.060225
6.441773 -10.562364 -165.064014
6.573122 -10.381375 -165.070227
6.704470 -10.200387 -165.076439
6.808131 -10.221302 -165.077805
6.925635 -10.141265 -165.081594
7.029295 -10.162180 -165.082960
7.146800 -10.082143 -165.086749
7.264304 -10.002107 -165.090538
7.381809 -9.922070 -165.094328
7.499313 -9.842033 -165.098117
7.602973 -9.862948 -165.099483
7.720478 -9.782911 -165.103272
7.824138 -9.803827 -165.104638
7.941642 -9.723790 -165.108427
8.045303 -9.744705 -165.109793
8.162807 -9.664668 -165.113582
8.266467 -9.685583 -165.114948
8.383972 -9.605546 -165.118737
8.501476 -9.525510 -165.122526
8.632825 -9.344521 -165.128739
8.750330 -9.264484 -165.132528
8.853990 -9.285399 -165.133894
8.971494 -9.205363 -165.137683
9.075154 -9.226278 -165.139049
9.192659 -9.146241 -165.142838
9.310163 -9.066204 -165.146627
9.441512 -8.885215 -165.152840
-0.743495 -9.615152 -164.911769
-0.566292 -9.770133 -164.908289
-0.427576 -9.830765 -164.907231
-0.134914 -10.268794 -164.896482
0.003802 -10.329426 -164.895425
0.181005 -10.484407 -164.891945
0.319721 -10.545039 -164.890887
0.458438 -10.605671 -164.889830
0.597154 -10.666303 -164.888773
0.735870 -10.726935 -164.887716
0.874586 -10.787568 -164.886659
1.051789 -10.942549 -164.883179
1.228992 -11.097530 -164.879699
1.367708 -11.158162 -164.878641
1.506424 -11.218794 -164.877584
1.645141 -11.279426 -164.876527
1.783857 -11.340059 -164.875470
1.922573 -11.400691 -164.874413
2.061290 -11.461323 -164.873356
2.161520 -11.427606 -164.874722
2.300236 -11.488238 -164.873665
2.400466 -11.454521 -164.875031
2.500696 -11.420804 -164.876397
2.716385 -11.670134 -164.870493
2.855101 -11.730766 -164.869436
2.993817 -11.791398 -164.868379
3.132534 -11.852031 -164.867322
3.271250 -11.912663 -164.866265
3.371480 -11.878946 -164.867631
3.471710 -11.845229 -164.868997
3.571940 -11.811512 -164.870363
3.672170 -11.777795 -164.871729
3.772400 -11.744078 -164.873095
3.911116 -11.804710 -164.872038
4.049832 -11.865342 -164.870981
4.150062 -11.831625 -164.872347
4.250292 -11.797908 -164.873713
4.389008 -11.858540 -164.872656
4.489238 -11.824823 -164.874022
4.589468 -11.791106 -164.875388
4.689698 -11.757389 -164.876754
4.789928 -11.723672 -164.878120
4.890158 -11.689955 -164.879486
4.990388 -11.656238 -164.880852
5.090618 -11.622521 -164.882218
5.152361 -11.494455 -164.886007
5.252591 -11.460738 -164.887373
5.352821 -11.427021 -164.888739
5.453051 -11.393304 -164.890105
5.514795 -11.265238 -164.893894
5.615025 -11.231521 -164.895260
5.715254 -11.197804 -164.896626
5.815484 -11.164087 -164.897992
5.915714 -11.130370 -164.899358
6.015944 -11.096653 -164.900724
6.116174 -11.062936 -164.902090
6.216404 -11.029219 -164.903456
6.316634 -10.995502 -164.904822
6.416864 -10.961785 -164.906188
6.517094 -10.928068 -164.907554
6.617324 -10.894351 -164.908920
6.717554 -10.860634 -164.910286
6.779297 -10.732568 -164.914076
6.879527 -10.698851 -164.915442
6.979757 -10.665134 -164.916808
7.079987 -10.631417 -164.918174
7.180217 -10.597700 -164.919540
7.280447 -10.563983 -164.920906
7.380677 -10.530266 -164.922272
7.480907 -10.496549 -164.923638
7.581137 -10.462832 -164.925004
7.681367 -10.429115 -164.926370
7.781596 -10.395398 -164.927736
7.843340 -10.267332 -164.931525
7.943570 -10.233615 -164.932891
8.043800 -10.199898 -164.934257
8.105543 -10.071831 -164.938046
8.205773 -10.038114 -164.939412
8.306003 -10.004397 -164.940778
8.406233 -9.970680 -164.942144
8.506463 -9.936963 -164.943510
8.606693 -9.903246 -164.944876
8.706923 -9.869529 -164.946242
8.807153 -9.835812 -164.947608
8.907383 -9.802095 -164.948974
9.007613 -9.768378 -164.950340
9.107843 -9.734661 -164.951706
9.208073 -9.700944 -164.953072
9.308302 -9.667227 -164.954438
9.370046 -9.539161 -164.958227
9.470276 -9.505444 -164.959593
9.570506 -9.471727 -164.960959
9.670736 -9.438010 -164.962325
9.770966 -9.404293 -164.963691
9.871196 -9.370576 -164.965057
9.971426 -9.336859 -164.966423
10.071655 -9.303142 -164.967789
10.171885 -9.269425 -164.969156
10.272115 -9.235708 -164.970522
10.372345 -9.201991 -164.971888
10.434089 -9.073925 -164.975677
10.534319 -9.040208 -164.977043
10.634549 -9.006491 -164.978409
10.734779 -8.972774 -164.979775
10.796522 -8.844708 -164.983564
10.896752 -8.810991 -164.984930
10.996982 -8.777274 -164.986296
11.097212 -8.743557 -164.987662
11.197442 -8.709840 -164.989028
11.259185 -8.581774 -164.992817
11.359415 -8.548057 -164.994183
11.459645 -8.514340 -164.995549
11.559875 -8.480623 -164.996915
11.660105 -8.446906 -164.998281
11.490930 -7.752745 -165.016609
11.514187 -7.530330 -165.022821
11.537445 -7.307915 -165.029034
11.599188 -7.179849 -165.032823
11.660932 -7.051783 -165.036612
11.761162 -7.018066 -165.037978
11.822905 -6.889999 -165.041767
11.923135 -6.856282 -165.043133
11.984879 -6.728216 -165.046922
12.046622 -6.600150 -165.050711
12.146852 -6.566433 -165.052077
12.208596 -6.438367 -165.055866
