ply
format ascii 1.0
element vertex 1315
property float x
property float y
property float z
element face 0
property list uchar uint vertex_indices
end_header
2.247524 -11.486643 -163.858364
2.397972 -11.469794 -163.857307
3.031448 -11.827738 -163.841711
3.181895 -11.810889 -163.840654
3.332343 -11.794040 -163.839597
3.724305 -11.964587 -163.831270
4.196772 -12.197600 -163.820521
4.347220 -12.180751 -163.819463
4.497667 -12.163902 -163.818406
4.648115 -12.147053 -163.817349
4.879068 -12.192669 -163.813869
5.029516 -12.175820 -163.812812
5.179963 -12.158971 -163.811755
5.249907 -12.079656 -163.813121
5.400354 -12.062807 -163.812064
5.550802 -12.045958 -163.811007
5.620745 -11.966643 -163.812373
5.771193 -11.949794 -163.811315
5.841136 -11.870479 -163.812681
5.991584 -11.853630 -163.811624
6.061527 -11.774316 -163.812990
6.211975 -11.757466 -163.811933
6.281918 -11.678152 -163.813299
6.432366 -11.661303 -163.812242
6.502309 -11.581988 -163.813608
6.572253 -11.502673 -163.814974
6.722700 -11.485824 -163.813917
6.792644 -11.406509 -163.815283
6.862587 -11.327195 -163.816649
7.013035 -11.310346 -163.815592
7.082978 -11.231031 -163.816958
7.152921 -11.151716 -163.818324
7.303369 -11.134867 -163.817267
7.373312 -11.055552 -163.818633
7.443255 -10.976238 -163.819999
7.513198 -10.896923 -163.821365
7.663646 -10.880074 -163.820308
7.733589 -10.800759 -163.821674
7.884037 -10.783910 -163.820617
7.953980 -10.704595 -163.821983
8.023923 -10.625281 -163.823349
8.093867 -10.545966 -163.824715
8.244314 -10.529117 -163.823658
8.314258 -10.449802 -163.825024
8.384201 -10.370487 -163.826390
8.454144 -10.291173 -163.827756
8.604592 -10.274324 -163.826699
8.755040 -10.257475 -163.825642
8.824983 -10.178160 -163.827008
8.894926 -10.098845 -163.828374
9.045374 -10.081996 -163.827317
9.115317 -10.002681 -163.828683
9.185260 -9.923367 -163.830049
9.335708 -9.906517 -163.828991
9.405651 -9.827203 -163.830357
9.475594 -9.747888 -163.831723
9.626042 -9.731039 -163.830666
9.695985 -9.651724 -163.832032
9.846433 -9.634875 -163.830975
9.916376 -9.555560 -163.832341
9.986319 -9.476246 -163.833707
10.136767 -9.459397 -163.832650
10.206710 -9.380082 -163.834016
10.357158 -9.363233 -163.832959
10.427101 -9.283918 -163.834325
10.577549 -9.267069 -163.833268
10.647492 -9.187754 -163.834634
10.717435 -9.108440 -163.836000
10.787379 -9.029125 -163.837366
10.937826 -9.012276 -163.836309
11.007770 -8.932961 -163.837675
11.077713 -8.853646 -163.839041
11.228161 -8.836797 -163.837984
11.298104 -8.757483 -163.839350
11.368047 -8.678168 -163.840716
11.518495 -8.661319 -163.839659
11.588438 -8.582004 -163.841025
11.658381 -8.502689 -163.842391
11.728324 -8.423375 -163.843757
11.798267 -8.344060 -163.845123
11.868211 -8.264745 -163.846489
11.938154 -8.185431 -163.847855
12.008097 -8.106116 -163.849221
12.078040 -8.026801 -163.850587
12.147983 -7.947487 -163.851953
12.137422 -7.805706 -163.855742
12.207365 -7.726392 -163.857108
12.277308 -7.647077 -163.858474
12.347251 -7.567762 -163.859840
12.336690 -7.425982 -163.863629
12.326128 -7.284202 -163.867418
12.396071 -7.204887 -163.868784
12.385510 -7.063107 -163.872574
12.455453 -6.983792 -163.873940
12.444891 -6.842012 -163.877729
12.514834 -6.762697 -163.879095
12.584778 -6.683383 -163.880461
12.574216 -6.541602 -163.884250
12.644159 -6.462288 -163.885616
12.714102 -6.382973 -163.886982
12.703541 -6.241193 -163.890771
12.692979 -6.099413 -163.894560
12.762923 -6.020098 -163.895926
12.752361 -5.878318 -163.899715
12.741799 -5.736537 -163.903504
12.650733 -5.532292 -163.909717
12.559667 -5.328046 -163.915929
12.468601 -5.123800 -163.922141
12.458039 -4.982020 -163.925930
12.447478 -4.840240 -163.929720
12.356412 -4.635994 -163.935932
12.345850 -4.494214 -163.939721
12.415793 -4.414899 -163.941087
12.405232 -4.273119 -163.944876
12.475175 -4.193804 -163.946242
12.464613 -4.052024 -163.950031
12.454052 -3.910244 -163.953820
12.362986 -3.705998 -163.960033
12.352424 -3.564218 -163.963822
12.341863 -3.422437 -163.967611
12.170292 -3.155726 -163.976246
12.079225 -2.951480 -163.982459
12.068664 -2.809700 -163.986248
11.977598 -2.605454 -163.992460
11.967036 -2.463674 -163.996249
11.714961 -2.134497 -164.007308
5.930904 -11.885137 -163.842672
6.052771 -11.795321 -163.841615
6.174638 -11.705505 -163.840557
6.296505 -11.615689 -163.839500
6.418372 -11.525873 -163.838443
6.641191 -11.449902 -163.834963
6.864010 -11.373930 -163.831483
7.086829 -11.297959 -163.828003
7.208696 -11.208143 -163.826945
7.431515 -11.132171 -163.823465
7.553382 -11.042356 -163.822408
7.675249 -10.952540 -163.821351
7.898068 -10.876568 -163.817871
8.019935 -10.786752 -163.816814
8.141802 -10.696937 -163.815757
8.162717 -10.593276 -163.817123
8.385536 -10.517305 -163.813642
8.507403 -10.427489 -163.812585
8.629270 -10.337673 -163.811528
8.852089 -10.261702 -163.808048
8.973956 -10.171886 -163.806991
9.196775 -10.095914 -163.803511
9.318642 -10.006099 -163.802453
9.440509 -9.916283 -163.801396
9.562376 -9.826467 -163.800339
9.684243 -9.736651 -163.799282
9.806110 -9.646835 -163.798225
9.927977 -9.557019 -163.797168
10.150796 -9.481048 -163.793688
10.272663 -9.391232 -163.792631
10.394530 -9.301416 -163.791573
10.920205 -9.266978 -163.780824
10.941120 -9.163318 -163.782190
11.062987 -9.073502 -163.781133
11.083902 -8.969842 -163.782499
11.205769 -8.880026 -163.781442
11.226684 -8.776366 -163.782808
11.348551 -8.686550 -163.781751
11.369467 -8.582890 -163.783117
11.491334 -8.493074 -163.782059
11.714153 -8.417102 -163.778579
11.836020 -8.327286 -163.777522
11.957887 -8.237471 -163.776465
11.978802 -8.133810 -163.777831
11.999717 -8.030150 -163.779197
12.121584 -7.940335 -163.778140
12.142499 -7.836674 -163.779506
12.264366 -7.746859 -163.778449
12.285281 -7.643198 -163.779815
12.306196 -7.539538 -163.781181
12.428063 -7.449722 -163.780124
12.448979 -7.346062 -163.781490
12.469894 -7.242402 -163.782856
12.591761 -7.152586 -163.781799
12.612676 -7.048926 -163.783165
12.633591 -6.945266 -163.784531
12.654506 -6.841606 -163.785897
12.776373 -6.751790 -163.784840
12.797288 -6.648130 -163.786206
12.818203 -6.544470 -163.787572
12.839119 -6.440809 -163.788938
12.860034 -6.337149 -163.790304
12.880949 -6.233489 -163.791670
12.901864 -6.129829 -163.793036
12.922779 -6.026169 -163.794402
12.943694 -5.922509 -163.795768
12.964609 -5.818848 -163.797134
12.985524 -5.715188 -163.798500
13.006440 -5.611528 -163.799866
12.926403 -5.494024 -163.803655
12.947318 -5.390364 -163.805021
12.968233 -5.286703 -163.806387
12.989148 -5.183043 -163.807753
12.909111 -5.065539 -163.811542
12.930027 -4.961879 -163.812908
12.849990 -4.844374 -163.816697
12.769953 -4.726870 -163.820486
12.790868 -4.623209 -163.821852
12.811783 -4.519549 -163.823218
12.731746 -4.402045 -163.827008
12.651710 -4.284540 -163.830797
12.672625 -4.180880 -163.832163
12.693540 -4.077220 -163.833529
12.613503 -3.959715 -163.837318
12.634418 -3.856055 -163.838684
12.554382 -3.738551 -163.842473
12.575297 -3.634891 -163.843839
12.495260 -3.517386 -163.847628
12.516175 -3.413726 -163.848994
12.537090 -3.310066 -163.850360
12.457053 -3.192561 -163.854149
12.477968 -3.088901 -163.855515
12.498884 -2.985241 -163.856881
12.418847 -2.867737 -163.860671
12.439762 -2.764076 -163.862037
12.359725 -2.646572 -163.865826
12.279688 -2.529067 -163.869615
12.300604 -2.425407 -163.870981
12.220567 -2.307903 -163.874770
12.241482 -2.204243 -163.876136
12.161445 -2.086738 -163.879925
12.182360 -1.983078 -163.881291
12.203275 -1.879418 -163.882657
12.123239 -1.761913 -163.886446
12.144154 -1.658253 -163.887812
12.165069 -1.554593 -163.889178
12.085032 -1.437089 -163.892968
12.105947 -1.333428 -163.894334
12.126862 -1.229768 -163.895700
12.046826 -1.112264 -163.899489
12.067741 -1.008604 -163.900855
11.987704 -0.891099 -163.904644
12.008619 -0.787439 -163.906010
11.928582 -0.669934 -163.909799
11.848545 -0.552430 -163.913588
11.768509 -0.434925 -163.917377
11.789424 -0.331265 -163.918743
11.810339 -0.227605 -163.920109
11.730302 -0.110101 -163.923898
11.751217 -0.006440 -163.925264
11.671181 0.111064 -163.929054
11.692096 0.214724 -163.930420
11.612059 0.332229 -163.934209
11.632974 0.435889 -163.935575
11.552937 0.553393 -163.939364
11.573852 0.657053 -163.940730
11.493816 0.774558 -163.944519
11.514731 0.878218 -163.945885
11.535646 0.981878 -163.947251
11.455609 1.099383 -163.951040
11.375572 1.216887 -163.954829
11.295535 1.334392 -163.958619
11.114547 1.465741 -163.964831
11.034510 1.583245 -163.968620
11.055425 1.686905 -163.969986
11.076340 1.790565 -163.971352
11.198207 1.880381 -163.970295
11.118171 1.997886 -163.974084
11.139086 2.101546 -163.975450
11.160001 2.205206 -163.976816
11.079964 2.322710 -163.980605
11.100879 2.426371 -163.981971
11.020842 2.543875 -163.985760
10.940806 2.661380 -163.989549
10.961721 2.765040 -163.990915
10.881684 2.882544 -163.994705
10.801647 3.000049 -163.998494
10.721610 3.117553 -164.002283
10.641574 3.235058 -164.006072
10.662489 3.338718 -164.007438
10.582452 3.456222 -164.011227
10.502415 3.573727 -164.015016
10.422378 3.691231 -164.018805
10.342342 3.808736 -164.022595
10.262305 3.926240 -164.026384
10.283220 4.029900 -164.027750
10.203183 4.147405 -164.031539
10.224098 4.251065 -164.032905
10.245013 4.354725 -164.034271
10.265929 4.458385 -164.035637
10.185892 4.575890 -164.039426
10.206807 4.679550 -164.040792
10.126770 4.797055 -164.044581
10.147685 4.900715 -164.045947
10.067648 5.018219 -164.049736
10.088564 5.121879 -164.051102
9.907575 5.253228 -164.057315
9.827538 5.370733 -164.061104
9.242742 5.557459 -164.077009
9.162705 5.674963 -164.080798
12.359540 -7.944820 -163.804780
12.420172 -7.806104 -163.803723
12.480804 -7.667387 -163.802666
12.447087 -7.567157 -163.804032
12.413370 -7.466928 -163.805398
12.945748 -7.135779 -163.792225
13.006380 -6.997063 -163.791168
13.067012 -6.858347 -163.790111
13.127644 -6.719630 -163.789054
13.188276 -6.580914 -163.787997
13.154559 -6.480684 -163.789363
13.215192 -6.341968 -163.788306
13.181475 -6.241738 -163.789672
13.242107 -6.103022 -163.788615
13.208390 -6.002792 -163.789981
13.269022 -5.864076 -163.788924
13.424003 -5.686873 -163.785443
13.484635 -5.548157 -163.784386
13.545267 -5.409440 -163.783329
13.511550 -5.309210 -163.784695
13.477833 -5.208980 -163.786061
13.444116 -5.108750 -163.787427
13.410399 -5.008521 -163.788793
13.376682 -4.908291 -163.790159
13.342965 -4.808061 -163.791525
13.309248 -4.707831 -163.792891
13.275531 -4.607601 -163.794257
13.241814 -4.507371 -163.795623
13.208097 -4.407141 -163.796989
13.268729 -4.268425 -163.795932
13.235012 -4.168195 -163.797298
13.201295 -4.067965 -163.798664
13.167578 -3.967735 -163.800030
13.133861 -3.867505 -163.801396
13.100144 -3.767275 -163.802762
13.066427 -3.667045 -163.804128
13.127059 -3.528329 -163.803071
12.998993 -3.466585 -163.806860
12.965276 -3.366355 -163.808226
12.931559 -3.266126 -163.809592
12.897842 -3.165896 -163.810958
12.864125 -3.065666 -163.812324
12.924757 -2.926949 -163.811267
12.891040 -2.826719 -163.812633
12.857323 -2.726490 -163.813999
12.823606 -2.626260 -163.815365
12.789889 -2.526030 -163.816731
12.850522 -2.387313 -163.815674
12.816805 -2.287083 -163.817040
12.783088 -2.186854 -163.818406
12.749371 -2.086624 -163.819772
12.715654 -1.986394 -163.821138
12.681937 -1.886164 -163.822504
12.648220 -1.785934 -163.823870
12.708852 -1.647218 -163.822813
12.675135 -1.546988 -163.824179
12.641418 -1.446758 -163.825545
12.607701 -1.346528 -163.826911
12.573984 -1.246298 -163.828277
12.540267 -1.146068 -163.829643
12.506550 -1.045838 -163.831009
12.472833 -0.945608 -163.832375
12.439116 -0.845378 -163.833741
12.405399 -0.745148 -163.835107
12.371682 -0.644918 -163.836473
12.337965 -0.544688 -163.837839
12.398597 -0.405972 -163.836782
12.364880 -0.305742 -163.838148
12.331163 -0.205512 -163.839514
12.297446 -0.105282 -163.840880
12.263729 -0.005052 -163.842246
12.230012 0.095178 -163.843612
12.196295 0.195407 -163.844978
12.162578 0.295637 -163.846344
12.128861 0.395867 -163.847710
12.095144 0.496097 -163.849076
12.061427 0.596327 -163.850442
12.027710 0.696557 -163.851809
11.993993 0.796787 -163.853175
11.960276 0.897017 -163.854541
11.926559 0.997247 -163.855907
11.892842 1.097477 -163.857273
11.953474 1.236193 -163.856215
11.919757 1.336423 -163.857581
11.886040 1.436653 -163.858948
11.852323 1.536883 -163.860314
11.818606 1.637113 -163.861680
11.784889 1.737343 -163.863046
11.751172 1.837573 -163.864412
11.717455 1.937803 -163.865778
11.683738 2.038032 -163.867144
11.650021 2.138262 -163.868510
11.616304 2.238492 -163.869876
11.582587 2.338722 -163.871242
11.548870 2.438952 -163.872608
11.515153 2.539182 -163.873974
11.575785 2.677898 -163.872917
11.542068 2.778128 -163.874283
11.508351 2.878358 -163.875649
11.474634 2.978588 -163.877015
11.440917 3.078818 -163.878381
11.407200 3.179048 -163.879747
11.373483 3.279278 -163.881113
11.339766 3.379508 -163.882479
11.306049 3.479738 -163.883845
11.272332 3.579968 -163.885211
11.238615 3.680198 -163.886577
11.204898 3.780427 -163.887943
11.171181 3.880657 -163.889309
11.137464 3.980887 -163.890675
11.103747 4.081117 -163.892041
11.164379 4.219834 -163.890984
11.130662 4.320063 -163.892350
11.096945 4.420293 -163.893716
11.063228 4.520523 -163.895082
11.029511 4.620753 -163.896448
10.995794 4.720983 -163.897814
10.962077 4.821213 -163.899180
10.834011 4.882957 -163.902969
10.800294 4.983187 -163.904335
10.766577 5.083416 -163.905701
10.638511 5.145160 -163.909490
10.604794 5.245390 -163.910856
10.476728 5.307133 -163.914645
10.443011 5.407363 -163.916011
10.409294 5.507593 -163.917377
10.375577 5.607823 -163.918743
10.341860 5.708053 -163.920109
10.213794 5.769797 -163.923898
10.180077 5.870027 -163.925264
10.052011 5.931770 -163.929054
10.018294 6.032000 -163.930420
9.890228 6.093744 -163.934209
9.856511 6.193974 -163.935575
9.822794 6.294204 -163.936941
9.694727 6.355947 -163.940730
9.566661 6.417691 -163.944519
9.532944 6.517921 -163.945885
9.404878 6.579664 -163.949674
9.276812 6.641408 -163.953463
9.148746 6.703151 -163.957253
9.020680 6.764895 -163.961042
8.892614 6.826638 -163.964831
8.764548 6.888382 -163.968620
8.636482 6.950125 -163.972409
8.414066 6.973383 -163.978621
8.286000 7.035126 -163.982410
8.252283 7.135356 -163.983776
8.218566 7.235586 -163.985143
8.090500 7.297329 -163.988932
8.056783 7.397559 -163.990298
7.928717 7.459303 -163.994087
12.431442 0.194070 -163.854218
12.414592 0.344518 -163.853160
12.335278 0.414461 -163.854527
12.318428 0.564909 -163.853469
12.301579 0.715357 -163.852412
12.284730 0.865805 -163.851355
12.267881 1.016253 -163.850298
12.188566 1.086196 -163.851664
12.171717 1.236644 -163.850607
12.154867 1.387092 -163.849550
12.075553 1.457035 -163.850916
11.996238 1.526978 -163.852282
11.979388 1.677426 -163.851225
11.900074 1.747369 -163.852591
11.820759 1.817312 -163.853957
11.803910 1.967760 -163.852900
11.724595 2.037703 -163.854266
11.645280 2.107647 -163.855632
11.628431 2.258095 -163.854575
11.611582 2.408542 -163.853518
11.594732 2.558990 -163.852460
11.640349 2.789943 -163.848980
11.623499 2.940391 -163.847923
11.606650 3.090839 -163.846866
11.527335 3.160782 -163.848232
11.448020 3.230725 -163.849598
11.431171 3.381173 -163.848541
11.414322 3.531621 -163.847484
11.397473 3.682069 -163.846427
11.318158 3.752012 -163.847793
11.301309 3.902460 -163.846736
11.221994 3.972403 -163.848102
11.142679 4.042347 -163.849468
11.125830 4.192795 -163.848411
11.108981 4.343243 -163.847353
11.092131 4.493690 -163.846296
11.075282 4.644138 -163.845239
11.058433 4.794586 -163.844182
10.979118 4.864530 -163.845548
10.962269 5.014977 -163.844491
10.882954 5.084921 -163.845857
10.803639 5.154864 -163.847223
10.724324 5.224807 -163.848589
10.707475 5.375255 -163.847532
10.628160 5.445198 -163.848898
10.611311 5.595646 -163.847841
10.531996 5.665589 -163.849207
10.515147 5.816037 -163.848150
10.435832 5.885980 -163.849516
10.356517 5.955923 -163.850882
10.277203 6.025867 -163.852248
10.197888 6.095810 -163.853614
10.118573 6.165753 -163.854980
10.101724 6.316201 -163.853923
10.022409 6.386144 -163.855289
9.943094 6.456087 -163.856655
9.926245 6.606535 -163.855598
9.846930 6.676478 -163.856964
9.767615 6.746421 -163.858330
9.750766 6.896869 -163.857273
9.671451 6.966813 -163.858639
9.592137 7.036756 -163.860005
9.512822 7.106699 -163.861371
9.433507 7.176642 -163.862737
9.354192 7.246585 -163.864103
9.274877 7.316528 -163.865469
9.195563 7.386471 -163.866835
9.116248 7.456415 -163.868201
9.036933 7.526358 -163.869567
8.957618 7.596301 -163.870933
8.878303 7.666244 -163.872299
8.798989 7.736187 -163.873665
8.719674 7.806130 -163.875031
8.640359 7.876074 -163.876397
8.498579 7.865512 -163.880186
8.419264 7.935455 -163.881552
8.339949 8.005398 -163.882918
8.198169 7.994837 -163.886707
8.118854 8.064780 -163.888073
8.039539 8.134723 -163.889439
7.960224 8.204666 -163.890805
7.880910 8.274609 -163.892171
7.801595 8.344552 -163.893537
7.722280 8.414496 -163.894903
7.580500 8.403934 -163.898692
7.501185 8.473877 -163.900058
7.421870 8.543820 -163.901424
7.342555 8.613763 -163.902790
7.263241 8.683707 -163.904156
7.121460 8.673145 -163.907946
7.042145 8.743088 -163.909312
6.900365 8.732527 -163.913101
6.821050 8.802470 -163.914467
6.491873 8.550394 -163.925525
6.412559 8.620337 -163.926891
6.333244 8.690280 -163.928257
6.191463 8.679718 -163.932046
6.112149 8.749662 -163.933412
5.970368 8.739100 -163.937202
5.891054 8.809043 -163.938568
5.749273 8.798481 -163.942357
5.607493 8.787920 -163.946146
5.465713 8.777358 -163.949935
5.261467 8.686292 -163.956147
5.119686 8.675730 -163.959936
4.977906 8.665169 -163.963726
4.898591 8.735112 -163.965092
4.756811 8.724550 -163.968881
4.677496 8.794493 -163.970247
4.535716 8.783932 -163.974036
4.393936 8.773370 -163.977825
10.254263 6.467449 -163.859682
10.164447 6.589317 -163.858625
10.060787 6.610232 -163.859991
9.970971 6.732099 -163.858933
9.867311 6.753014 -163.860299
9.777495 6.874881 -163.859242
9.673835 6.895796 -163.860608
9.570175 6.916711 -163.861974
9.480359 7.038578 -163.860917
9.376699 7.059493 -163.862283
9.286883 7.181360 -163.861226
9.197067 7.303227 -163.860169
9.107251 7.425094 -163.859112
9.017435 7.546961 -163.858055
8.927619 7.668829 -163.856998
8.823959 7.689744 -163.858364
8.734143 7.811611 -163.857307
8.644328 7.933478 -163.856250
8.582200 8.257249 -163.850346
8.492385 8.379116 -163.849289
8.388724 8.400031 -163.850655
8.298909 8.521898 -163.849598
8.195248 8.542813 -163.850964
8.091588 8.563728 -163.852330
8.001773 8.685595 -163.851273
7.898112 8.706510 -163.852639
7.794452 8.727425 -163.854005
7.704636 8.849292 -163.852948
7.600976 8.870208 -163.854314
7.497316 8.891123 -163.855680
7.393656 8.912038 -163.857046
7.289996 8.932953 -163.858412
7.186336 8.953868 -163.859778
7.082675 8.974783 -163.861144
6.979015 8.995698 -163.862510
6.889199 9.117565 -163.861453
6.785539 9.138481 -163.862819
6.681879 9.159396 -163.864185
6.578219 9.180311 -163.865551
6.474559 9.201226 -163.866917
6.370899 9.222141 -163.868283
6.267238 9.243056 -163.869649
6.163578 9.263971 -163.871015
6.059918 9.284886 -163.872381
5.956258 9.305802 -163.873747
5.852598 9.326717 -163.875113
5.748938 9.347632 -163.876479
5.631433 9.267595 -163.880268
5.527773 9.288510 -163.881634
5.424113 9.309425 -163.883000
5.320453 9.330340 -163.884366
5.216793 9.351256 -163.885732
5.113132 9.372171 -163.887098
5.009472 9.393086 -163.888464
4.905812 9.414001 -163.889830
4.802152 9.434916 -163.891196
4.698492 9.455831 -163.892562
4.594832 9.476746 -163.893928
4.491171 9.497662 -163.895294
4.373667 9.417625 -163.899084
4.270007 9.438540 -163.900450
4.166347 9.459455 -163.901816
4.062686 9.480370 -163.903182
3.959026 9.501285 -163.904548
3.841522 9.421248 -163.908337
3.737862 9.442164 -163.909703
3.634201 9.463079 -163.911069
3.516697 9.383042 -163.914858
3.399193 9.303005 -163.918647
3.253999 9.021065 -163.927282
3.136495 8.941028 -163.931072
3.018990 8.860991 -163.934861
2.846109 8.377147 -163.948342
2.728604 8.297110 -163.952131
2.624944 8.318025 -163.953497
2.521284 8.338940 -163.954863
2.417624 8.359855 -163.956230
2.313963 8.380770 -163.957596
2.210303 8.401685 -163.958962
2.106643 8.422601 -163.960328
2.002983 8.443516 -163.961694
1.885479 8.363479 -163.965483
1.781818 8.384394 -163.966849
1.678158 8.405309 -163.968215
1.560654 8.325272 -163.972004
1.443149 8.245236 -163.975793
1.325645 8.165199 -163.979582
1.208140 8.085162 -163.983371
1.090636 8.005125 -163.987160
7.056326 8.949076 -163.902371
6.917610 9.009708 -163.901314
6.817380 8.975991 -163.902680
6.678664 9.036623 -163.901623
6.578434 9.002906 -163.902989
6.439718 9.063538 -163.901932
6.301001 9.124170 -163.900875
6.123799 9.279152 -163.897395
5.985082 9.339784 -163.896337
5.807880 9.494765 -163.892857
5.630677 9.649746 -163.889377
5.491961 9.710378 -163.888320
5.353244 9.771010 -163.887263
5.253015 9.737293 -163.888629
5.114298 9.797925 -163.887572
5.014068 9.764208 -163.888938
4.875352 9.824841 -163.887881
4.775122 9.791124 -163.889247
4.674892 9.757407 -163.890613
4.574662 9.723690 -163.891979
4.474432 9.689973 -163.893345
4.335716 9.750605 -163.892288
4.235486 9.716888 -163.893654
4.135256 9.683171 -163.895020
4.035026 9.649454 -163.896386
3.934796 9.615737 -163.897752
3.834566 9.582020 -163.899118
3.734337 9.548303 -163.900484
3.634107 9.514586 -163.901850
3.533877 9.480869 -163.903216
3.433647 9.447152 -163.904582
3.333417 9.413435 -163.905948
3.233187 9.379718 -163.907314
3.132957 9.346001 -163.908680
3.032727 9.312284 -163.910046
2.932497 9.278567 -163.911412
2.832267 9.244850 -163.912778
2.732037 9.211133 -163.914144
2.631807 9.177416 -163.915510
2.493091 9.238048 -163.914453
2.392861 9.204331 -163.915819
2.292631 9.170614 -163.917185
2.192401 9.136897 -163.918551
2.092171 9.103180 -163.919917
2.030428 8.975114 -163.923706
1.930198 8.941397 -163.925072
1.829968 8.907680 -163.926438
1.729738 8.873963 -163.927804
1.629508 8.840246 -163.929170
1.529278 8.806529 -163.930536
1.429048 8.772812 -163.931902
1.328818 8.739095 -163.933268
1.228588 8.705378 -163.934634
1.128359 8.671661 -163.936000
1.028129 8.637944 -163.937366
0.927899 8.604227 -163.938732
0.827669 8.570510 -163.940098
0.727439 8.536793 -163.941464
0.627209 8.503076 -163.942830
0.526979 8.469359 -163.944196
0.465235 8.341293 -163.947985
0.365006 8.307576 -163.949351
0.264776 8.273859 -163.950717
0.164546 8.240142 -163.952083
0.064316 8.206425 -163.953449
-0.035914 8.172708 -163.954815
-0.097658 8.044641 -163.958604
-0.197888 8.010924 -163.959971
-0.298118 7.977207 -163.961337
-0.398347 7.943490 -163.962703
-0.460091 7.815424 -163.966492
-0.560321 7.781707 -163.967858
-0.660551 7.747990 -163.969224
-0.722294 7.619924 -163.973013
-0.784038 7.491858 -163.976802
-0.845782 7.363792 -163.980591
-0.907525 7.235726 -163.984380
-0.969269 7.107660 -163.988169
-1.069499 7.073943 -163.989535
-1.131242 6.945877 -163.993325
-1.192986 6.817811 -163.997114
-1.293216 6.784094 -163.998480
-1.354959 6.656027 -164.002269
-1.455189 6.622310 -164.003635
-1.516933 6.494244 -164.007424
-1.617162 6.460527 -164.008790
-1.678906 6.332461 -164.012579
1.262998 9.163500 -163.953614
1.112550 9.146651 -163.952557
0.962102 9.129802 -163.951500
0.892159 9.050487 -163.952866
0.741711 9.033638 -163.951809
0.591263 9.016789 -163.950751
0.521320 8.937474 -163.952117
0.370872 8.920625 -163.951060
0.220424 8.903776 -163.950003
0.150481 8.824461 -163.951369
0.000033 8.807612 -163.950312
-0.069910 8.728297 -163.951678
-0.139853 8.648983 -163.953044
-0.290301 8.632133 -163.951987
-0.360244 8.552819 -163.953353
-0.430187 8.473504 -163.954719
-0.500130 8.394189 -163.956085
-0.570073 8.314875 -163.957451
-0.720521 8.298026 -163.956394
-0.790464 8.218711 -163.957760
-0.860408 8.139396 -163.959126
-0.930351 8.060081 -163.960492
-1.000294 7.980767 -163.961858
-1.150742 7.963918 -163.960801
-1.220685 7.884603 -163.962167
-1.290628 7.805288 -163.963533
-1.360571 7.725974 -163.964899
-1.430514 7.646659 -163.966265
-1.500458 7.567344 -163.967631
-1.570401 7.488029 -163.968997
-1.640344 7.408715 -163.970363
-1.710287 7.329400 -163.971729
-1.780230 7.250085 -163.973095
-1.850173 7.170771 -163.974461
-1.920117 7.091456 -163.975827
-1.990060 7.012141 -163.977193
-2.140507 6.995292 -163.976136
-2.210451 6.915978 -163.977502
-2.280394 6.836663 -163.978868
-2.350337 6.757348 -163.980234
-2.420280 6.678033 -163.981600
-2.490223 6.598719 -163.982966
-2.560166 6.519404 -163.984332
-2.630110 6.440089 -163.985698
-2.700053 6.360775 -163.987064
-2.769996 6.281460 -163.988430
-2.839939 6.202145 -163.989796
-2.909882 6.122831 -163.991162
-2.979825 6.043516 -163.992528
-3.049769 5.964201 -163.993894
-3.039207 5.822421 -163.997683
-3.109150 5.743106 -163.999049
-3.179093 5.663792 -164.000415
-3.249036 5.584477 -164.001781
-3.318980 5.505162 -164.003147
-3.388923 5.425848 -164.004513
-3.458866 5.346533 -164.005879
-3.528809 5.267218 -164.007245
-3.598752 5.187904 -164.008612
-3.668695 5.108589 -164.009978
-3.738639 5.029274 -164.011344
-3.808582 4.949960 -164.012710
-3.798020 4.808179 -164.016499
-3.867963 4.728865 -164.017865
-3.937907 4.649550 -164.019231
-3.927345 4.507770 -164.023020
-3.997288 4.428455 -164.024386
-3.745213 4.099278 -164.035444
-3.654146 3.895032 -164.041657
-3.724090 3.815718 -164.043023
-3.713528 3.673938 -164.046812
-3.783471 3.594623 -164.048178
-3.772910 3.452843 -164.051967
-3.762348 3.311062 -164.055756
-3.671282 3.106817 -164.061968
-3.627956 5.816781 -163.998823
-3.749823 5.726965 -163.997766
-3.770738 5.623305 -163.999132
-3.892605 5.533489 -163.998075
-3.913520 5.429829 -163.999441
-3.934435 5.326169 -164.000807
-3.955350 5.222509 -164.002173
-3.976265 5.118848 -164.003539
-4.098132 5.029033 -164.002481
-4.119048 4.925372 -164.003848
-4.139963 4.821712 -164.005214
-4.160878 4.718052 -164.006580
-4.181793 4.614392 -164.007946
-4.202708 4.510732 -164.009312
-4.223623 4.407072 -164.010678
-4.244538 4.303412 -164.012044
-4.265453 4.199751 -164.013410
-4.286369 4.096091 -164.014776
-4.307284 3.992431 -164.016142
-4.328199 3.888771 -164.017508
-4.349114 3.785111 -164.018874
-4.370029 3.681451 -164.020240
-4.390944 3.577790 -164.021606
-4.411859 3.474130 -164.022972
-4.432774 3.370470 -164.024338
-4.453690 3.266810 -164.025704
-4.474605 3.163150 -164.027070
-4.495520 3.059490 -164.028436
-4.516435 2.955829 -164.029802
-4.537350 2.852169 -164.031168
-4.558265 2.748509 -164.032534
-4.579180 2.644849 -164.033900
-4.600096 2.541189 -164.035266
-4.621011 2.437529 -164.036632
-4.641926 2.333868 -164.037998
-4.662841 2.230208 -164.039364
-4.683756 2.126548 -164.040730
-4.704671 2.022888 -164.042096
-4.826538 1.933072 -164.041039
-4.847453 1.829412 -164.042405
-4.868368 1.725752 -164.043771
-4.889284 1.622092 -164.045137
-4.910199 1.518432 -164.046503
-4.931114 1.414771 -164.047869
-4.952029 1.311111 -164.049235
-4.972944 1.207451 -164.050601
-4.993859 1.103791 -164.051967
-5.014774 1.000131 -164.053333
-5.035690 0.896471 -164.054699
-5.056605 0.792810 -164.056065
-5.077520 0.689150 -164.057431
-5.098435 0.585490 -164.058797
-5.119350 0.481830 -164.060163
-5.140265 0.378170 -164.061529
-5.161180 0.274510 -164.062895
-5.182095 0.170849 -164.064261
-5.203011 0.067189 -164.065627
-5.122974 -0.050315 -164.069416
-5.143889 -0.153975 -164.070782
-5.164804 -0.257635 -164.072148
-5.185719 -0.361296 -164.073514
-5.206634 -0.464956 -164.074880
-5.227549 -0.568616 -164.076246
-5.248465 -0.672276 -164.077612
-5.269380 -0.775936 -164.078978
-5.290295 -0.879596 -164.080344
-5.311210 -0.983257 -164.081710
-5.332125 -1.086917 -164.083076
-5.353040 -1.190577 -164.084442
-5.373955 -1.294237 -164.085808
-5.394871 -1.397897 -164.087174
-5.415786 -1.501557 -164.088541
-5.436701 -1.605218 -164.089907
-5.356664 -1.722722 -164.093696
-5.377579 -1.826382 -164.095062
-5.398494 -1.930042 -164.096428
-5.419409 -2.033703 -164.097794
-5.440325 -2.137363 -164.099160
-5.360288 -2.254867 -164.102949
-5.381203 -2.358527 -164.104315
-5.301166 -2.476032 -164.108104
-4.817322 -2.648914 -164.121586
-4.737285 -2.766418 -164.125375
-5.227479 0.139635 -164.034957
-5.382461 -0.037568 -164.031477
-5.443093 -0.176284 -164.030420
-5.503725 -0.315000 -164.029363
-5.564357 -0.453717 -164.028305
-5.908036 -0.707892 -164.019979
-5.968669 -0.846608 -164.018922
-5.934952 -0.946838 -164.020288
-5.901235 -1.047068 -164.021654
-5.961867 -1.185784 -164.020597
-5.928150 -1.286014 -164.021963
-5.894433 -1.386244 -164.023329
-5.860716 -1.486474 -164.024695
-5.826999 -1.586704 -164.026061
-5.793282 -1.686934 -164.027427
-5.759565 -1.787164 -164.028793
-5.725848 -1.887394 -164.030159
-5.692131 -1.987624 -164.031525
-5.752763 -2.126340 -164.030468
-5.719046 -2.226570 -164.031834
-5.685329 -2.326800 -164.033200
-5.651612 -2.427030 -164.034566
-5.617895 -2.527260 -164.035932
-5.584178 -2.627490 -164.037298
-5.550461 -2.727720 -164.038664
-5.516744 -2.827950 -164.040030
-5.483027 -2.928179 -164.041396
-5.449310 -3.028409 -164.042762
-5.415593 -3.128639 -164.044128
-5.381876 -3.228869 -164.045494
-5.348159 -3.329099 -164.046860
-5.314442 -3.429329 -164.048226
-5.280725 -3.529559 -164.049592
-5.247008 -3.629789 -164.050958
-5.118942 -3.691532 -164.054747
-5.085225 -3.791762 -164.056113
-5.051508 -3.891992 -164.057479
-5.017791 -3.992222 -164.058845
-4.984074 -4.092452 -164.060211
-4.950357 -4.192682 -164.061577
-4.916640 -4.292912 -164.062943
-4.882923 -4.393142 -164.064309
-4.849206 -4.493372 -164.065675
-4.815489 -4.593602 -164.067041
-4.687423 -4.655345 -164.070830
-4.653706 -4.755575 -164.072196
-4.619989 -4.855805 -164.073562
-4.586272 -4.956035 -164.074928
-4.458205 -5.017779 -164.078718
-4.424488 -5.118009 -164.080084
-4.390771 -5.218238 -164.081450
-4.357054 -5.318468 -164.082816
-4.228988 -5.380212 -164.086605
-4.195271 -5.480442 -164.087971
-4.161554 -5.580672 -164.089337
-4.033488 -5.642415 -164.093126
-3.999771 -5.742645 -164.094492
-3.966054 -5.842875 -164.095858
-3.837988 -5.904619 -164.099647
-3.804271 -6.004849 -164.101013
-3.770554 -6.105079 -164.102379
-3.642488 -6.166822 -164.106168
-3.608771 -6.267052 -164.107534
-3.575054 -6.367282 -164.108900
-3.541337 -6.467512 -164.110266
-3.413271 -6.529255 -164.114056
-3.379554 -6.629485 -164.115422
-3.251488 -6.691229 -164.119211
-3.123422 -6.752972 -164.123000
-2.995356 -6.814716 -164.126789
-2.961639 -6.914946 -164.128155
-2.833572 -6.976689 -164.131944
-2.799855 -7.076919 -164.133310
-2.766138 -7.177149 -164.134676
-2.638072 -7.238893 -164.138465
-2.510006 -7.300636 -164.142254
-2.381940 -7.362380 -164.146044
-2.253874 -7.424123 -164.149833
-2.220157 -7.524353 -164.151199
-2.186440 -7.624583 -164.152565
-2.058374 -7.686327 -164.156354
-5.459546 -3.088027 -164.006628
-5.442697 -3.238475 -164.005571
-5.425848 -3.388923 -164.004513
-5.408999 -3.539371 -164.003456
-5.392149 -3.689818 -164.002399
-5.312835 -3.759762 -164.003765
-5.295986 -3.910209 -164.002708
-5.279136 -4.060657 -164.001651
-5.199822 -4.130600 -164.003017
-5.182973 -4.281048 -164.001960
-5.103658 -4.350991 -164.003326
-5.086809 -4.501439 -164.002269
-5.007494 -4.571382 -164.003635
-4.990645 -4.721830 -164.002578
-4.911330 -4.791773 -164.003944
-4.894481 -4.942221 -164.002887
-4.815166 -5.012164 -164.004253
-4.735852 -5.082108 -164.005619
-4.719003 -5.232555 -164.004562
-4.639688 -5.302499 -164.005928
-4.560373 -5.372442 -164.007294
-4.481059 -5.442385 -164.008660
-4.464209 -5.592833 -164.007603
-4.384895 -5.662776 -164.008969
-4.368046 -5.813224 -164.007911
-4.288731 -5.883167 -164.009277
-4.271882 -6.033615 -164.008220
-4.192567 -6.103558 -164.009586
-4.175718 -6.254006 -164.008529
-4.096403 -6.323949 -164.009895
-4.079554 -6.474397 -164.008838
-4.000239 -6.544340 -164.010204
-3.920925 -6.614283 -164.011570
-3.841610 -6.684226 -164.012936
-3.824761 -6.834674 -164.011879
-3.745446 -6.904617 -164.013245
-3.666131 -6.974560 -164.014611
-3.586817 -7.044504 -164.015977
-3.507502 -7.114447 -164.017343
-3.428187 -7.184390 -164.018709
-3.348873 -7.254333 -164.020075
-3.269558 -7.324276 -164.021441
-3.190243 -7.394219 -164.022807
-3.110929 -7.464162 -164.024173
-3.031614 -7.534106 -164.025539
-3.014765 -7.684553 -164.024482
-2.935450 -7.754497 -164.025848
-2.856135 -7.824440 -164.027214
-2.776821 -7.894383 -164.028580
-2.697506 -7.964326 -164.029946
-2.618191 -8.034269 -164.031312
-2.538877 -8.104212 -164.032678
-2.459562 -8.174156 -164.034044
-2.380247 -8.244099 -164.035410
-2.300933 -8.314042 -164.036776
-2.221618 -8.383985 -164.038142
-2.204769 -8.534433 -164.037085
-2.125454 -8.604376 -164.038451
-2.046139 -8.674319 -164.039817
-1.966825 -8.744262 -164.041183
-1.887510 -8.814206 -164.042549
-1.808195 -8.884149 -164.043915
-1.728881 -8.954092 -164.045281
-1.649566 -9.024035 -164.046647
-1.570251 -9.093978 -164.048013
-1.490937 -9.163921 -164.049379
-1.411622 -9.233864 -164.050745
-1.332307 -9.303808 -164.052111
-1.252993 -9.373751 -164.053477
-1.173678 -9.443694 -164.054843
-1.094363 -9.513637 -164.056209
-1.015049 -9.583580 -164.057575
-0.935734 -9.653523 -164.058941
-0.856419 -9.723467 -164.060307
-0.777104 -9.793410 -164.061674
-0.697790 -9.863353 -164.063040
-0.618475 -9.933296 -164.064406
-0.539160 -10.003239 -164.065772
-0.459846 -10.073182 -164.067138
-0.380531 -10.143126 -164.068504
-0.301216 -10.213069 -164.069870
-0.159436 -10.202507 -164.073659
-0.080121 -10.272450 -164.075025
-0.000807 -10.342393 -164.076391
0.078508 -10.412337 -164.077757
0.157823 -10.482280 -164.079123
0.237137 -10.552223 -164.080489
0.316452 -10.622166 -164.081855
0.395767 -10.692109 -164.083221
0.475081 -10.762052 -164.084587
0.554396 -10.831996 -164.085953
0.633711 -10.901939 -164.087319
0.713025 -10.971882 -164.088685
0.854806 -10.961320 -164.092474
0.934120 -11.031264 -164.093840
1.013435 -11.101207 -164.095206
1.092750 -11.171150 -164.096572
1.172064 -11.241093 -164.097938
1.313845 -11.230531 -164.101727
1.455625 -11.219970 -164.105516
1.597405 -11.209408 -164.109306
1.739185 -11.198847 -164.113095
1.818500 -11.268790 -164.114461
1.897815 -11.338733 -164.115827
2.039595 -11.328172 -164.119616
2.181375 -11.317610 -164.123405
2.323155 -11.307049 -164.127194
2.464936 -11.296487 -164.130983
2.606716 -11.285926 -164.134772
2.748496 -11.275364 -164.138562
-4.165657 -6.347237 -163.969045
-4.089686 -6.570056 -163.965565
-3.999870 -6.691923 -163.964508
-3.910054 -6.813790 -163.963451
-3.806394 -6.834705 -163.964817
-3.716578 -6.956572 -163.963760
-3.626762 -7.078439 -163.962703
-3.523102 -7.099354 -163.964069
-3.433286 -7.221222 -163.963011
-3.329626 -7.242137 -163.964377
-3.253655 -7.464956 -163.960897
-3.163839 -7.586823 -163.959840
-3.074023 -7.708690 -163.958783
-2.984207 -7.830557 -163.957726
-2.894391 -7.952424 -163.956669
-2.804576 -8.074291 -163.955612
-2.714760 -8.196158 -163.954555
-2.611100 -8.217073 -163.955921
-2.521284 -8.338940 -163.954863
-2.431468 -8.460807 -163.953806
-2.341652 -8.582674 -163.952749
-2.237992 -8.603589 -163.954115
-2.148176 -8.725456 -163.953058
-2.058360 -8.847323 -163.952001
-1.968544 -8.969190 -163.950944
-1.878729 -9.091057 -163.949887
-1.775068 -9.111973 -163.951253
-1.685253 -9.233840 -163.950196
-1.581592 -9.254755 -163.951562
-1.491777 -9.376622 -163.950505
-1.388117 -9.397537 -163.951871
-1.298301 -9.519404 -163.950814
-1.208485 -9.641271 -163.949756
-1.104825 -9.662186 -163.951122
-1.015009 -9.784053 -163.950065
-0.911349 -9.804968 -163.951431
-0.821533 -9.926835 -163.950374
-0.731717 -10.048702 -163.949317
-0.628057 -10.069618 -163.950683
-0.538241 -10.191485 -163.949626
-0.448425 -10.313352 -163.948569
-0.358609 -10.435219 -163.947512
-0.254949 -10.456134 -163.948878
-0.165133 -10.578001 -163.947821
-0.061473 -10.598916 -163.949187
0.028343 -10.720783 -163.948130
0.118158 -10.842650 -163.947073
0.221819 -10.863565 -163.948439
0.311634 -10.985432 -163.947381
0.415295 -11.006347 -163.948748
0.518955 -11.027263 -163.950114
0.608771 -11.149130 -163.949056
0.712431 -11.170045 -163.950422
0.816091 -11.190960 -163.951788
0.905907 -11.312827 -163.950731
1.009567 -11.333742 -163.952097
1.113227 -11.354657 -163.953463
1.216887 -11.375572 -163.954829
1.320547 -11.396487 -163.956195
1.424208 -11.417403 -163.957561
1.527868 -11.438318 -163.958927
1.631528 -11.459233 -163.960293
1.735188 -11.480148 -163.961659
1.838848 -11.501063 -163.963025
1.942508 -11.521978 -163.964392
2.046168 -11.542893 -163.965758
2.149829 -11.563808 -163.967124
2.239644 -11.685675 -163.966066
2.343305 -11.706591 -163.967432
2.446965 -11.727506 -163.968798
2.550625 -11.748421 -163.970164
2.654285 -11.769336 -163.971530
2.757945 -11.790251 -163.972897
2.861605 -11.811166 -163.974263
2.965266 -11.832081 -163.975629
3.082770 -11.752045 -163.979418
3.186430 -11.772960 -163.980784
3.290090 -11.793875 -163.982150
3.393751 -11.814790 -163.983516
3.497411 -11.835705 -163.984882
3.601071 -11.856620 -163.986248
3.704731 -11.877535 -163.987614
3.808391 -11.898451 -163.988980
3.912051 -11.919366 -163.990346
4.015712 -11.940281 -163.991712
4.119372 -11.961196 -163.993078
4.236876 -11.881159 -163.996867
4.340536 -11.902074 -163.998233
4.458041 -11.822037 -164.002022
4.575545 -11.742001 -164.005811
4.693050 -11.661964 -164.009600
4.810554 -11.581927 -164.013390
4.928059 -11.501890 -164.017179
5.045563 -11.421854 -164.020968
5.163068 -11.341817 -164.024757
5.280572 -11.261780 -164.028546
5.411921 -11.080791 -164.034758
5.543270 -10.899803 -164.040971
5.660774 -10.819766 -164.044760
5.764434 -10.840681 -164.046126
5.868095 -10.861596 -164.047492
5.985599 -10.781559 -164.051281
6.103104 -10.701523 -164.055070
6.206764 -10.722438 -164.056436
6.324268 -10.642401 -164.060225
6.441773 -10.562364 -164.064014
6.559277 -10.482327 -164.067804
6.676782 -10.402291 -164.071593
-0.997670 -9.271472 -163.920095
-0.781981 -9.520803 -163.914192
-0.604778 -9.675784 -163.910712
-0.235144 -10.302511 -163.895116
-0.057941 -10.457492 -163.891636
0.119261 -10.612473 -163.888155
0.257978 -10.673105 -163.887098
0.396694 -10.733737 -163.886041
0.535410 -10.794369 -163.884984
0.674127 -10.855002 -163.883927
0.851329 -11.009983 -163.880447
1.028532 -11.164964 -163.876966
1.167248 -11.225596 -163.875909
1.305965 -11.286228 -163.874852
1.406194 -11.252511 -163.876218
1.544911 -11.313143 -163.875161
1.645141 -11.279426 -163.876527
1.783857 -11.340059 -163.875470
1.922573 -11.400691 -163.874413
2.061290 -11.461323 -163.873356
2.200006 -11.521955 -163.872299
2.338722 -11.582587 -163.871242
2.477438 -11.643219 -163.870185
2.616155 -11.703851 -163.869127
2.870330 -12.047531 -163.860801
2.970560 -12.013814 -163.862167
3.109276 -12.074446 -163.861110
3.209506 -12.040729 -163.862476
3.309736 -12.007012 -163.863842
3.409966 -11.973295 -163.865208
3.510196 -11.939578 -163.866574
3.610426 -11.905861 -163.867940
3.710656 -11.872144 -163.869306
3.810886 -11.838427 -163.870672
3.911116 -11.804710 -163.872038
4.049832 -11.865342 -163.870981
4.150062 -11.831625 -163.872347
4.250292 -11.797908 -163.873713
4.350522 -11.764191 -163.875079
4.450752 -11.730474 -163.876445
4.550982 -11.696757 -163.877811
4.651212 -11.663040 -163.879177
4.751442 -11.629323 -163.880543
4.851671 -11.595606 -163.881909
4.951901 -11.561889 -163.883275
5.052131 -11.528172 -163.884641
5.152361 -11.494455 -163.886007
5.252591 -11.460738 -163.887373
5.314335 -11.332672 -163.891162
5.414565 -11.298955 -163.892528
5.514795 -11.265238 -163.893894
5.615025 -11.231521 -163.895260
5.715254 -11.197804 -163.896626
5.815484 -11.164087 -163.897992
5.915714 -11.130370 -163.899358
6.015944 -11.096653 -163.900724
6.116174 -11.062936 -163.902090
6.216404 -11.029219 -163.903456
6.316634 -10.995502 -163.904822
6.416864 -10.961785 -163.906188
6.478607 -10.833719 -163.909978
6.578837 -10.800002 -163.911344
6.679067 -10.766285 -163.912710
6.779297 -10.732568 -163.914076
6.879527 -10.698851 -163.915442
6.979757 -10.665134 -163.916808
7.079987 -10.631417 -163.918174
7.180217 -10.597700 -163.919540
7.280447 -10.563983 -163.920906
7.380677 -10.530266 -163.922272
7.480907 -10.496549 -163.923638
7.581137 -10.462832 -163.925004
7.681367 -10.429115 -163.926370
7.743110 -10.301049 -163.930159
7.843340 -10.267332 -163.931525
7.943570 -10.233615 -163.932891
8.043800 -10.199898 -163.934257
8.144030 -10.166181 -163.935623
8.244260 -10.132464 -163.936989
8.344490 -10.098747 -163.938355
8.444720 -10.065030 -163.939721
8.544949 -10.031313 -163.941087
8.606693 -9.903246 -163.944876
8.706923 -9.869529 -163.946242
8.807153 -9.835812 -163.947608
8.907383 -9.802095 -163.948974
9.007613 -9.768378 -163.950340
9.107843 -9.734661 -163.951706
9.208073 -9.700944 -163.953072
9.308302 -9.667227 -163.954438
9.370046 -9.539161 -163.958227
9.470276 -9.505444 -163.959593
9.570506 -9.471727 -163.960959
9.670736 -9.438010 -163.962325
9.770966 -9.404293 -163.963691
9.871196 -9.370576 -163.965057
9.971426 -9.336859 -163.966423
10.071655 -9.303142 -163.967789
10.133399 -9.175076 -163.971579
10.233629 -9.141359 -163.972945
10.333859 -9.107642 -163.974311
10.395602 -8.979576 -163.978100
10.495832 -8.945859 -163.979466
10.596062 -8.912142 -163.980832
10.696292 -8.878425 -163.982198
10.758036 -8.750359 -163.985987
10.858266 -8.716642 -163.987353
10.958496 -8.682925 -163.988719
11.020239 -8.554859 -163.992508
11.120469 -8.521142 -163.993874
11.220699 -8.487425 -163.995240
11.320929 -8.453708 -163.996606
11.459645 -8.514340 -163.995549
11.521389 -8.386274 -163.999338
11.621619 -8.352557 -164.000704
11.490930 -7.752745 -164.016609
11.552674 -7.624679 -164.020398
11.614417 -7.496613 -164.024187
11.676161 -7.368547 -164.027976
11.737904 -7.240481 -164.031766
11.761162 -7.018066 -164.037978
11.822905 -6.889999 -164.041767
11.807676 -6.573235 -164.050402
