ply
format ascii 1.0
element vertex 1292
property float x
property float y
property float z
element face 0
property list uchar uint vertex_indices
end_header
2.408533 -11.611574 -162.853518
2.558981 -11.594725 -162.852460
3.111952 -11.890204 -162.839288
3.342905 -11.935820 -162.835807
3.573857 -11.981436 -162.832327
3.804810 -12.027053 -162.828847
4.116267 -12.135135 -162.822944
4.347220 -12.180751 -162.819463
4.497667 -12.163902 -162.818406
4.648115 -12.147053 -162.817349
4.718058 -12.067738 -162.818715
4.868506 -12.050889 -162.817658
5.018954 -12.034040 -162.816601
5.169402 -12.017191 -162.815544
5.319850 -12.000342 -162.814487
5.389793 -11.921027 -162.815853
5.540241 -11.904178 -162.814796
5.690689 -11.887329 -162.813739
5.760632 -11.808014 -162.815105
5.911080 -11.791165 -162.814047
5.981023 -11.711850 -162.815414
6.050966 -11.632535 -162.816780
6.120909 -11.553221 -162.818146
6.271357 -11.536372 -162.817088
6.341300 -11.457057 -162.818454
6.491748 -11.440208 -162.817397
6.561691 -11.360893 -162.818763
6.631634 -11.281578 -162.820129
6.782082 -11.264729 -162.819072
6.852025 -11.185415 -162.820438
7.002473 -11.168565 -162.819381
7.072416 -11.089251 -162.820747
7.222864 -11.072402 -162.819690
7.292807 -10.993087 -162.821056
7.443255 -10.976238 -162.819999
7.513198 -10.896923 -162.821365
7.583141 -10.817608 -162.822731
7.733589 -10.800759 -162.821674
7.803532 -10.721445 -162.823040
7.873476 -10.642130 -162.824406
8.023923 -10.625281 -162.823349
8.093867 -10.545966 -162.824715
8.244314 -10.529117 -162.823658
8.314258 -10.449802 -162.825024
8.464705 -10.432953 -162.823967
8.534649 -10.353638 -162.825333
8.604592 -10.274324 -162.826699
8.755040 -10.257475 -162.825642
8.824983 -10.178160 -162.827008
8.894926 -10.098845 -162.828374
9.045374 -10.081996 -162.827317
9.115317 -10.002681 -162.828683
9.185260 -9.923367 -162.830049
9.335708 -9.906517 -162.828991
9.405651 -9.827203 -162.830357
9.556099 -9.810354 -162.829300
9.626042 -9.731039 -162.830666
9.776490 -9.714190 -162.829609
9.846433 -9.634875 -162.830975
9.996881 -9.618026 -162.829918
10.066824 -9.538711 -162.831284
10.136767 -9.459397 -162.832650
10.287215 -9.442547 -162.831593
10.357158 -9.363233 -162.832959
10.427101 -9.283918 -162.834325
10.577549 -9.267069 -162.833268
10.647492 -9.187754 -162.834634
10.717435 -9.108440 -162.836000
10.867883 -9.091590 -162.834943
10.937826 -9.012276 -162.836309
11.007770 -8.932961 -162.837675
11.077713 -8.853646 -162.839041
11.147656 -8.774332 -162.840407
11.217599 -8.695017 -162.841773
11.368047 -8.678168 -162.840716
11.437990 -8.598853 -162.842082
11.507933 -8.519539 -162.843448
11.577876 -8.440224 -162.844814
11.647820 -8.360909 -162.846180
11.717763 -8.281594 -162.847546
11.787706 -8.202280 -162.848912
11.857649 -8.122965 -162.850278
11.927592 -8.043650 -162.851644
11.997535 -7.964336 -162.853010
12.067478 -7.885021 -162.854376
12.137422 -7.805706 -162.855742
12.126860 -7.663926 -162.859531
12.196803 -7.584611 -162.860897
12.266746 -7.505297 -162.862263
12.336690 -7.425982 -162.863629
12.326128 -7.284202 -162.867418
12.396071 -7.204887 -162.868784
12.385510 -7.063107 -162.872574
12.455453 -6.983792 -162.873940
12.525396 -6.904478 -162.875306
12.514834 -6.762697 -162.879095
12.584778 -6.683383 -162.880461
12.574216 -6.541602 -162.884250
12.563655 -6.399822 -162.888039
12.553093 -6.258042 -162.891828
12.542532 -6.116262 -162.895617
12.531970 -5.974481 -162.899406
12.440904 -5.770236 -162.905619
12.430342 -5.628455 -162.909408
12.419781 -5.486675 -162.913197
12.409219 -5.344895 -162.916986
12.479162 -5.265580 -162.918352
12.468601 -5.123800 -162.922141
12.458039 -4.982020 -162.925930
12.447478 -4.840240 -162.929720
12.356412 -4.635994 -162.935932
12.345850 -4.494214 -162.939721
12.335289 -4.352433 -162.943510
12.405232 -4.273119 -162.944876
12.394670 -4.131339 -162.948665
12.384109 -3.989558 -162.952454
12.373547 -3.847778 -162.956244
12.362986 -3.705998 -162.960033
12.271919 -3.501752 -162.966245
12.261358 -3.359972 -162.970034
12.170292 -3.155726 -162.976246
12.159730 -3.013946 -162.980035
12.149169 -2.872166 -162.983825
12.138607 -2.730385 -162.987614
12.047541 -2.526140 -162.993826
11.795465 -2.196963 -163.004885
11.382380 -1.742855 -163.020789
11.371819 -1.601075 -163.024578
11.361257 -1.459294 -163.028368
11.350696 -1.317514 -163.032157
11.340134 -1.175734 -163.035946
11.249068 -0.971488 -163.042158
5.447059 -11.712255 -162.856153
5.669878 -11.636283 -162.852673
5.993649 -11.574156 -162.846770
6.317420 -11.512029 -162.840866
6.439287 -11.422213 -162.839809
6.662106 -11.346242 -162.836329
7.086829 -11.297959 -162.828003
7.107744 -11.194299 -162.829369
7.229611 -11.104483 -162.828311
7.250526 -11.000823 -162.829677
7.271441 -10.897163 -162.831043
7.898068 -10.876568 -162.817871
8.120887 -10.800597 -162.814391
8.242754 -10.710781 -162.813333
8.465573 -10.634809 -162.809853
8.486488 -10.531149 -162.811219
8.608355 -10.441333 -162.810162
8.730222 -10.351518 -162.809105
8.852089 -10.261702 -162.808048
8.873004 -10.158042 -162.809414
8.994871 -10.068226 -162.808357
9.318642 -10.006099 -162.802453
9.440509 -9.916283 -162.801396
9.562376 -9.826467 -162.800339
9.583291 -9.722807 -162.801705
9.604206 -9.619147 -162.803071
9.726073 -9.529331 -162.802014
9.847940 -9.439515 -162.800957
10.272663 -9.391232 -162.792631
10.495482 -9.315261 -162.789150
10.718301 -9.239289 -162.785670
10.840168 -9.149473 -162.784613
10.962035 -9.059657 -162.783556
11.083902 -8.969842 -162.782499
11.205769 -8.880026 -162.781442
11.226684 -8.776366 -162.782808
11.348551 -8.686550 -162.781751
11.369467 -8.582890 -162.783117
11.491334 -8.493074 -162.782059
11.613201 -8.403258 -162.781002
11.634116 -8.299598 -162.782368
11.755983 -8.209782 -162.781311
11.877850 -8.119966 -162.780254
11.898765 -8.016306 -162.781620
12.020632 -7.926490 -162.780563
12.142499 -7.836674 -162.779506
12.163414 -7.733014 -162.780872
12.184329 -7.629354 -162.782238
12.306196 -7.539538 -162.781181
12.327111 -7.435878 -162.782547
12.348027 -7.332218 -162.783913
12.469894 -7.242402 -162.782856
12.490809 -7.138742 -162.784222
12.511724 -7.035082 -162.785588
12.633591 -6.945266 -162.784531
12.654506 -6.841606 -162.785897
12.675421 -6.737946 -162.787263
12.696336 -6.634285 -162.788629
12.717252 -6.530625 -162.789995
12.738167 -6.426965 -162.791361
12.759082 -6.323305 -162.792727
12.779997 -6.219645 -162.794093
12.800912 -6.115985 -162.795459
12.821827 -6.012324 -162.796825
12.842742 -5.908664 -162.798191
12.762706 -5.791160 -162.801980
12.783621 -5.687500 -162.803346
12.804536 -5.583839 -162.804712
12.825451 -5.480179 -162.806078
12.846366 -5.376519 -162.807444
12.867281 -5.272859 -162.808810
12.888196 -5.169199 -162.810176
12.808160 -5.051694 -162.813965
12.829075 -4.948034 -162.815331
12.849990 -4.844374 -162.816697
12.769953 -4.726870 -162.820486
12.790868 -4.623209 -162.821852
12.710831 -4.505705 -162.825642
12.630795 -4.388200 -162.829431
12.651710 -4.284540 -162.830797
12.672625 -4.180880 -162.832163
12.592588 -4.063376 -162.835952
12.613503 -3.959715 -162.837318
12.533466 -3.842211 -162.841107
12.554382 -3.738551 -162.842473
12.474345 -3.621046 -162.846262
12.495260 -3.517386 -162.847628
12.516175 -3.413726 -162.848994
12.537090 -3.310066 -162.850360
12.457053 -3.192561 -162.854149
12.477968 -3.088901 -162.855515
12.498884 -2.985241 -162.856881
12.418847 -2.867737 -162.860671
12.439762 -2.764076 -162.862037
12.460677 -2.660416 -162.863403
12.380640 -2.542912 -162.867192
12.401555 -2.439252 -162.868558
12.422471 -2.335591 -162.869924
12.443386 -2.231931 -162.871290
12.363349 -2.114427 -162.875079
12.182360 -1.983078 -162.881291
12.102323 -1.865573 -162.885080
12.123239 -1.761913 -162.886446
12.144154 -1.658253 -162.887812
12.064117 -1.540749 -162.891602
12.085032 -1.437089 -162.892968
12.105947 -1.333428 -162.894334
12.025910 -1.215924 -162.898123
12.046826 -1.112264 -162.899489
11.966789 -0.994759 -162.903278
11.987704 -0.891099 -162.904644
11.907667 -0.773595 -162.908433
11.928582 -0.669934 -162.909799
11.949497 -0.566274 -162.911165
11.869461 -0.448770 -162.914954
11.789424 -0.331265 -162.918743
11.810339 -0.227605 -162.920109
11.831254 -0.123945 -162.921475
11.751217 -0.006440 -162.925264
11.671181 0.111064 -162.929054
11.692096 0.214724 -162.930420
11.612059 0.332229 -162.934209
11.632974 0.435889 -162.935575
11.552937 0.553393 -162.939364
11.573852 0.657053 -162.940730
11.493816 0.774558 -162.944519
11.514731 0.878218 -162.945885
11.434694 0.995723 -162.949674
11.455609 1.099383 -162.951040
11.375572 1.216887 -162.954829
11.396487 1.320547 -162.956195
11.316451 1.438052 -162.959985
11.236414 1.555556 -162.963774
11.156377 1.673061 -162.967563
11.177292 1.776721 -162.968929
11.097255 1.894225 -162.972718
11.017219 2.011730 -162.976507
11.038134 2.115390 -162.977873
10.958097 2.232895 -162.981662
10.979012 2.336555 -162.983028
10.898975 2.454059 -162.986817
10.818939 2.571564 -162.990607
10.839854 2.675224 -162.991973
10.759817 2.792728 -162.995762
10.780732 2.896389 -162.997128
10.700695 3.013893 -163.000917
10.721610 3.117553 -163.002283
10.641574 3.235058 -163.006072
10.662489 3.338718 -163.007438
10.582452 3.456222 -163.011227
10.603367 3.559882 -163.012593
10.523330 3.677387 -163.016382
10.443293 3.794891 -163.020171
10.262305 3.926240 -163.026384
10.182268 4.043745 -163.030173
10.102231 4.161249 -163.033962
10.123146 4.264909 -163.035328
10.144061 4.368570 -163.036694
10.164977 4.472230 -163.038060
10.084940 4.589734 -163.041849
10.105855 4.693394 -163.043215
10.126770 4.797055 -163.044581
10.046733 4.914559 -163.048370
10.067648 5.018219 -163.049736
9.987612 5.135724 -163.053526
9.604719 5.294761 -163.064584
12.602069 -7.389955 -162.800552
12.662701 -7.251239 -162.799495
12.723333 -7.112522 -162.798438
12.878314 -6.935320 -162.794957
12.938946 -6.796603 -162.793900
12.999578 -6.657887 -162.792843
12.965861 -6.557657 -162.794209
13.026493 -6.418941 -162.793152
12.992776 -6.318711 -162.794518
13.053408 -6.179995 -162.793461
13.208390 -6.002792 -162.789981
13.269022 -5.864076 -162.788924
13.329654 -5.725359 -162.787867
13.295937 -5.625129 -162.789233
13.262220 -5.524899 -162.790599
13.228503 -5.424669 -162.791965
13.289135 -5.285953 -162.790907
13.255418 -5.185723 -162.792273
13.221701 -5.085493 -162.793640
13.187984 -4.985263 -162.795006
13.248616 -4.846547 -162.793948
13.214899 -4.746317 -162.795314
13.181182 -4.646087 -162.796680
13.241814 -4.507371 -162.795623
13.208097 -4.407141 -162.796989
13.174380 -4.306911 -162.798355
13.140663 -4.206681 -162.799721
13.106946 -4.106451 -162.801087
13.073229 -4.006221 -162.802453
13.039512 -3.905991 -162.803819
13.100144 -3.767275 -162.802762
13.066427 -3.667045 -162.804128
13.032710 -3.566815 -162.805494
12.998993 -3.466585 -162.806860
12.965276 -3.366355 -162.808226
12.931559 -3.266126 -162.809592
12.897842 -3.165896 -162.810958
12.864125 -3.065666 -162.812324
12.830408 -2.965436 -162.813690
12.796691 -2.865206 -162.815056
12.857323 -2.726490 -162.813999
12.823606 -2.626260 -162.815365
12.789889 -2.526030 -162.816731
12.756172 -2.425800 -162.818097
12.722455 -2.325570 -162.819463
12.688738 -2.225340 -162.820829
12.655021 -2.125110 -162.822195
12.621304 -2.024880 -162.823561
12.681937 -1.886164 -162.822504
12.648220 -1.785934 -162.823870
12.614503 -1.685704 -162.825236
12.580786 -1.585474 -162.826602
12.547069 -1.485244 -162.827968
12.513352 -1.385014 -162.829334
12.479635 -1.284784 -162.830700
12.445918 -1.184554 -162.832066
12.412201 -1.084324 -162.833432
12.378484 -0.984094 -162.834799
12.344767 -0.883865 -162.836165
12.311050 -0.783635 -162.837531
12.277333 -0.683405 -162.838897
12.243616 -0.583175 -162.840263
12.209899 -0.482945 -162.841629
12.176182 -0.382715 -162.842995
12.236814 -0.243999 -162.841937
12.203097 -0.143769 -162.843304
12.169380 -0.043539 -162.844670
12.135663 0.056691 -162.846036
12.101946 0.156921 -162.847402
12.068229 0.257151 -162.848768
12.128861 0.395867 -162.847710
12.095144 0.496097 -162.849076
12.061427 0.596327 -162.850442
12.027710 0.696557 -162.851809
11.993993 0.796787 -162.853175
11.960276 0.897017 -162.854541
11.926559 0.997247 -162.855907
11.892842 1.097477 -162.857273
11.859125 1.197707 -162.858639
11.825408 1.297937 -162.860005
11.791691 1.398167 -162.861371
11.757974 1.498396 -162.862737
11.724257 1.598626 -162.864103
11.690540 1.698856 -162.865469
11.656823 1.799086 -162.866835
11.717455 1.937803 -162.865778
11.683738 2.038032 -162.867144
11.650021 2.138262 -162.868510
11.616304 2.238492 -162.869876
11.582587 2.338722 -162.871242
11.548870 2.438952 -162.872608
11.515153 2.539182 -162.873974
11.481436 2.639412 -162.875340
11.447719 2.739642 -162.876706
11.414002 2.839872 -162.878072
11.474634 2.978588 -162.877015
11.440917 3.078818 -162.878381
11.407200 3.179048 -162.879747
11.373483 3.279278 -162.881113
11.339766 3.379508 -162.882479
11.306049 3.479738 -162.883845
11.272332 3.579968 -162.885211
11.238615 3.680198 -162.886577
11.204898 3.780427 -162.887943
11.171181 3.880657 -162.889309
11.137464 3.980887 -162.890675
11.103747 4.081117 -162.892041
11.070030 4.181347 -162.893407
11.036313 4.281577 -162.894773
10.908247 4.343321 -162.898562
10.874530 4.443551 -162.899928
10.840813 4.543780 -162.901294
10.807096 4.644010 -162.902660
10.773379 4.744240 -162.904026
10.645313 4.805984 -162.907815
10.611596 4.906214 -162.909181
10.577879 5.006444 -162.910547
10.544162 5.106674 -162.911913
10.510445 5.206904 -162.913279
10.476728 5.307133 -162.914645
10.348662 5.368877 -162.918434
10.314945 5.469107 -162.919800
10.281228 5.569337 -162.921166
10.153162 5.631080 -162.924956
10.119445 5.731310 -162.926322
10.085728 5.831540 -162.927688
9.957662 5.893284 -162.931477
9.923945 5.993514 -162.932843
9.795878 6.055257 -162.936632
9.667812 6.117001 -162.940421
9.634095 6.217231 -162.941787
9.506029 6.278974 -162.945576
9.472312 6.379204 -162.946942
9.344246 6.440948 -162.950731
9.216180 6.502691 -162.954520
9.182463 6.602921 -162.955886
9.054397 6.664665 -162.959676
8.926331 6.726408 -162.963465
8.703916 6.749666 -162.969677
8.670199 6.849895 -162.971043
8.542132 6.911639 -162.974832
8.508415 7.011869 -162.976198
8.474698 7.112099 -162.977564
8.346632 7.173842 -162.981353
8.218566 7.235586 -162.985143
8.184849 7.335816 -162.986509
8.056783 7.397559 -162.990298
8.023066 7.497789 -162.991664
7.895000 7.559533 -162.995453
7.861283 7.659763 -162.996819
7.733217 7.721506 -163.000608
7.605151 7.783250 -163.004397
7.571434 7.883480 -163.005763
7.443368 7.945223 -163.009552
7.315302 8.006967 -163.013341
7.187235 8.068710 -163.017131
7.153518 8.168940 -163.018497
6.459358 7.999766 -163.036824
6.236942 8.023023 -163.043037
12.306511 0.033060 -162.859064
12.289661 0.183508 -162.858007
12.272812 0.333956 -162.856950
12.255963 0.484404 -162.855893
12.176648 0.554347 -162.857259
12.159799 0.704795 -162.856201
12.080484 0.774738 -162.857567
12.063635 0.925186 -162.856510
11.984320 0.995129 -162.857876
11.967471 1.145577 -162.856819
11.950621 1.296025 -162.855762
11.933772 1.446473 -162.854705
11.854457 1.516416 -162.856071
11.837608 1.666864 -162.855014
11.820759 1.817312 -162.853957
11.741444 1.887255 -162.855323
11.724595 2.037703 -162.854266
11.645280 2.107647 -162.855632
11.565965 2.177590 -162.856998
11.549116 2.328038 -162.855941
11.532267 2.478486 -162.854884
11.577883 2.709438 -162.851403
11.561034 2.859886 -162.850346
11.481719 2.929829 -162.851712
11.464870 3.080277 -162.850655
11.385555 3.150221 -162.852021
11.306240 3.220164 -162.853387
11.289391 3.370612 -162.852330
11.272542 3.521060 -162.851273
11.255692 3.671508 -162.850216
11.176378 3.741451 -162.851582
11.097063 3.811394 -162.852948
11.080214 3.961842 -162.851891
11.063364 4.112290 -162.850834
11.108981 4.343243 -162.847353
11.029666 4.413186 -162.848719
11.012817 4.563634 -162.847662
10.933502 4.633577 -162.849028
10.916652 4.784025 -162.847971
10.837338 4.853968 -162.849337
10.820488 5.004416 -162.848280
10.741174 5.074359 -162.849646
10.724324 5.224807 -162.848589
10.645010 5.294750 -162.849955
10.565695 5.364693 -162.851321
10.548846 5.515141 -162.850264
10.469531 5.585084 -162.851630
10.452682 5.735532 -162.850573
10.373367 5.805475 -162.851939
10.356517 5.955923 -162.850882
10.277203 6.025867 -162.852248
10.197888 6.095810 -162.853614
10.181039 6.246258 -162.852557
10.101724 6.316201 -162.853923
10.022409 6.386144 -162.855289
9.943094 6.456087 -162.856655
9.863779 6.526030 -162.858021
9.784465 6.595973 -162.859387
9.705150 6.665917 -162.860753
9.625835 6.735860 -162.862119
9.608986 6.886308 -162.861062
9.529671 6.956251 -162.862428
9.450356 7.026194 -162.863794
9.371041 7.096137 -162.865160
9.291727 7.166080 -162.866526
9.212412 7.236024 -162.867892
9.133097 7.305967 -162.869258
9.053782 7.375910 -162.870624
8.974467 7.445853 -162.871990
8.895153 7.515796 -162.873356
8.815838 7.585739 -162.874722
8.736523 7.655682 -162.876088
8.657208 7.725626 -162.877454
8.577894 7.795569 -162.878820
8.498579 7.865512 -162.880186
8.356798 7.854950 -162.883975
8.277484 7.924894 -162.885341
8.198169 7.994837 -162.886707
8.118854 8.064780 -162.888073
7.977074 8.054218 -162.891862
7.897759 8.124161 -162.893228
7.818444 8.194105 -162.894594
7.739129 8.264048 -162.895960
7.659815 8.333991 -162.897326
7.580500 8.403934 -162.898692
7.438719 8.393372 -162.902481
7.359405 8.463316 -162.903848
7.280090 8.533259 -162.905214
7.200775 8.603202 -162.906580
7.058995 8.592640 -162.910369
6.979680 8.662583 -162.911735
6.837900 8.652022 -162.915524
6.696119 8.641460 -162.919313
6.554339 8.630899 -162.923102
6.475024 8.700842 -162.924468
6.395709 8.770785 -162.925834
6.316395 8.840728 -162.927200
6.174614 8.830166 -162.930989
6.095299 8.900110 -162.932355
5.891054 8.809043 -162.938568
5.749273 8.798481 -162.942357
5.607493 8.787920 -162.946146
5.528178 8.857863 -162.947512
5.323932 8.766797 -162.953724
5.182152 8.756235 -162.957513
5.040372 8.745673 -162.961302
4.898591 8.735112 -162.965092
4.756811 8.724550 -162.968881
4.615031 8.713988 -162.972670
4.473250 8.703427 -162.976459
3.894211 8.129332 -162.997210
3.752431 8.118770 -163.000999
3.673116 8.188713 -163.002365
3.468870 8.097647 -163.008577
8.347192 8.097175 -162.857924
8.257376 8.219042 -162.856867
8.167560 8.340909 -162.855810
8.063900 8.361824 -162.857176
7.974084 8.483691 -162.856119
7.884268 8.605558 -162.855062
7.780608 8.626473 -162.856428
7.676948 8.647389 -162.857794
7.587132 8.769256 -162.856737
7.483472 8.790171 -162.858103
7.379812 8.811086 -162.859469
7.276151 8.832001 -162.860835
7.172491 8.852916 -162.862201
7.068831 8.873831 -162.863567
6.979015 8.995698 -162.862510
6.875355 9.016614 -162.863876
6.771695 9.037529 -162.865242
6.668035 9.058444 -162.866608
6.564375 9.079359 -162.867974
6.460714 9.100274 -162.869340
6.357054 9.121189 -162.870706
6.253394 9.142104 -162.872072
6.149734 9.163019 -162.873438
6.046074 9.183935 -162.874804
5.942414 9.204850 -162.876170
5.838753 9.225765 -162.877536
5.735093 9.246680 -162.878902
5.631433 9.267595 -162.880268
5.527773 9.288510 -162.881634
5.424113 9.309425 -162.883000
5.320453 9.330340 -162.884366
5.216793 9.351256 -162.885732
5.113132 9.372171 -162.887098
5.009472 9.393086 -162.888464
4.891968 9.313049 -162.892253
4.788308 9.333964 -162.893619
4.684647 9.354879 -162.894985
4.580987 9.375794 -162.896351
4.477327 9.396710 -162.897717
4.373667 9.417625 -162.899084
4.270007 9.438540 -162.900450
4.152502 9.358503 -162.904239
4.048842 9.379418 -162.905605
3.945182 9.400333 -162.906971
3.841522 9.421248 -162.908337
3.724017 9.341212 -162.912126
3.620357 9.362127 -162.913492
3.502853 9.282090 -162.917281
3.343815 8.899198 -162.928340
3.226311 8.819161 -162.932129
3.108806 8.739124 -162.935918
3.005146 8.760039 -162.937284
2.901486 8.780954 -162.938650
2.783981 8.700917 -162.942439
2.680321 8.721833 -162.943805
2.576661 8.742748 -162.945171
2.459157 8.662711 -162.948960
2.355496 8.683626 -162.950326
2.237992 8.603589 -162.954115
2.134332 8.624504 -162.955481
2.016827 8.544468 -162.959270
1.913167 8.565383 -162.960636
1.795663 8.485346 -162.964426
1.678158 8.405309 -162.968215
1.574498 8.426224 -162.969581
1.456994 8.346188 -162.973370
1.339489 8.266151 -162.977159
1.221985 8.186114 -162.980948
1.104480 8.106077 -162.984737
0.986976 8.026040 -162.988526
0.883315 8.046956 -162.989892
6.817380 8.975991 -162.902680
6.717150 8.942274 -162.904046
6.578434 9.002906 -162.902989
6.478204 8.969189 -162.904355
6.339488 9.029821 -162.903298
6.239258 8.996104 -162.904664
6.062055 9.151085 -162.901184
5.961825 9.117368 -162.902550
5.823109 9.178001 -162.901493
5.684393 9.238633 -162.900435
5.507190 9.393614 -162.896955
5.329987 9.548595 -162.893475
5.152785 9.703576 -162.889995
5.052555 9.669859 -162.891361
4.913838 9.730491 -162.890304
4.813609 9.696774 -162.891670
4.713379 9.663057 -162.893036
4.613149 9.629340 -162.894402
4.474432 9.689973 -162.893345
4.374202 9.656256 -162.894711
4.273973 9.622539 -162.896077
4.173743 9.588822 -162.897443
4.073513 9.555105 -162.898809
3.973283 9.521388 -162.900175
3.873053 9.487671 -162.901541
3.772823 9.453954 -162.902907
3.672593 9.420237 -162.904273
3.572363 9.386520 -162.905639
3.472133 9.352803 -162.907005
3.371903 9.319086 -162.908371
3.271673 9.285369 -162.909737
3.171443 9.251652 -162.911103
3.071213 9.217935 -162.912469
2.970984 9.184218 -162.913835
2.870754 9.150501 -162.915201
2.732037 9.211133 -162.914144
2.631807 9.177416 -162.915510
2.531577 9.143699 -162.916876
2.431348 9.109982 -162.918242
2.331118 9.076265 -162.919608
2.230888 9.042548 -162.920974
2.130658 9.008831 -162.922340
2.030428 8.975114 -162.923706
1.930198 8.941397 -162.925072
1.868454 8.813331 -162.928861
1.768224 8.779614 -162.930227
1.667995 8.745897 -162.931593
1.567765 8.712180 -162.932959
1.467535 8.678463 -162.934325
1.367305 8.644746 -162.935691
1.267075 8.611029 -162.937057
1.166845 8.577312 -162.938423
1.066615 8.543595 -162.939789
0.966385 8.509878 -162.941155
0.866155 8.476161 -162.942521
0.765925 8.442444 -162.943887
0.665695 8.408727 -162.945253
0.565465 8.375010 -162.946619
0.465235 8.341293 -162.947985
0.365006 8.307576 -162.949351
0.264776 8.273859 -162.950717
0.164546 8.240142 -162.952083
0.102802 8.112075 -162.955872
0.002572 8.078358 -162.957238
-0.097658 8.044641 -162.958604
-0.197888 8.010924 -162.959971
-0.259631 7.882858 -162.963760
-0.359861 7.849141 -162.965126
-0.421605 7.721075 -162.968915
-0.444862 7.498660 -162.975127
-0.506605 7.370594 -162.978916
-0.568349 7.242528 -162.982705
-0.630092 7.114462 -162.986494
-0.691836 6.986396 -162.990284
-0.792066 6.952679 -162.991650
-0.892296 6.918962 -162.993016
-0.992526 6.885245 -162.994382
-1.092756 6.851528 -162.995748
-1.192986 6.817811 -162.997114
-1.293216 6.784094 -162.998480
-1.393445 6.750377 -162.999846
-1.455189 6.622310 -163.003635
-1.555419 6.588593 -163.005001
1.343502 9.101034 -162.956037
1.193055 9.084185 -162.954980
1.042607 9.067336 -162.953923
0.892159 9.050487 -162.952866
0.741711 9.033638 -162.951809
0.671768 8.954323 -162.953175
0.601825 8.875008 -162.954541
0.531882 8.795694 -162.955907
0.461938 8.716379 -162.957273
0.472500 8.574599 -162.961062
0.322052 8.557750 -162.960005
0.091100 8.603366 -162.956524
-0.059348 8.586517 -162.955467
-0.209796 8.569668 -162.954410
-0.279739 8.490353 -162.955776
-0.430187 8.473504 -162.954719
-0.500130 8.394189 -162.956085
-0.570073 8.314875 -162.957451
-0.640017 8.235560 -162.958817
-0.790464 8.218711 -162.957760
-0.860408 8.139396 -162.959126
-0.930351 8.060081 -162.960492
-1.000294 7.980767 -162.961858
-1.150742 7.963918 -162.960801
-1.220685 7.884603 -162.962167
-1.290628 7.805288 -162.963533
-1.360571 7.725974 -162.964899
-1.430514 7.646659 -162.966265
-1.500458 7.567344 -162.967631
-1.570401 7.488029 -162.968997
-1.640344 7.408715 -162.970363
-1.710287 7.329400 -162.971729
-1.780230 7.250085 -162.973095
-1.930678 7.233236 -162.972038
-2.000621 7.153922 -162.973404
-2.070564 7.074607 -162.974770
-2.140507 6.995292 -162.976136
-2.210451 6.915978 -162.977502
-2.280394 6.836663 -162.978868
-2.350337 6.757348 -162.980234
-2.420280 6.678033 -162.981600
-2.490223 6.598719 -162.982966
-2.560166 6.519404 -162.984332
-2.630110 6.440089 -162.985698
-2.700053 6.360775 -162.987064
-2.769996 6.281460 -162.988430
-2.839939 6.202145 -162.989796
-2.909882 6.122831 -162.991162
-2.979825 6.043516 -162.992528
-3.049769 5.964201 -162.993894
-3.119712 5.884887 -162.995260
-3.189655 5.805572 -162.996626
-3.259598 5.726257 -162.997992
-3.329541 5.646943 -162.999358
-3.399484 5.567628 -163.000724
-3.469427 5.488313 -163.002090
-3.539371 5.408999 -163.003456
-3.609314 5.329684 -163.004822
-3.679257 5.250369 -163.006188
-3.668695 5.108589 -163.009978
-3.738639 5.029274 -163.011344
-3.808582 4.949960 -163.012710
-3.878525 4.870645 -163.014076
-3.948468 4.791330 -163.015442
-3.937907 4.649550 -163.019231
-3.927345 4.507770 -163.023020
-3.812568 5.415985 -163.001864
-3.934435 5.326169 -163.000807
-3.955350 5.222509 -163.002173
-3.976265 5.118848 -163.003539
-4.098132 5.029033 -163.002481
-4.119048 4.925372 -163.003848
-4.139963 4.821712 -163.005214
-4.160878 4.718052 -163.006580
-4.181793 4.614392 -163.007946
-4.202708 4.510732 -163.009312
-4.223623 4.407072 -163.010678
-4.345490 4.317256 -163.009620
-4.366405 4.213596 -163.010987
-4.387320 4.109936 -163.012353
-4.408236 4.006275 -163.013719
-4.429151 3.902615 -163.015085
-4.450066 3.798955 -163.016451
-4.470981 3.695295 -163.017817
-4.491896 3.591635 -163.019183
-4.512811 3.487975 -163.020549
-4.533726 3.384314 -163.021915
-4.554642 3.280654 -163.023281
-4.575557 3.176994 -163.024647
-4.596472 3.073334 -163.026013
-4.617387 2.969674 -163.027379
-4.638302 2.866014 -163.028745
-4.659217 2.762353 -163.030111
-4.680132 2.658693 -163.031477
-4.701047 2.555033 -163.032843
-4.721963 2.451373 -163.034209
-4.742878 2.347713 -163.035575
-4.763793 2.244053 -163.036941
-4.683756 2.126548 -163.040730
-4.704671 2.022888 -163.042096
-4.725586 1.919228 -163.043462
-4.746501 1.815568 -163.044828
-4.767417 1.711908 -163.046194
-4.889284 1.622092 -163.045137
-4.910199 1.518432 -163.046503
-4.931114 1.414771 -163.047869
-4.952029 1.311111 -163.049235
-4.972944 1.207451 -163.050601
-4.993859 1.103791 -163.051967
-5.014774 1.000131 -163.053333
-5.035690 0.896471 -163.054699
-5.056605 0.792810 -163.056065
-5.077520 0.689150 -163.057431
-5.098435 0.585490 -163.058797
-5.119350 0.481830 -163.060163
-5.140265 0.378170 -163.061529
-5.060228 0.260665 -163.065318
-5.081144 0.157005 -163.066684
-5.102059 0.053345 -163.068050
-5.122974 -0.050315 -163.069416
-5.143889 -0.153975 -163.070782
-5.164804 -0.257635 -163.072148
-5.185719 -0.361296 -163.073514
-5.206634 -0.464956 -163.074880
-5.227549 -0.568616 -163.076246
-5.248465 -0.672276 -163.077612
-5.269380 -0.775936 -163.078978
-5.290295 -0.879596 -163.080344
-5.311210 -0.983257 -163.081710
-5.332125 -1.086917 -163.083076
-5.353040 -1.190577 -163.084442
-5.373955 -1.294237 -163.085808
-5.394871 -1.397897 -163.087174
-5.415786 -1.501557 -163.088541
-5.436701 -1.605218 -163.089907
-5.356664 -1.722722 -163.093696
-5.377579 -1.826382 -163.095062
-5.398494 -1.930042 -163.096428
-5.419409 -2.033703 -163.097794
-5.339373 -2.151207 -163.101583
-5.360288 -2.254867 -163.102949
-5.381203 -2.358527 -163.104315
-5.941753 -0.607662 -163.018613
-6.002386 -0.746378 -163.017556
-5.968669 -0.846608 -163.018922
-6.029301 -0.985325 -163.017865
-5.995584 -1.085554 -163.019231
-5.961867 -1.185784 -163.020597
-5.928150 -1.286014 -163.021963
-5.894433 -1.386244 -163.023329
-5.860716 -1.486474 -163.024695
-5.826999 -1.586704 -163.026061
-5.793282 -1.686934 -163.027427
-5.759565 -1.787164 -163.028793
-5.725848 -1.887394 -163.030159
-5.786480 -2.026110 -163.029102
-5.752763 -2.126340 -163.030468
-5.719046 -2.226570 -163.031834
-5.685329 -2.326800 -163.033200
-5.651612 -2.427030 -163.034566
-5.617895 -2.527260 -163.035932
-5.584178 -2.627490 -163.037298
-5.550461 -2.727720 -163.038664
-5.516744 -2.827950 -163.040030
-5.483027 -2.928179 -163.041396
-5.449310 -3.028409 -163.042762
-5.415593 -3.128639 -163.044128
-5.381876 -3.228869 -163.045494
-5.348159 -3.329099 -163.046860
-5.314442 -3.429329 -163.048226
-5.280725 -3.529559 -163.049592
-5.247008 -3.629789 -163.050958
-5.213291 -3.730019 -163.052324
-5.085225 -3.791762 -163.056113
-5.051508 -3.891992 -163.057479
-5.017791 -3.992222 -163.058845
-4.984074 -4.092452 -163.060211
-4.950357 -4.192682 -163.061577
-4.916640 -4.292912 -163.062943
-4.882923 -4.393142 -163.064309
-4.849206 -4.493372 -163.065675
-4.815489 -4.593602 -163.067041
-4.781772 -4.693832 -163.068407
-4.748055 -4.794062 -163.069773
-4.619989 -4.855805 -163.073562
-4.586272 -4.956035 -163.074928
-4.552555 -5.056265 -163.076294
-4.424488 -5.118009 -163.080084
-4.390771 -5.218238 -163.081450
-4.357054 -5.318468 -163.082816
-4.323337 -5.418698 -163.084182
-4.195271 -5.480442 -163.087971
-4.161554 -5.580672 -163.089337
-4.033488 -5.642415 -163.093126
-3.905422 -5.704159 -163.096915
-3.777356 -5.765902 -163.100704
-3.743639 -5.866132 -163.102070
-3.709922 -5.966362 -163.103436
-3.676205 -6.066592 -163.104802
-3.642488 -6.166822 -163.106168
-3.608771 -6.267052 -163.107534
-3.575054 -6.367282 -163.108900
-3.446988 -6.429026 -163.112689
-3.413271 -6.529255 -163.114056
-3.285205 -6.590999 -163.117845
-3.251488 -6.691229 -163.119211
-3.123422 -6.752972 -163.123000
-2.901006 -6.776230 -163.129212
-2.772940 -6.837973 -163.133001
-2.739223 -6.938203 -163.134367
-2.705506 -7.038433 -163.135733
-5.651874 -2.647245 -163.006010
-5.635024 -2.797693 -163.004953
-5.618175 -2.948141 -163.003896
-5.601326 -3.098589 -163.002839
-5.584477 -3.249036 -163.001781
-5.567628 -3.399484 -163.000724
-5.488313 -3.469427 -163.002090
-5.471464 -3.619875 -163.001033
-5.392149 -3.689818 -163.002399
-5.375300 -3.840266 -163.001342
-5.358451 -3.990714 -163.000285
-5.279136 -4.060657 -163.001651
-5.262287 -4.211105 -163.000594
-5.182973 -4.281048 -163.001960
-5.103658 -4.350991 -163.003326
-5.024343 -4.420935 -163.004692
-5.007494 -4.571382 -163.003635
-4.990645 -4.721830 -163.002578
-4.973796 -4.872278 -163.001521
-4.894481 -4.942221 -163.002887
-4.877632 -5.092669 -163.001830
-4.798317 -5.162612 -163.003196
-4.719003 -5.232555 -163.004562
-4.702153 -5.383003 -163.003504
-4.622839 -5.452946 -163.004871
-4.543524 -5.522890 -163.006237
-4.464209 -5.592833 -163.007603
-4.384895 -5.662776 -163.008969
-4.305580 -5.732719 -163.010335
-4.226265 -5.802662 -163.011701
-4.146951 -5.872605 -163.013067
-4.067636 -5.942549 -163.014433
-4.050787 -6.092996 -163.013376
-3.971472 -6.162940 -163.014742
-4.017088 -6.393892 -163.011261
-3.937774 -6.463835 -163.012627
-3.920925 -6.614283 -163.011570
-3.841610 -6.684226 -163.012936
-3.762295 -6.754169 -163.014302
-3.682981 -6.824113 -163.015668
-3.603666 -6.894056 -163.017034
-3.586817 -7.044504 -163.015977
-3.507502 -7.114447 -163.017343
-3.428187 -7.184390 -163.018709
-3.348873 -7.254333 -163.020075
-3.269558 -7.324276 -163.021441
-3.252709 -7.474724 -163.020384
-3.173394 -7.544667 -163.021750
-3.094080 -7.614610 -163.023116
-3.014765 -7.684553 -163.024482
-2.935450 -7.754497 -163.025848
-2.856135 -7.824440 -163.027214
-2.776821 -7.894383 -163.028580
-2.697506 -7.964326 -163.029946
-2.618191 -8.034269 -163.031312
-2.538877 -8.104212 -163.032678
-2.459562 -8.174156 -163.034044
-2.380247 -8.244099 -163.035410
-2.300933 -8.314042 -163.036776
-2.221618 -8.383985 -163.038142
-2.204769 -8.534433 -163.037085
-2.125454 -8.604376 -163.038451
-2.046139 -8.674319 -163.039817
-1.966825 -8.744262 -163.041183
-1.887510 -8.814206 -163.042549
-1.808195 -8.884149 -163.043915
-1.728881 -8.954092 -163.045281
-1.649566 -9.024035 -163.046647
-1.570251 -9.093978 -163.048013
-1.490937 -9.163921 -163.049379
-1.411622 -9.233864 -163.050745
-1.332307 -9.303808 -163.052111
-1.252993 -9.373751 -163.053477
-1.173678 -9.443694 -163.054843
-1.094363 -9.513637 -163.056209
-1.015049 -9.583580 -163.057575
-0.935734 -9.653523 -163.058941
-0.856419 -9.723467 -163.060307
-0.777104 -9.793410 -163.061674
-0.697790 -9.863353 -163.063040
-0.618475 -9.933296 -163.064406
-0.539160 -10.003239 -163.065772
-0.459846 -10.073182 -163.067138
-0.380531 -10.143126 -163.068504
-0.301216 -10.213069 -163.069870
-0.221902 -10.283012 -163.071236
-0.142587 -10.352955 -163.072602
-0.063272 -10.422898 -163.073968
0.016042 -10.492841 -163.075334
0.095357 -10.562784 -163.076700
0.237137 -10.552223 -163.080489
0.316452 -10.622166 -163.081855
0.395767 -10.692109 -163.083221
0.475081 -10.762052 -163.084587
0.554396 -10.831996 -163.085953
0.633711 -10.901939 -163.087319
0.713025 -10.971882 -163.088685
0.854806 -10.961320 -163.092474
0.934120 -11.031264 -163.093840
1.013435 -11.101207 -163.095206
1.092750 -11.171150 -163.096572
1.234530 -11.160588 -163.100361
1.313845 -11.230531 -163.101727
1.518090 -11.139465 -163.107940
-4.255473 -6.225370 -162.970102
-4.165657 -6.347237 -162.969045
-4.075842 -6.469104 -162.967988
-3.986026 -6.590971 -162.966931
-3.896210 -6.712838 -162.965874
-3.806394 -6.834705 -162.964817
-3.716578 -6.956572 -162.963760
-3.612918 -6.977487 -162.965126
-3.523102 -7.099354 -162.964069
-3.433286 -7.221222 -162.963011
-3.329626 -7.242137 -162.964377
-3.253655 -7.464956 -162.960897
-3.163839 -7.586823 -162.959840
-3.074023 -7.708690 -162.958783
-2.984207 -7.830557 -162.957726
-2.880547 -7.851472 -162.959092
-2.790731 -7.973339 -162.958035
-2.700915 -8.095206 -162.956978
-2.611100 -8.217073 -162.955921
-2.521284 -8.338940 -162.954863
-2.417624 -8.359855 -162.956230
-2.327808 -8.481722 -162.955172
-2.237992 -8.603589 -162.954115
-2.134332 -8.624504 -162.955481
-2.044516 -8.746371 -162.954424
-1.954700 -8.868238 -162.953367
-1.864884 -8.990106 -162.952310
-1.775068 -9.111973 -162.951253
-1.671408 -9.132888 -162.952619
-1.581592 -9.254755 -162.951562
-1.477932 -9.275670 -162.952928
-1.388117 -9.397537 -162.951871
-1.298301 -9.519404 -162.950814
-1.194641 -9.540319 -162.952180
-1.104825 -9.662186 -162.951122
-1.001165 -9.683101 -162.952489
-0.911349 -9.804968 -162.951431
-0.807689 -9.825883 -162.952797
-0.717873 -9.947750 -162.951740
-0.628057 -10.069618 -162.950683
-0.538241 -10.191485 -162.949626
-0.448425 -10.313352 -162.948569
-0.358609 -10.435219 -162.947512
-0.268794 -10.557086 -162.946455
-0.165133 -10.578001 -162.947821
-0.061473 -10.598916 -162.949187
0.028343 -10.720783 -162.948130
0.132003 -10.741698 -162.949496
0.221819 -10.863565 -162.948439
0.325479 -10.884480 -162.949805
0.415295 -11.006347 -162.948748
0.518955 -11.027263 -162.950114
0.622615 -11.048178 -162.951480
0.726275 -11.069093 -162.952846
0.816091 -11.190960 -162.951788
0.919751 -11.211875 -162.953154
1.023411 -11.232790 -162.954520
1.127071 -11.253705 -162.955886
1.230732 -11.274620 -162.957253
1.334392 -11.295535 -162.958619
1.438052 -11.316451 -162.959985
1.541712 -11.337366 -162.961351
1.645372 -11.358281 -162.962717
1.749032 -11.379196 -162.964083
1.838848 -11.501063 -162.963025
1.942508 -11.521978 -162.964392
2.046168 -11.542893 -162.965758
2.149829 -11.563808 -162.967124
2.253489 -11.584724 -162.968490
2.357149 -11.605639 -162.969856
2.460809 -11.626554 -162.971222
2.564469 -11.647469 -162.972588
2.668129 -11.668384 -162.973954
2.771790 -11.689299 -162.975320
2.875450 -11.710214 -162.976686
2.979110 -11.731129 -162.978052
3.082770 -11.752045 -162.979418
3.186430 -11.772960 -162.980784
3.290090 -11.793875 -162.982150
3.393751 -11.814790 -162.983516
3.497411 -11.835705 -162.984882
3.614915 -11.755668 -162.988671
3.718575 -11.776583 -162.990037
3.822236 -11.797499 -162.991403
3.925896 -11.818414 -162.992769
4.029556 -11.839329 -162.994135
4.133216 -11.860244 -162.995501
4.236876 -11.881159 -162.996867
4.354381 -11.801122 -163.000656
4.471885 -11.721086 -163.004445
4.589390 -11.641049 -163.008234
4.693050 -11.661964 -163.009600
4.810554 -11.581927 -163.013390
4.914214 -11.602842 -163.014756
5.031719 -11.522805 -163.018545
5.163068 -11.341817 -163.024757
5.280572 -11.261780 -163.028546
5.398077 -11.181743 -163.032335
5.529426 -11.000755 -163.038548
5.646930 -10.920718 -163.042337
5.764434 -10.840681 -163.046126
5.881939 -10.760644 -163.049915
5.985599 -10.781559 -163.051281
6.103104 -10.701523 -163.055070
6.234452 -10.520534 -163.061282
6.365801 -10.339545 -163.067495
6.483306 -10.259508 -163.071284
6.586966 -10.280424 -163.072650
6.704470 -10.200387 -163.076439
6.835819 -10.019398 -163.082651
6.953324 -9.939361 -163.086440
7.070828 -9.859324 -163.090229
7.174488 -9.880240 -163.091595
7.278148 -9.901155 -163.092961
7.381809 -9.922070 -163.094328
7.499313 -9.842033 -163.098117
7.602973 -9.862948 -163.099483
7.720478 -9.782911 -163.103272
7.837982 -9.702875 -163.107061
7.969331 -9.521886 -163.113273
8.086836 -9.441849 -163.117062
8.204340 -9.361812 -163.120851
8.308000 -9.382728 -163.122218
8.425505 -9.302691 -163.126007
8.529165 -9.323606 -163.127373
8.646669 -9.243569 -163.131162
8.764174 -9.163532 -163.134951
8.867834 -9.184447 -163.136317
8.985338 -9.104411 -163.140106
9.102843 -9.024374 -163.143895
-0.920697 -9.460171 -162.915249
-0.743495 -9.615152 -162.911769
-0.604778 -9.675784 -162.910712
-0.427576 -9.830765 -162.907231
-0.250373 -9.985746 -162.903751
0.003802 -10.329426 -162.895425
0.181005 -10.484407 -162.891945
0.319721 -10.545039 -162.890887
0.458438 -10.605671 -162.889830
0.597154 -10.666303 -162.888773
0.735870 -10.726935 -162.887716
0.990046 -11.070615 -162.879390
1.128762 -11.131247 -162.878332
1.267478 -11.191879 -162.877275
1.406194 -11.252511 -162.876218
1.544911 -11.313143 -162.875161
1.683627 -11.373776 -162.874104
1.822343 -11.434408 -162.873047
1.961060 -11.495040 -162.871990
2.061290 -11.461323 -162.873356
2.200006 -11.521955 -162.872299
2.338722 -11.582587 -162.871242
2.669870 -12.114965 -162.858069
2.770100 -12.081248 -162.859435
2.908817 -12.141880 -162.858378
3.009047 -12.108163 -162.859744
3.109276 -12.074446 -162.861110
3.209506 -12.040729 -162.862476
3.309736 -12.007012 -162.863842
3.409966 -11.973295 -162.865208
3.510196 -11.939578 -162.866574
3.610426 -11.905861 -162.867940
3.749142 -11.966493 -162.866883
3.849372 -11.932776 -162.868249
3.949602 -11.899059 -162.869615
4.049832 -11.865342 -162.870981
4.150062 -11.831625 -162.872347
4.211806 -11.703559 -162.876136
4.312036 -11.669842 -162.877502
4.450752 -11.730474 -162.876445
4.550982 -11.696757 -162.877811
4.651212 -11.663040 -162.879177
4.751442 -11.629323 -162.880543
4.851671 -11.595606 -162.881909
4.951901 -11.561889 -162.883275
5.052131 -11.528172 -162.884641
5.152361 -11.494455 -162.886007
5.252591 -11.460738 -162.887373
5.352821 -11.427021 -162.888739
5.453051 -11.393304 -162.890105
5.514795 -11.265238 -162.893894
5.615025 -11.231521 -162.895260
5.715254 -11.197804 -162.896626
5.815484 -11.164087 -162.897992
5.915714 -11.130370 -162.899358
6.015944 -11.096653 -162.900724
6.116174 -11.062936 -162.902090
6.216404 -11.029219 -162.903456
6.316634 -10.995502 -162.904822
6.416864 -10.961785 -162.906188
6.517094 -10.928068 -162.907554
6.617324 -10.894351 -162.908920
6.717554 -10.860634 -162.910286
6.817784 -10.826917 -162.911652
6.918013 -10.793200 -162.913018
7.018243 -10.759483 -162.914384
7.118473 -10.725766 -162.915751
7.218703 -10.692049 -162.917117
7.318933 -10.658332 -162.918483
7.419163 -10.624615 -162.919849
7.480907 -10.496549 -162.923638
7.581137 -10.462832 -162.925004
7.681367 -10.429115 -162.926370
7.781596 -10.395398 -162.927736
7.881826 -10.361681 -162.929102
7.982056 -10.327964 -162.930468
8.082286 -10.294247 -162.931834
8.144030 -10.166181 -162.935623
8.244260 -10.132464 -162.936989
8.344490 -10.098747 -162.938355
8.444720 -10.065030 -162.939721
8.506463 -9.936963 -162.943510
8.606693 -9.903246 -162.944876
8.706923 -9.869529 -162.946242
8.807153 -9.835812 -162.947608
8.907383 -9.802095 -162.948974
9.007613 -9.768378 -162.950340
9.107843 -9.734661 -162.951706
9.208073 -9.700944 -162.953072
9.308302 -9.667227 -162.954438
9.408532 -9.633510 -162.955804
9.508762 -9.599793 -162.957170
9.570506 -9.471727 -162.960959
9.670736 -9.438010 -162.962325
9.732479 -9.309944 -162.966115
9.832709 -9.276227 -162.967481
9.932939 -9.242510 -162.968847
10.033169 -9.208793 -162.970213
10.133399 -9.175076 -162.971579
10.233629 -9.141359 -162.972945
10.333859 -9.107642 -162.974311
10.434089 -9.073925 -162.975677
10.495832 -8.945859 -162.979466
10.596062 -8.912142 -162.980832
10.657806 -8.784076 -162.984621
10.758036 -8.750359 -162.985987
10.858266 -8.716642 -162.987353
10.920009 -8.588576 -162.991142
11.020239 -8.554859 -162.992508
11.120469 -8.521142 -162.993874
11.182213 -8.393076 -162.997663
11.282442 -8.359359 -162.999029
11.382672 -8.325642 -163.000395
11.482902 -8.291925 -163.001761
11.352214 -7.692113 -163.017666
11.413958 -7.564047 -163.021455
11.475701 -7.435981 -163.025244
11.537445 -7.307915 -163.029034
11.599188 -7.179849 -163.032823
11.660932 -7.051783 -163.036612
11.684189 -6.829367 -163.042824
11.438041 -5.946508 -163.065998
