ply
format ascii 1.0
element vertex 1301
property float x
property float y
property float z
element face 0
property list uchar uint vertex_indices
end_header
2.881000 -11.844587 -161.842768
3.111952 -11.890204 -161.839288
3.262400 -11.873354 -161.838231
3.412848 -11.856505 -161.837173
4.046324 -12.214449 -161.821578
4.196772 -12.197600 -161.820521
4.347220 -12.180751 -161.819463
4.497667 -12.163902 -161.818406
4.648115 -12.147053 -161.817349
4.798563 -12.130204 -161.816292
4.868506 -12.050889 -161.817658
5.018954 -12.034040 -161.816601
5.088897 -11.954725 -161.817967
5.239345 -11.937876 -161.816910
5.389793 -11.921027 -161.815853
5.540241 -11.904178 -161.814796
5.690689 -11.887329 -161.813739
5.760632 -11.808014 -161.815105
5.911080 -11.791165 -161.814047
5.981023 -11.711850 -161.815414
6.131471 -11.695001 -161.814356
6.201414 -11.615686 -161.815722
6.351862 -11.598837 -161.814665
6.421805 -11.519522 -161.816031
6.572253 -11.502673 -161.814974
6.642196 -11.423359 -161.816340
6.792644 -11.406509 -161.815283
6.862587 -11.327195 -161.816649
7.013035 -11.310346 -161.815592
7.082978 -11.231031 -161.816958
7.152921 -11.151716 -161.818324
7.303369 -11.134867 -161.817267
7.373312 -11.055552 -161.818633
7.443255 -10.976238 -161.819999
7.593703 -10.959389 -161.818942
7.663646 -10.880074 -161.820308
7.733589 -10.800759 -161.821674
7.884037 -10.783910 -161.820617
7.953980 -10.704595 -161.821983
8.023923 -10.625281 -161.823349
8.174371 -10.608432 -161.822292
8.244314 -10.529117 -161.823658
8.394762 -10.512268 -161.822601
8.545210 -10.495419 -161.821544
8.615153 -10.416104 -161.822910
8.765601 -10.399255 -161.821852
8.835544 -10.319940 -161.823218
8.905487 -10.240625 -161.824584
8.975431 -10.161311 -161.825950
9.125878 -10.144462 -161.824893
9.195822 -10.065147 -161.826259
9.346269 -10.048298 -161.825202
9.416213 -9.968983 -161.826568
9.486156 -9.889668 -161.827934
9.636604 -9.872819 -161.826877
9.706547 -9.793505 -161.828243
9.776490 -9.714190 -161.829609
9.926938 -9.697341 -161.828552
9.996881 -9.618026 -161.829918
10.066824 -9.538711 -161.831284
10.217272 -9.521862 -161.830227
10.287215 -9.442547 -161.831593
10.357158 -9.363233 -161.832959
10.427101 -9.283918 -161.834325
10.577549 -9.267069 -161.833268
10.647492 -9.187754 -161.834634
10.717435 -9.108440 -161.836000
10.787379 -9.029125 -161.837366
10.937826 -9.012276 -161.836309
11.007770 -8.932961 -161.837675
11.077713 -8.853646 -161.839041
11.147656 -8.774332 -161.840407
11.217599 -8.695017 -161.841773
11.287542 -8.615702 -161.843139
11.357485 -8.536388 -161.844505
11.427429 -8.457073 -161.845871
11.497372 -8.377758 -161.847237
11.567315 -8.298444 -161.848603
11.637258 -8.219129 -161.849969
11.707201 -8.139814 -161.851335
11.777144 -8.060500 -161.852701
11.766583 -7.918719 -161.856490
11.836526 -7.839405 -161.857856
11.906469 -7.760090 -161.859222
11.976412 -7.680775 -161.860588
12.046355 -7.601461 -161.861954
12.116299 -7.522146 -161.863320
12.186242 -7.442831 -161.864686
12.256185 -7.363517 -161.866052
12.245623 -7.221736 -161.869842
12.315567 -7.142422 -161.871208
12.305005 -7.000641 -161.874997
12.374948 -6.921327 -161.876363
12.364387 -6.779546 -161.880152
12.434330 -6.700232 -161.881518
12.504273 -6.620917 -161.882884
12.493711 -6.479137 -161.886673
12.563655 -6.399822 -161.888039
12.553093 -6.258042 -161.891828
12.542532 -6.116262 -161.895617
12.531970 -5.974481 -161.899406
12.440904 -5.770236 -161.905619
12.430342 -5.628455 -161.909408
12.419781 -5.486675 -161.913197
12.409219 -5.344895 -161.916986
12.398658 -5.203115 -161.920775
12.388096 -5.061335 -161.924564
12.377535 -4.919554 -161.928354
12.366973 -4.777774 -161.932143
12.356412 -4.635994 -161.935932
12.345850 -4.494214 -161.939721
12.415793 -4.414899 -161.941087
12.405232 -4.273119 -161.944876
12.314165 -4.068873 -161.951088
12.223099 -3.864627 -161.957301
12.132033 -3.660381 -161.963513
12.121472 -3.518601 -161.967302
12.110910 -3.376821 -161.971091
12.100348 -3.235041 -161.974880
12.089787 -3.093261 -161.978669
11.918216 -2.826549 -161.987305
11.907655 -2.684769 -161.991094
11.897093 -2.542989 -161.994883
11.725522 -2.276277 -162.003519
11.714961 -2.134497 -162.007308
11.623894 -1.930251 -162.013520
11.371819 -1.601075 -162.024578
11.361257 -1.459294 -162.028368
11.350696 -1.317514 -162.032157
11.340134 -1.175734 -162.035946
11.249068 -0.971488 -162.042158
11.238506 -0.829708 -162.045947
6.115516 -11.484340 -161.845713
6.742143 -11.463746 -161.832540
6.763058 -11.360086 -161.833906
6.884925 -11.270270 -161.832849
7.006792 -11.180454 -161.831792
7.229611 -11.104483 -161.828311
7.452430 -11.028511 -161.824831
7.877153 -10.980228 -161.816505
7.999020 -10.890413 -161.815448
8.120887 -10.800597 -161.814391
8.242754 -10.710781 -161.813333
8.364621 -10.620965 -161.812276
8.587440 -10.544994 -161.808796
8.709307 -10.455178 -161.807739
8.831174 -10.365362 -161.806682
8.953041 -10.275546 -161.805625
9.074908 -10.185730 -161.804568
9.196775 -10.095914 -161.803511
9.621498 -10.047632 -161.795184
9.743365 -9.957816 -161.794127
9.865232 -9.868000 -161.793070
9.987099 -9.778184 -161.792013
10.108966 -9.688368 -161.790956
10.230833 -9.598552 -161.789899
10.251748 -9.494892 -161.791265
10.373615 -9.405076 -161.790207
10.495482 -9.315261 -161.789150
10.516397 -9.211600 -161.790516
10.638264 -9.121785 -161.789459
10.760131 -9.031969 -161.788402
10.881998 -8.942153 -161.787345
11.003865 -8.852337 -161.786288
11.125732 -8.762521 -161.785231
11.247599 -8.672705 -161.784174
11.268515 -8.569045 -161.785540
11.289430 -8.465385 -161.786906
11.411297 -8.375569 -161.785849
11.533164 -8.285754 -161.784791
11.655031 -8.195938 -161.783734
11.776898 -8.106122 -161.782677
11.797813 -8.002462 -161.784043
11.919680 -7.912646 -161.782986
11.940595 -7.808986 -161.784352
12.062462 -7.719170 -161.783295
12.083377 -7.615510 -161.784661
12.205244 -7.525694 -161.783604
12.226160 -7.422034 -161.784970
12.348027 -7.332218 -161.783913
12.368942 -7.228558 -161.785279
12.389857 -7.124898 -161.786645
12.410772 -7.021237 -161.788011
12.431687 -6.917577 -161.789377
12.452602 -6.813917 -161.790743
12.574469 -6.724101 -161.789686
12.595384 -6.620441 -161.791052
12.616300 -6.516781 -161.792418
12.637215 -6.413121 -161.793784
12.658130 -6.309461 -161.795150
12.679045 -6.205800 -161.796516
12.699960 -6.102140 -161.797882
12.720875 -5.998480 -161.799248
12.741790 -5.894820 -161.800614
12.762706 -5.791160 -161.801980
12.783621 -5.687500 -161.803346
12.703584 -5.569995 -161.807135
12.724499 -5.466335 -161.808501
12.745414 -5.362675 -161.809867
12.766329 -5.259015 -161.811233
12.686292 -5.141510 -161.815022
12.707208 -5.037850 -161.816388
12.627171 -4.920346 -161.820178
12.648086 -4.816685 -161.821544
12.568049 -4.699181 -161.825333
12.588964 -4.595521 -161.826699
12.508928 -4.478016 -161.830488
12.529843 -4.374356 -161.831854
12.449806 -4.256852 -161.835643
12.470721 -4.153191 -161.837009
12.491636 -4.049531 -161.838375
12.411599 -3.932027 -161.842164
12.432514 -3.828367 -161.843530
12.453430 -3.724706 -161.844896
12.474345 -3.621046 -161.846262
12.394308 -3.503542 -161.850051
12.415223 -3.399882 -161.851417
12.436138 -3.296222 -161.852783
12.356101 -3.178717 -161.856573
12.377017 -3.075057 -161.857939
12.296980 -2.957552 -161.861728
12.317895 -2.853892 -161.863094
12.338810 -2.750232 -161.864460
12.258773 -2.632728 -161.868249
12.279688 -2.529067 -161.869615
12.199652 -2.411563 -161.873404
12.220567 -2.307903 -161.874770
12.140530 -2.190398 -161.878559
12.060493 -2.072894 -161.882348
12.081408 -1.969234 -161.883714
12.102323 -1.865573 -161.885080
12.022287 -1.748069 -161.888869
12.043202 -1.644409 -161.890235
11.963165 -1.526904 -161.894025
11.984080 -1.423244 -161.895391
11.904043 -1.305740 -161.899180
11.824007 -1.188235 -161.902969
11.844922 -1.084575 -161.904335
11.764885 -0.967071 -161.908124
11.785800 -0.863410 -161.909490
11.806715 -0.759750 -161.910856
11.827630 -0.656090 -161.912222
11.848545 -0.552430 -161.913588
11.768509 -0.434925 -161.917377
11.789424 -0.331265 -161.918743
11.810339 -0.227605 -161.920109
11.831254 -0.123945 -161.921475
11.751217 -0.006440 -161.925264
11.772132 0.097220 -161.926630
11.692096 0.214724 -161.930420
11.713011 0.318384 -161.931786
11.632974 0.435889 -161.935575
11.552937 0.553393 -161.939364
11.573852 0.657053 -161.940730
11.493816 0.774558 -161.944519
11.514731 0.878218 -161.945885
11.434694 0.995723 -161.949674
11.455609 1.099383 -161.951040
11.274620 1.230732 -161.957253
11.194584 1.348236 -161.961042
11.114547 1.465741 -161.964831
11.135462 1.569401 -161.966197
11.156377 1.673061 -161.967563
11.076340 1.790565 -161.971352
10.996303 1.908070 -161.975141
10.815315 2.039419 -161.981353
12.137125 -7.921563 -161.810993
12.292106 -7.744360 -161.807512
12.352738 -7.605644 -161.806455
12.790767 -7.312982 -161.795706
12.851399 -7.174266 -161.794648
12.817682 -7.074036 -161.796014
12.878314 -6.935320 -161.794957
12.844597 -6.835090 -161.796323
12.810880 -6.734860 -161.797689
12.871512 -6.596143 -161.796632
13.026493 -6.418941 -161.793152
13.087125 -6.280224 -161.792095
13.147758 -6.141508 -161.791038
13.208390 -6.002792 -161.789981
13.174673 -5.902562 -161.791347
13.235305 -5.763846 -161.790290
13.201588 -5.663616 -161.791656
13.262220 -5.524899 -161.790599
13.228503 -5.424669 -161.791965
13.289135 -5.285953 -161.790907
13.255418 -5.185723 -161.792273
13.221701 -5.085493 -161.793640
13.187984 -4.985263 -161.795006
13.154267 -4.885033 -161.796372
13.120550 -4.784804 -161.797738
13.086833 -4.684574 -161.799104
13.147465 -4.545857 -161.798046
13.113748 -4.445627 -161.799412
13.080031 -4.345397 -161.800778
13.046314 -4.245168 -161.802145
13.012597 -4.144938 -161.803511
12.978880 -4.044708 -161.804877
12.945163 -3.944478 -161.806243
12.911446 -3.844248 -161.807609
12.972078 -3.705532 -161.806551
12.938361 -3.605302 -161.807917
12.904644 -3.505072 -161.809283
12.870927 -3.404842 -161.810650
12.931559 -3.266126 -161.809592
12.897842 -3.165896 -161.810958
12.864125 -3.065666 -161.812324
12.830408 -2.965436 -161.813690
12.796691 -2.865206 -161.815056
12.762974 -2.764976 -161.816422
12.729257 -2.664746 -161.817788
12.695540 -2.564516 -161.819155
12.661823 -2.464286 -161.820521
12.722455 -2.325570 -161.819463
12.688738 -2.225340 -161.820829
12.655021 -2.125110 -161.822195
12.621304 -2.024880 -161.823561
12.587587 -1.924650 -161.824927
12.553870 -1.824420 -161.826294
12.520153 -1.724190 -161.827660
12.486436 -1.623960 -161.829026
12.452719 -1.523730 -161.830392
12.419002 -1.423501 -161.831758
12.385285 -1.323271 -161.833124
12.445918 -1.184554 -161.832066
12.412201 -1.084324 -161.833432
12.378484 -0.984094 -161.834799
12.344767 -0.883865 -161.836165
12.311050 -0.783635 -161.837531
12.277333 -0.683405 -161.838897
12.243616 -0.583175 -161.840263
12.209899 -0.482945 -161.841629
12.176182 -0.382715 -161.842995
12.142465 -0.282485 -161.844361
12.108748 -0.182255 -161.845727
12.075031 -0.082025 -161.847093
12.135663 0.056691 -161.846036
12.101946 0.156921 -161.847402
12.068229 0.257151 -161.848768
12.034512 0.357381 -161.850134
12.000795 0.457611 -161.851500
11.967078 0.557841 -161.852866
11.933361 0.658071 -161.854232
11.899644 0.758301 -161.855598
11.865927 0.858531 -161.856964
11.832210 0.958760 -161.858330
11.798493 1.058990 -161.859696
11.764776 1.159220 -161.861062
11.825408 1.297937 -161.860005
11.791691 1.398167 -161.861371
11.757974 1.498396 -161.862737
11.724257 1.598626 -161.864103
11.690540 1.698856 -161.865469
11.656823 1.799086 -161.866835
11.623106 1.899316 -161.868201
11.589389 1.999546 -161.869567
11.555672 2.099776 -161.870933
11.521955 2.200006 -161.872299
11.488238 2.300236 -161.873665
11.454521 2.400466 -161.875031
11.420804 2.500696 -161.876397
11.387087 2.600926 -161.877763
11.447719 2.739642 -161.876706
11.414002 2.839872 -161.878072
11.380285 2.940102 -161.879438
11.346568 3.040332 -161.880804
11.312851 3.140562 -161.882170
11.279134 3.240791 -161.883536
11.245417 3.341021 -161.884902
11.211700 3.441251 -161.886268
11.177983 3.541481 -161.887634
11.144266 3.641711 -161.889000
11.110549 3.741941 -161.890366
11.076832 3.842171 -161.891732
11.043115 3.942401 -161.893098
11.009398 4.042631 -161.894464
10.975681 4.142861 -161.895830
10.941964 4.243091 -161.897196
10.813898 4.304834 -161.900985
10.780181 4.405064 -161.902351
10.746464 4.505294 -161.903717
10.712747 4.605524 -161.905083
10.679030 4.705754 -161.906449
10.645313 4.805984 -161.907815
10.611596 4.906214 -161.909181
10.483530 4.967957 -161.912970
10.449813 5.068187 -161.914336
10.321747 5.129931 -161.918125
10.288030 5.230161 -161.919491
10.254313 5.330391 -161.920858
10.220596 5.430621 -161.922224
10.186879 5.530851 -161.923590
10.153162 5.631080 -161.924956
10.025096 5.692824 -161.928745
9.991379 5.793054 -161.930111
9.957662 5.893284 -161.931477
9.829595 5.955027 -161.935266
9.795878 6.055257 -161.936632
9.667812 6.117001 -161.940421
9.539746 6.178744 -161.944210
9.411680 6.240488 -161.947999
9.377963 6.340718 -161.949365
9.249897 6.402461 -161.953154
9.121831 6.464205 -161.956944
8.993765 6.525949 -161.960733
8.960048 6.626178 -161.962099
8.831982 6.687922 -161.965888
8.609566 6.711179 -161.972100
8.575849 6.811409 -161.973466
8.447783 6.873153 -161.977255
8.414066 6.973383 -161.978621
8.286000 7.035126 -161.982410
8.063585 7.058383 -161.988623
7.935519 7.120127 -161.992412
7.901802 7.220357 -161.993778
7.868085 7.320587 -161.995144
7.834368 7.420817 -161.996510
7.706302 7.482560 -162.000299
7.672585 7.582790 -162.001665
7.638868 7.683020 -162.003031
7.510802 7.744764 -162.006820
7.382736 7.806507 -162.010609
7.254669 7.868251 -162.014399
7.032254 7.891508 -162.020611
13.196644 -5.361943 -161.889541
13.492123 -4.808971 -161.876369
13.537739 -4.578018 -161.872888
13.520890 -4.427570 -161.871831
13.504041 -4.277122 -161.870774
13.487191 -4.126674 -161.869717
13.470342 -3.976226 -161.868660
13.453493 -3.825778 -161.867603
13.436644 -3.675330 -161.866546
13.357329 -3.605387 -161.867912
13.340480 -3.454939 -161.866855
13.261165 -3.384996 -161.868221
13.244316 -3.234548 -161.867164
13.165001 -3.164605 -161.868530
13.148151 -3.014157 -161.867473
13.131302 -2.863709 -161.866415
13.114453 -2.713261 -161.865358
13.097604 -2.562813 -161.864301
13.018289 -2.492870 -161.865667
12.938974 -2.422927 -161.867033
12.859659 -2.352984 -161.868399
12.842810 -2.202536 -161.867342
12.763495 -2.132593 -161.868708
12.684180 -2.062649 -161.870074
12.729797 -1.831697 -161.866594
12.775413 -1.600744 -161.863114
12.758564 -1.450296 -161.862057
12.741715 -1.299848 -161.861000
12.724865 -1.149400 -161.859942
12.708016 -0.998952 -161.858885
12.691167 -0.848504 -161.857828
12.611852 -0.778561 -161.859194
12.595003 -0.628113 -161.858137
12.578153 -0.477665 -161.857080
12.498839 -0.407722 -161.858446
12.481989 -0.257274 -161.857389
12.465140 -0.106826 -161.856332
12.448291 0.043622 -161.855275
12.431442 0.194070 -161.854218
12.414592 0.344518 -161.853160
12.397743 0.494966 -161.852103
12.380894 0.645414 -161.851046
12.364045 0.795862 -161.849989
12.284730 0.865805 -161.851355
12.267881 1.016253 -161.850298
12.188566 1.086196 -161.851664
12.109251 1.156139 -161.853030
12.029936 1.226082 -161.854396
11.950621 1.296025 -161.855762
11.933772 1.446473 -161.854705
11.854457 1.516416 -161.856071
11.775143 1.586360 -161.857437
11.695828 1.656303 -161.858803
11.803910 1.967760 -161.852900
11.724595 2.037703 -161.854266
11.707746 2.188151 -161.853209
11.628431 2.258095 -161.854575
11.611582 2.408542 -161.853518
11.532267 2.478486 -161.854884
11.390486 2.467924 -161.858673
11.498568 2.779382 -161.852769
11.481719 2.929829 -161.851712
11.464870 3.080277 -161.850655
11.385555 3.150221 -161.852021
11.368706 3.300669 -161.850964
11.289391 3.370612 -161.852330
11.272542 3.521060 -161.851273
11.193227 3.591003 -161.852639
11.176378 3.741451 -161.851582
11.097063 3.811394 -161.852948
11.080214 3.961842 -161.851891
11.125830 4.192795 -161.848411
11.108981 4.343243 -161.847353
11.092131 4.493690 -161.846296
11.012817 4.563634 -161.847662
10.995967 4.714082 -161.846605
10.916652 4.784025 -161.847971
10.837338 4.853968 -161.849337
10.820488 5.004416 -161.848280
10.741174 5.074359 -161.849646
10.661859 5.144302 -161.851012
10.645010 5.294750 -161.849955
10.565695 5.364693 -161.851321
10.548846 5.515141 -161.850264
10.469531 5.585084 -161.851630
10.452682 5.735532 -161.850573
10.373367 5.805475 -161.851939
10.294052 5.875419 -161.853305
10.214737 5.945362 -161.854671
10.135422 6.015305 -161.856037
10.056108 6.085248 -161.857403
10.039258 6.235696 -161.856346
9.959944 6.305639 -161.857712
9.943094 6.456087 -161.856655
9.863779 6.526030 -161.858021
9.784465 6.595973 -161.859387
9.705150 6.665917 -161.860753
9.625835 6.735860 -161.862119
9.546520 6.805803 -161.863485
9.467206 6.875746 -161.864851
9.450356 7.026194 -161.863794
9.371041 7.096137 -161.865160
9.291727 7.166080 -161.866526
9.212412 7.236024 -161.867892
9.133097 7.305967 -161.869258
9.053782 7.375910 -161.870624
8.974467 7.445853 -161.871990
8.895153 7.515796 -161.873356
8.815838 7.585739 -161.874722
8.736523 7.655682 -161.876088
8.594743 7.645121 -161.879877
8.515428 7.715064 -161.881243
8.436113 7.785007 -161.882609
8.356798 7.854950 -161.883975
8.215018 7.844389 -161.887764
8.135703 7.914332 -161.889130
8.056389 7.984275 -161.890496
7.977074 8.054218 -161.891862
7.835293 8.043657 -161.895651
7.755979 8.113600 -161.897017
7.676664 8.183543 -161.898383
7.597349 8.253486 -161.899749
7.518034 8.323429 -161.901115
7.438719 8.393372 -161.902481
7.359405 8.463316 -161.903848
7.217624 8.452754 -161.907637
7.138310 8.522697 -161.909003
7.058995 8.592640 -161.910369
6.979680 8.662583 -161.911735
6.837900 8.652022 -161.915524
6.758585 8.721965 -161.916890
6.616804 8.711403 -161.920679
6.537490 8.781346 -161.922045
6.458175 8.851290 -161.923411
6.378860 8.921233 -161.924777
6.112149 8.749662 -161.933412
5.970368 8.739100 -161.937202
5.891054 8.809043 -161.938568
5.749273 8.798481 -161.942357
5.607493 8.787920 -161.946146
5.528178 8.857863 -161.947512
5.386398 8.847301 -161.951301
5.244617 8.836740 -161.955090
5.102837 8.826178 -161.958879
4.898591 8.735112 -161.965092
4.819276 8.805055 -161.966458
4.677496 8.794493 -161.970247
4.535716 8.783932 -161.974036
10.261013 5.739871 -161.875278
10.185041 5.962690 -161.871797
10.095225 6.084557 -161.870740
10.005409 6.206424 -161.869683
9.901749 6.227339 -161.871049
9.811933 6.349206 -161.869992
9.708273 6.370121 -161.871358
9.618457 6.491988 -161.870301
9.542486 6.714807 -161.866821
9.452670 6.836674 -161.865764
9.362854 6.958541 -161.864706
9.273038 7.080408 -161.863649
9.169378 7.101324 -161.865015
9.065718 7.122239 -161.866381
8.962058 7.143154 -161.867747
8.858398 7.164069 -161.869113
8.768582 7.285936 -161.868056
8.664922 7.306851 -161.869422
8.588950 7.529670 -161.865942
8.499135 7.651537 -161.864885
8.423163 7.874356 -161.861405
8.333347 7.996223 -161.860348
8.229687 8.017138 -161.861714
8.153716 8.239957 -161.858233
8.063900 8.361824 -161.857176
7.974084 8.483691 -161.856119
7.870424 8.504606 -161.857485
7.780608 8.626473 -161.856428
7.676948 8.647389 -161.857794
7.573288 8.668304 -161.859160
7.469627 8.689219 -161.860526
7.365967 8.710134 -161.861892
7.276151 8.832001 -161.860835
7.172491 8.852916 -161.862201
7.068831 8.873831 -161.863567
6.965171 8.894746 -161.864933
6.861511 8.915662 -161.866299
6.771695 9.037529 -161.865242
6.668035 9.058444 -161.866608
6.564375 9.079359 -161.867974
6.460714 9.100274 -161.869340
6.357054 9.121189 -161.870706
6.253394 9.142104 -161.872072
6.149734 9.163019 -161.873438
6.046074 9.183935 -161.874804
5.942414 9.204850 -161.876170
5.838753 9.225765 -161.877536
5.735093 9.246680 -161.878902
5.617589 9.166643 -161.882691
5.513929 9.187558 -161.884057
5.410269 9.208473 -161.885423
5.306608 9.229389 -161.886789
5.202948 9.250304 -161.888155
5.099288 9.271219 -161.889521
4.995628 9.292134 -161.890887
4.891968 9.313049 -161.892253
4.788308 9.333964 -161.893619
4.670803 9.253927 -161.897409
4.567143 9.274843 -161.898775
4.463483 9.295758 -161.900141
4.359823 9.316673 -161.901507
4.256162 9.337588 -161.902873
4.138658 9.257551 -161.906662
4.034998 9.278466 -161.908028
3.903649 9.097478 -161.914240
3.786144 9.017441 -161.918029
3.682484 9.038356 -161.919395
3.578824 9.059271 -161.920761
3.475164 9.080186 -161.922127
3.357660 9.000149 -161.925916
3.253999 9.021065 -161.927282
3.136495 8.941028 -161.931072
3.018990 8.860991 -161.934861
2.901486 8.780954 -161.938650
2.783981 8.700917 -161.942439
2.680321 8.721833 -161.943805
2.562817 8.641796 -161.947594
2.459157 8.662711 -161.948960
2.341652 8.582674 -161.952749
2.237992 8.603589 -161.954115
2.134332 8.624504 -161.955481
2.016827 8.544468 -161.959270
1.899323 8.464431 -161.963060
1.795663 8.485346 -161.964426
1.678158 8.405309 -161.968215
1.560654 8.325272 -161.972004
1.456994 8.346188 -161.973370
1.339489 8.266151 -161.977159
1.221985 8.186114 -161.980948
1.118324 8.207029 -161.982314
1.014664 8.227944 -161.983680
0.897160 8.147907 -161.987469
0.779655 8.067871 -161.991258
0.675995 8.088786 -161.992625
0.544646 7.907797 -161.998837
7.526191 8.356066 -161.916601
7.387475 8.416698 -161.915544
7.287245 8.382981 -161.916910
7.148528 8.443613 -161.915853
6.855867 8.881642 -161.905103
6.717150 8.942274 -161.904046
6.616920 8.908557 -161.905412
6.478204 8.969189 -161.904355
6.377974 8.935472 -161.905721
6.200771 9.090453 -161.902241
6.100542 9.056736 -161.903607
6.000312 9.023019 -161.904973
5.900082 8.989302 -161.906339
5.838338 8.861236 -161.910128
5.738108 8.827519 -161.911494
5.329987 9.548595 -161.893475
5.191271 9.609227 -161.892418
5.052555 9.669859 -161.891361
4.913838 9.730491 -161.890304
4.813609 9.696774 -161.891670
4.674892 9.757407 -161.890613
4.574662 9.723690 -161.891979
4.474432 9.689973 -161.893345
4.374202 9.656256 -161.894711
4.273973 9.622539 -161.896077
4.173743 9.588822 -161.897443
4.035026 9.649454 -161.896386
3.934796 9.615737 -161.897752
3.834566 9.582020 -161.899118
3.734337 9.548303 -161.900484
3.634107 9.514586 -161.901850
3.533877 9.480869 -161.903216
3.433647 9.447152 -161.904582
3.333417 9.413435 -161.905948
3.233187 9.379718 -161.907314
3.132957 9.346001 -161.908680
3.032727 9.312284 -161.910046
2.932497 9.278567 -161.911412
2.832267 9.244850 -161.912778
2.732037 9.211133 -161.914144
2.631807 9.177416 -161.915510
2.531577 9.143699 -161.916876
2.431348 9.109982 -161.918242
2.331118 9.076265 -161.919608
2.230888 9.042548 -161.920974
2.130658 9.008831 -161.922340
2.030428 8.975114 -161.923706
1.930198 8.941397 -161.925072
1.829968 8.907680 -161.926438
1.729738 8.873963 -161.927804
1.629508 8.840246 -161.929170
1.529278 8.806529 -161.930536
1.429048 8.772812 -161.931902
1.328818 8.739095 -161.933268
1.228588 8.705378 -161.934634
1.128359 8.671661 -161.936000
1.028129 8.637944 -161.937366
0.927899 8.604227 -161.938732
0.827669 8.570510 -161.940098
0.727439 8.536793 -161.941464
0.627209 8.503076 -161.942830
0.526979 8.469359 -161.944196
0.426749 8.435642 -161.945562
0.326519 8.401925 -161.946928
0.226289 8.368208 -161.948294
0.164546 8.240142 -161.952083
0.064316 8.206425 -161.953449
-0.035914 8.172708 -161.954815
-0.136144 8.138991 -161.956181
-0.236374 8.105274 -161.957547
-0.298118 7.977207 -161.961337
-0.398347 7.943490 -161.962703
-0.460091 7.815424 -161.966492
-0.560321 7.781707 -161.967858
-0.622064 7.653641 -161.971647
-0.722294 7.619924 -161.973013
-0.822524 7.586207 -161.974379
-0.922754 7.552490 -161.975745
-1.022984 7.518773 -161.977111
-1.084728 7.390707 -161.980900
-1.146471 7.262641 -161.984689
-1.169728 7.040226 -161.990901
-1.231472 6.912160 -161.994691
-1.293216 6.784094 -161.998480
0.962102 9.129802 -161.951500
0.811654 9.112953 -161.950443
0.741711 9.033638 -161.951809
0.671768 8.954323 -161.953175
0.521320 8.937474 -161.952117
0.451377 8.858159 -161.953483
0.300929 8.841310 -161.952426
0.150481 8.824461 -161.951369
0.000033 8.807612 -161.950312
-0.069910 8.728297 -161.951678
-0.220358 8.711448 -161.950621
-0.290301 8.632133 -161.951987
-0.360244 8.552819 -161.953353
-0.430187 8.473504 -161.954719
-0.500130 8.394189 -161.956085
-0.650578 8.377340 -161.955028
-0.720521 8.298026 -161.956394
-0.790464 8.218711 -161.957760
-0.860408 8.139396 -161.959126
-1.010855 8.122547 -161.958069
-1.080799 8.043232 -161.959435
-1.150742 7.963918 -161.960801
-1.220685 7.884603 -161.962167
-1.290628 7.805288 -161.963533
-1.360571 7.725974 -161.964899
-1.430514 7.646659 -161.966265
-1.500458 7.567344 -161.967631
-1.650905 7.550495 -161.966574
-1.720849 7.471180 -161.967940
-1.790792 7.391866 -161.969306
-1.860735 7.312551 -161.970672
-1.930678 7.233236 -161.972038
-2.000621 7.153922 -161.973404
-2.070564 7.074607 -161.974770
-2.140507 6.995292 -161.976136
-2.210451 6.915978 -161.977502
-2.280394 6.836663 -161.978868
-2.350337 6.757348 -161.980234
-2.420280 6.678033 -161.981600
-2.490223 6.598719 -161.982966
-2.560166 6.519404 -161.984332
-2.630110 6.440089 -161.985698
-2.700053 6.360775 -161.987064
-2.769996 6.281460 -161.988430
-2.839939 6.202145 -161.989796
-2.909882 6.122831 -161.991162
-2.979825 6.043516 -161.992528
-3.049769 5.964201 -161.993894
-3.119712 5.884887 -161.995260
-3.189655 5.805572 -161.996626
-3.259598 5.726257 -161.997992
-3.329541 5.646943 -161.999358
-3.399484 5.567628 -162.000724
-3.469427 5.488313 -162.002090
-3.539371 5.408999 -162.003456
-3.609314 5.329684 -162.004822
-3.679257 5.250369 -162.006188
-3.749200 5.171054 -162.007554
-3.819143 5.091740 -162.008920
-3.808582 4.949960 -162.012710
-3.878525 4.870645 -162.014076
-3.948468 4.791330 -162.015442
-4.018411 4.712015 -162.016808
-4.088354 4.632701 -162.018174
-4.158298 4.553386 -162.019540
-4.147736 4.411606 -162.023329
-4.217679 4.332291 -162.024695
-4.287622 4.252977 -162.026061
-4.277061 4.111196 -162.029850
-3.892605 5.533489 -161.998075
-3.913520 5.429829 -161.999441
-4.035387 5.340013 -161.998383
-4.056302 5.236353 -161.999749
-4.077217 5.132693 -162.001115
-4.098132 5.029033 -162.002481
-4.119048 4.925372 -162.003848
-4.240915 4.835557 -162.002790
-4.261830 4.731896 -162.004156
-4.282745 4.628236 -162.005522
-4.303660 4.524576 -162.006888
-4.324575 4.420916 -162.008254
-4.345490 4.317256 -162.009620
-4.366405 4.213596 -162.010987
-4.387320 4.109936 -162.012353
-4.408236 4.006275 -162.013719
-4.429151 3.902615 -162.015085
-4.450066 3.798955 -162.016451
-4.470981 3.695295 -162.017817
-4.491896 3.591635 -162.019183
-4.512811 3.487975 -162.020549
-4.533726 3.384314 -162.021915
-4.554642 3.280654 -162.023281
-4.575557 3.176994 -162.024647
-4.596472 3.073334 -162.026013
-4.617387 2.969674 -162.027379
-4.638302 2.866014 -162.028745
-4.659217 2.762353 -162.030111
-4.680132 2.658693 -162.031477
-4.701047 2.555033 -162.032843
-4.721963 2.451373 -162.034209
-4.742878 2.347713 -162.035575
-4.763793 2.244053 -162.036941
-4.784708 2.140393 -162.038307
-4.805623 2.036732 -162.039673
-4.826538 1.933072 -162.041039
-4.847453 1.829412 -162.042405
-4.868368 1.725752 -162.043771
-4.889284 1.622092 -162.045137
-4.910199 1.518432 -162.046503
-4.931114 1.414771 -162.047869
-4.952029 1.311111 -162.049235
-4.972944 1.207451 -162.050601
-4.993859 1.103791 -162.051967
-5.014774 1.000131 -162.053333
-5.035690 0.896471 -162.054699
-5.056605 0.792810 -162.056065
-5.077520 0.689150 -162.057431
-5.098435 0.585490 -162.058797
-5.119350 0.481830 -162.060163
-5.140265 0.378170 -162.061529
-5.161180 0.274510 -162.062895
-5.182095 0.170849 -162.064261
-5.203011 0.067189 -162.065627
-5.223926 -0.036471 -162.066993
-5.244841 -0.140131 -162.068359
-5.265756 -0.243791 -162.069725
-5.286671 -0.347451 -162.071091
-5.307586 -0.451111 -162.072457
-5.328501 -0.554772 -162.073823
-5.248465 -0.672276 -162.077612
-5.269380 -0.775936 -162.078978
-5.290295 -0.879596 -162.080344
-5.311210 -0.983257 -162.081710
-5.332125 -1.086917 -162.083076
-5.353040 -1.190577 -162.084442
-5.373955 -1.294237 -162.085808
-5.394871 -1.397897 -162.087174
-5.415786 -1.501557 -162.088541
-5.436701 -1.605218 -162.089907
-5.356664 -1.722722 -162.093696
-5.377579 -1.826382 -162.095062
-5.297542 -1.943887 -162.098851
-5.934952 -0.946838 -162.020288
-5.995584 -1.085554 -162.019231
-5.961867 -1.185784 -162.020597
-5.928150 -1.286014 -162.021963
-5.894433 -1.386244 -162.023329
-5.860716 -1.486474 -162.024695
-5.826999 -1.586704 -162.026061
-5.793282 -1.686934 -162.027427
-5.759565 -1.787164 -162.028793
-5.725848 -1.887394 -162.030159
-5.692131 -1.987624 -162.031525
-5.752763 -2.126340 -162.030468
-5.719046 -2.226570 -162.031834
-5.685329 -2.326800 -162.033200
-5.651612 -2.427030 -162.034566
-5.617895 -2.527260 -162.035932
-5.678527 -2.665976 -162.034875
-5.644810 -2.766206 -162.036241
-5.611093 -2.866436 -162.037607
-5.577376 -2.966666 -162.038973
-5.543659 -3.066896 -162.040339
-5.509942 -3.167126 -162.041705
-5.381876 -3.228869 -162.045494
-5.348159 -3.329099 -162.046860
-5.314442 -3.429329 -162.048226
-5.280725 -3.529559 -162.049592
-5.247008 -3.629789 -162.050958
-5.213291 -3.730019 -162.052324
-5.179574 -3.830249 -162.053690
-5.145857 -3.930479 -162.055056
-5.112140 -4.030709 -162.056422
-5.078423 -4.130939 -162.057788
-5.044706 -4.231168 -162.059154
-5.010989 -4.331398 -162.060520
-4.977272 -4.431628 -162.061886
-4.943555 -4.531858 -162.063252
-4.815489 -4.593602 -162.067041
-4.781772 -4.693832 -162.068407
-4.748055 -4.794062 -162.069773
-4.714338 -4.894292 -162.071139
-4.586272 -4.956035 -162.074928
-4.552555 -5.056265 -162.076294
-4.518838 -5.156495 -162.077661
-4.390771 -5.218238 -162.081450
-4.262705 -5.279982 -162.085239
-4.228988 -5.380212 -162.086605
-4.100922 -5.441955 -162.090394
-4.067205 -5.542185 -162.091760
-4.033488 -5.642415 -162.093126
-3.905422 -5.704159 -162.096915
-3.871705 -5.804389 -162.098281
-3.743639 -5.866132 -162.102070
-3.709922 -5.966362 -162.103436
-3.581856 -6.028106 -162.107225
-5.437766 -3.920771 -161.998919
-5.420917 -4.071219 -161.997862
-5.341602 -4.141162 -161.999228
-5.324753 -4.291610 -161.998171
-5.245438 -4.361553 -161.999537
-5.228589 -4.512001 -161.998480
-5.211740 -4.662449 -161.997423
-5.132425 -4.732392 -161.998789
-5.053110 -4.802335 -162.000155
-4.973796 -4.872278 -162.001521
-4.894481 -4.942221 -162.002887
-4.877632 -5.092669 -162.001830
-4.798317 -5.162612 -162.003196
-4.719003 -5.232555 -162.004562
-4.639688 -5.302499 -162.005928
-4.622839 -5.452946 -162.004871
-4.543524 -5.522890 -162.006237
-4.464209 -5.592833 -162.007603
-4.509826 -5.823785 -162.004122
-4.430511 -5.893728 -162.005488
-4.413662 -6.044176 -162.004431
-4.334347 -6.114119 -162.005797
-4.255033 -6.184063 -162.007163
-4.238183 -6.334510 -162.006106
-4.158869 -6.404454 -162.007472
-4.079554 -6.474397 -162.008838
-4.000239 -6.544340 -162.010204
-3.983390 -6.694788 -162.009147
-3.904076 -6.764731 -162.010513
-3.824761 -6.834674 -162.011879
-3.745446 -6.904617 -162.013245
-3.728597 -7.055065 -162.012188
-3.649282 -7.125008 -162.013554
-3.569968 -7.194951 -162.014920
-3.490653 -7.264895 -162.016286
-3.411338 -7.334838 -162.017652
-3.332024 -7.404781 -162.019018
-3.315174 -7.555229 -162.017961
-3.235860 -7.625172 -162.019327
-3.156545 -7.695115 -162.020693
-3.077230 -7.765058 -162.022059
-2.997916 -7.835001 -162.023425
-2.918601 -7.904944 -162.024791
-2.839286 -7.974888 -162.026157
-2.759972 -8.044831 -162.027523
-2.680657 -8.114774 -162.028889
-2.601342 -8.184717 -162.030255
-2.522028 -8.254660 -162.031621
-2.442713 -8.324603 -162.032987
-2.425864 -8.475051 -162.031930
-2.346549 -8.544994 -162.033296
-2.267234 -8.614938 -162.034662
-2.187920 -8.684881 -162.036028
-2.108605 -8.754824 -162.037394
-2.029290 -8.824767 -162.038760
-1.949976 -8.894710 -162.040126
-1.870661 -8.964653 -162.041492
-1.791346 -9.034597 -162.042858
-1.712032 -9.104540 -162.044224
-1.632717 -9.174483 -162.045590
-1.553402 -9.244426 -162.046956
-1.474088 -9.314369 -162.048322
-1.394773 -9.384312 -162.049688
-1.315458 -9.454255 -162.051054
-1.236143 -9.524199 -162.052420
-1.156829 -9.594142 -162.053786
-1.077514 -9.664085 -162.055152
-0.998199 -9.734028 -162.056518
-0.918885 -9.803971 -162.057884
-0.839570 -9.873914 -162.059250
-0.760255 -9.943858 -162.060616
-0.680941 -10.013801 -162.061982
-0.601626 -10.083744 -162.063348
-0.459846 -10.073182 -162.067138
-0.380531 -10.143126 -162.068504
-0.301216 -10.213069 -162.069870
-0.221902 -10.283012 -162.071236
-0.142587 -10.352955 -162.072602
-0.063272 -10.422898 -162.073968
0.016042 -10.492841 -162.075334
0.095357 -10.562784 -162.076700
0.174672 -10.632728 -162.078066
0.253986 -10.702671 -162.079432
0.333301 -10.772614 -162.080798
0.412616 -10.842557 -162.082164
0.554396 -10.831996 -162.085953
0.633711 -10.901939 -162.087319
0.713025 -10.971882 -162.088685
0.792340 -11.041825 -162.090051
0.934120 -11.031264 -162.093840
1.013435 -11.101207 -162.095206
1.092750 -11.171150 -162.096572
1.234530 -11.160588 -162.100361
1.313845 -11.230531 -162.101727
1.455625 -11.219970 -162.105516
1.597405 -11.209408 -162.109306
1.801651 -11.118342 -162.115518
2.005897 -11.027276 -162.121730
2.147677 -11.016714 -162.125519
2.226992 -11.086658 -162.126885
2.368772 -11.076096 -162.130674
2.510552 -11.065535 -162.134464
2.652332 -11.054973 -162.138253
-4.497232 -5.657865 -161.978120
-4.407416 -5.779732 -161.977063
-4.303756 -5.800647 -161.978429
-4.213940 -5.922514 -161.977372
-4.110280 -5.943429 -161.978738
-4.006620 -5.964345 -161.980104
-3.972181 -6.490019 -161.969354
-3.910054 -6.813790 -161.963451
-3.820238 -6.935657 -161.962394
-3.716578 -6.956572 -161.963760
-3.626762 -7.078439 -161.962703
-3.523102 -7.099354 -161.964069
-3.433286 -7.221222 -161.963011
-3.343471 -7.343089 -161.961954
-3.253655 -7.464956 -161.960897
-3.163839 -7.586823 -161.959840
-3.060179 -7.607738 -161.961206
-2.970363 -7.729605 -161.960149
-2.880547 -7.851472 -161.959092
-2.790731 -7.973339 -161.958035
-2.714760 -8.196158 -161.954555
-2.624944 -8.318025 -161.953497
-2.521284 -8.338940 -161.954863
-2.431468 -8.460807 -161.953806
-2.341652 -8.582674 -161.952749
-2.251836 -8.704541 -161.951692
-2.148176 -8.725456 -161.953058
-2.058360 -8.847323 -161.952001
-1.954700 -8.868238 -161.953367
-1.864884 -8.990106 -161.952310
-1.775068 -9.111973 -161.951253
-1.671408 -9.132888 -161.952619
-1.581592 -9.254755 -161.951562
-1.477932 -9.275670 -161.952928
-1.388117 -9.397537 -161.951871
-1.298301 -9.519404 -161.950814
-1.208485 -9.641271 -161.949756
-1.118669 -9.763138 -161.948699
-1.028853 -9.885005 -161.947642
-0.952882 -10.107824 -161.944162
-0.863066 -10.229691 -161.943105
-0.759406 -10.250606 -161.944471
-0.669590 -10.372473 -161.943414
-0.565930 -10.393388 -161.944780
-0.476114 -10.515255 -161.943723
-0.372454 -10.536171 -161.945089
-0.268794 -10.557086 -161.946455
-0.178978 -10.678953 -161.945398
-0.075318 -10.699868 -161.946764
0.014498 -10.821735 -161.945707
0.118158 -10.842650 -161.947073
0.221819 -10.863565 -161.948439
0.311634 -10.985432 -161.947381
0.415295 -11.006347 -161.948748
0.518955 -11.027263 -161.950114
0.608771 -11.149130 -161.949056
0.712431 -11.170045 -161.950422
0.816091 -11.190960 -161.951788
0.919751 -11.211875 -161.953154
1.023411 -11.232790 -161.954520
1.127071 -11.253705 -161.955886
1.230732 -11.274620 -161.957253
1.334392 -11.295535 -161.958619
1.438052 -11.316451 -161.959985
1.541712 -11.337366 -161.961351
1.645372 -11.358281 -161.962717
1.749032 -11.379196 -161.964083
1.838848 -11.501063 -161.963025
1.942508 -11.521978 -161.964392
2.046168 -11.542893 -161.965758
2.149829 -11.563808 -161.967124
2.253489 -11.584724 -161.968490
2.357149 -11.605639 -161.969856
2.460809 -11.626554 -161.971222
2.564469 -11.647469 -161.972588
2.668129 -11.668384 -161.973954
2.771790 -11.689299 -161.975320
2.875450 -11.710214 -161.976686
2.979110 -11.731129 -161.978052
3.082770 -11.752045 -161.979418
3.186430 -11.772960 -161.980784
3.290090 -11.793875 -161.982150
3.393751 -11.814790 -161.983516
3.511255 -11.734753 -161.987305
3.614915 -11.755668 -161.988671
3.718575 -11.776583 -161.990037
3.822236 -11.797499 -161.991403
3.925896 -11.818414 -161.992769
4.029556 -11.839329 -161.994135
4.133216 -11.860244 -161.995501
4.250720 -11.780207 -161.999290
4.354381 -11.801122 -162.000656
4.471885 -11.721086 -162.004445
4.589390 -11.641049 -162.008234
4.693050 -11.661964 -162.009600
4.810554 -11.581927 -162.013390
4.955747 -11.299987 -162.022025
5.073252 -11.219950 -162.025814
5.176912 -11.240865 -162.027180
5.294417 -11.160828 -162.030969
5.398077 -11.181743 -162.032335
5.515581 -11.101706 -162.036124
5.633086 -11.021670 -162.039914
5.750590 -10.941633 -162.043703
5.868095 -10.861596 -162.047492
5.985599 -10.781559 -162.051281
6.103104 -10.701523 -162.055070
6.220608 -10.621486 -162.058859
6.338113 -10.541449 -162.062648
6.455617 -10.461412 -162.066438
6.559277 -10.482327 -162.067804
6.676782 -10.402291 -162.071593
6.821975 -10.120350 -162.080228
6.939479 -10.040313 -162.084017
7.043140 -10.061228 -162.085383
7.146800 -10.082143 -162.086749
7.264304 -10.002107 -162.090538
7.367964 -10.023022 -162.091904
7.485469 -9.942985 -162.095694
7.602973 -9.862948 -162.099483
7.720478 -9.782911 -162.103272
7.837982 -9.702875 -162.107061
7.941642 -9.723790 -162.108427
8.059147 -9.643753 -162.112216
8.162807 -9.664668 -162.113582
8.280312 -9.584631 -162.117371
8.397816 -9.504595 -162.121160
8.515321 -9.424558 -162.124950
8.646669 -9.243569 -162.131162
8.764174 -9.163532 -162.134951
8.881678 -9.083496 -162.138740
8.999183 -9.003459 -162.142529
-0.250373 -9.985746 -161.903751
-0.034684 -10.235077 -161.897848
0.219491 -10.578756 -161.889521
0.358208 -10.639388 -161.888464
0.496924 -10.700020 -161.887407
0.674127 -10.855002 -161.883927
0.851329 -11.009983 -161.880447
0.990046 -11.070615 -161.879390
1.128762 -11.131247 -161.878332
1.267478 -11.191879 -161.877275
1.406194 -11.252511 -161.876218
1.544911 -11.313143 -161.875161
1.683627 -11.373776 -161.874104
2.130234 -12.189201 -161.853662
2.230464 -12.155484 -161.855028
2.369181 -12.216116 -161.853971
2.469411 -12.182399 -161.855337
2.569640 -12.148682 -161.856703
2.669870 -12.114965 -161.858069
2.770100 -12.081248 -161.859435
2.870330 -12.047531 -161.860801
3.009047 -12.108163 -161.859744
3.109276 -12.074446 -161.861110
3.209506 -12.040729 -161.862476
3.309736 -12.007012 -161.863842
3.409966 -11.973295 -161.865208
3.510196 -11.939578 -161.866574
3.610426 -11.905861 -161.867940
3.710656 -11.872144 -161.869306
3.810886 -11.838427 -161.870672
3.911116 -11.804710 -161.872038
4.011346 -11.770993 -161.873404
4.150062 -11.831625 -161.872347
4.250292 -11.797908 -161.873713
4.350522 -11.764191 -161.875079
4.450752 -11.730474 -161.876445
4.550982 -11.696757 -161.877811
4.651212 -11.663040 -161.879177
4.751442 -11.629323 -161.880543
4.851671 -11.595606 -161.881909
4.951901 -11.561889 -161.883275
5.052131 -11.528172 -161.884641
5.152361 -11.494455 -161.886007
5.252591 -11.460738 -161.887373
5.352821 -11.427021 -161.888739
5.453051 -11.393304 -161.890105
5.553281 -11.359587 -161.891471
5.653511 -11.325870 -161.892837
5.753741 -11.292153 -161.894203
5.815484 -11.164087 -161.897992
5.915714 -11.130370 -161.899358
6.015944 -11.096653 -161.900724
6.116174 -11.062936 -161.902090
6.216404 -11.029219 -161.903456
6.316634 -10.995502 -161.904822
6.416864 -10.961785 -161.906188
6.517094 -10.928068 -161.907554
6.617324 -10.894351 -161.908920
6.717554 -10.860634 -161.910286
6.817784 -10.826917 -161.911652
6.918013 -10.793200 -161.913018
7.018243 -10.759483 -161.914384
7.118473 -10.725766 -161.915751
7.218703 -10.692049 -161.917117
7.318933 -10.658332 -161.918483
7.419163 -10.624615 -161.919849
7.519393 -10.590898 -161.921215
7.581137 -10.462832 -161.925004
7.681367 -10.429115 -161.926370
7.781596 -10.395398 -161.927736
7.881826 -10.361681 -161.929102
7.982056 -10.327964 -161.930468
8.082286 -10.294247 -161.931834
8.182516 -10.260530 -161.933200
8.282746 -10.226813 -161.934566
8.344490 -10.098747 -161.938355
8.444720 -10.065030 -161.939721
8.544949 -10.031313 -161.941087
8.645179 -9.997596 -161.942453
8.745409 -9.963879 -161.943819
8.845639 -9.930162 -161.945185
8.907383 -9.802095 -161.948974
9.007613 -9.768378 -161.950340
9.107843 -9.734661 -161.951706
9.208073 -9.700944 -161.953072
9.308302 -9.667227 -161.954438
9.370046 -9.539161 -161.958227
9.470276 -9.505444 -161.959593
9.570506 -9.471727 -161.960959
9.632249 -9.343661 -161.964749
9.732479 -9.309944 -161.966115
9.832709 -9.276227 -161.967481
9.932939 -9.242510 -161.968847
10.033169 -9.208793 -161.970213
10.133399 -9.175076 -161.971579
10.195143 -9.047010 -161.975368
10.295372 -9.013293 -161.976734
10.395602 -8.979576 -161.978100
10.457346 -8.851510 -161.981889
10.557576 -8.817793 -161.983255
10.657806 -8.784076 -161.984621
10.758036 -8.750359 -161.985987
10.858266 -8.716642 -161.987353
10.958496 -8.682925 -161.988719
11.058725 -8.649208 -161.990085
11.158955 -8.615491 -161.991451
11.220699 -8.487425 -161.995240
11.320929 -8.453708 -161.996606
11.151754 -7.759547 -162.014934
11.213498 -7.631481 -162.018723
11.313728 -7.597764 -162.020089
11.375471 -7.469698 -162.023878
11.475701 -7.435981 -162.025244
11.537445 -7.307915 -162.029034
11.637675 -7.274198 -162.030400
11.699418 -7.146132 -162.034189
11.761162 -7.018066 -162.037978
11.861392 -6.984349 -162.039344
11.923135 -6.856282 -162.043133
