ply
format ascii 1.0
element vertex 1280
property float x
property float y
property float z
element face 0
property list uchar uint vertex_indices
end_header
3.101391 -11.748423 -160.843077
3.332343 -11.794040 -160.839597
3.563296 -11.839656 -160.836116
3.794248 -11.885273 -160.832636
4.025201 -11.930889 -160.829156
4.256153 -11.976505 -160.825676
4.487106 -12.022122 -160.822195
4.718058 -12.067738 -160.818715
4.868506 -12.050889 -160.817658
4.938449 -11.971574 -160.819024
5.088897 -11.954725 -160.817967
5.239345 -11.937876 -160.816910
5.309288 -11.858561 -160.818276
5.379231 -11.779247 -160.819642
5.529679 -11.762398 -160.818585
5.680127 -11.745548 -160.817528
5.830575 -11.728699 -160.816471
5.900518 -11.649385 -160.817837
6.050966 -11.632535 -160.816780
6.120909 -11.553221 -160.818146
6.271357 -11.536372 -160.817088
6.341300 -11.457057 -160.818454
6.491748 -11.440208 -160.817397
6.561691 -11.360893 -160.818763
6.712139 -11.344044 -160.817706
6.862587 -11.327195 -160.816649
6.932530 -11.247880 -160.818015
7.082978 -11.231031 -160.816958
7.152921 -11.151716 -160.818324
7.303369 -11.134867 -160.817267
7.373312 -11.055552 -160.818633
7.523760 -11.038703 -160.817576
7.593703 -10.959389 -160.818942
7.663646 -10.880074 -160.820308
7.814094 -10.863225 -160.819251
7.884037 -10.783910 -160.820617
7.953980 -10.704595 -160.821983
8.104428 -10.687746 -160.820926
8.174371 -10.608432 -160.822292
8.244314 -10.529117 -160.823658
8.394762 -10.512268 -160.822601
8.545210 -10.495419 -160.821544
8.695658 -10.478569 -160.820486
8.765601 -10.399255 -160.821852
8.835544 -10.319940 -160.823218
8.985992 -10.303091 -160.822161
9.055935 -10.223776 -160.823527
9.206383 -10.206927 -160.822470
9.276326 -10.127612 -160.823836
9.346269 -10.048298 -160.825202
9.496717 -10.031449 -160.824145
9.566660 -9.952134 -160.825511
9.636604 -9.872819 -160.826877
9.706547 -9.793505 -160.828243
9.776490 -9.714190 -160.829609
9.846433 -9.634875 -160.830975
9.996881 -9.618026 -160.829918
10.066824 -9.538711 -160.831284
10.217272 -9.521862 -160.830227
10.287215 -9.442547 -160.831593
10.437663 -9.425698 -160.830536
10.507606 -9.346384 -160.831902
10.577549 -9.267069 -160.833268
10.647492 -9.187754 -160.834634
10.717435 -9.108440 -160.836000
10.787379 -9.029125 -160.837366
10.857322 -8.949810 -160.838732
10.927265 -8.870496 -160.840098
10.997208 -8.791181 -160.841464
11.147656 -8.774332 -160.840407
11.217599 -8.695017 -160.841773
11.287542 -8.615702 -160.843139
11.357485 -8.536388 -160.844505
11.427429 -8.457073 -160.845871
11.497372 -8.377758 -160.847237
11.486810 -8.235978 -160.851026
11.556753 -8.156663 -160.852392
11.626696 -8.077349 -160.853758
11.696640 -7.998034 -160.855124
11.766583 -7.918719 -160.856490
11.836526 -7.839405 -160.857856
11.825964 -7.697624 -160.861645
11.895908 -7.618310 -160.863011
11.965851 -7.538995 -160.864377
12.035794 -7.459680 -160.865743
12.105737 -7.380366 -160.867109
12.175680 -7.301051 -160.868476
12.165119 -7.159271 -160.872265
12.154557 -7.017491 -160.876054
12.224500 -6.938176 -160.877420
12.294443 -6.858861 -160.878786
12.283882 -6.717081 -160.882575
12.353825 -6.637766 -160.883941
12.343264 -6.495986 -160.887730
12.332702 -6.354206 -160.891519
12.322141 -6.212426 -160.895308
12.311579 -6.070645 -160.899098
12.381522 -5.991331 -160.900464
12.370961 -5.849550 -160.904253
12.360399 -5.707770 -160.908042
12.349838 -5.565990 -160.911831
12.339276 -5.424210 -160.915620
12.248210 -5.219964 -160.921832
12.237648 -5.078184 -160.925622
12.227087 -4.936404 -160.929411
12.297030 -4.857089 -160.930777
12.286468 -4.715309 -160.934566
12.275907 -4.573528 -160.938355
12.265345 -4.431748 -160.942144
12.254784 -4.289968 -160.945933
12.163718 -4.085722 -160.952146
12.072651 -3.881476 -160.958358
12.062090 -3.739696 -160.962147
12.051528 -3.597916 -160.965936
12.040967 -3.456136 -160.969725
11.949901 -3.251890 -160.975937
11.939339 -3.110110 -160.979727
11.928778 -2.968329 -160.983516
11.837711 -2.764084 -160.989728
11.746645 -2.559838 -160.995940
11.655579 -2.355592 -161.002153
11.322999 -1.963950 -161.015634
11.312437 -1.822170 -161.019423
11.301876 -1.680389 -161.023212
11.291314 -1.538609 -161.027002
11.280753 -1.396829 -161.030791
11.189686 -1.192583 -161.037003
11.098620 -0.988337 -161.043215
11.088059 -0.846557 -161.047004
11.077497 -0.704777 -161.050794
10.744917 -0.313134 -161.064275
10.734355 -0.171354 -161.068064
10.723794 -0.029574 -161.071853
5.648963 -11.739944 -160.851307
5.770830 -11.650128 -160.850250
5.892697 -11.560312 -160.849193
6.620276 -11.553562 -160.833597
6.742143 -11.463746 -160.832540
6.964962 -11.387775 -160.829060
7.288732 -11.325647 -160.823156
7.410599 -11.235832 -160.822099
7.532467 -11.146016 -160.821042
7.654334 -11.056200 -160.819985
7.675249 -10.952540 -160.821351
7.797116 -10.862724 -160.820294
7.918983 -10.772908 -160.819237
8.040850 -10.683092 -160.818180
8.263669 -10.607121 -160.814699
8.486488 -10.531149 -160.811219
8.608355 -10.441333 -160.810162
8.730222 -10.351518 -160.809105
8.852089 -10.261702 -160.808048
9.074908 -10.185730 -160.804568
9.398679 -10.123603 -160.798664
9.520546 -10.033787 -160.797607
9.642413 -9.943971 -160.796550
9.764280 -9.854156 -160.795493
9.785195 -9.750495 -160.796859
9.907062 -9.660680 -160.795802
10.028929 -9.570864 -160.794745
10.150796 -9.481048 -160.793688
10.272663 -9.391232 -160.792631
10.394530 -9.301416 -160.791573
10.516397 -9.211600 -160.790516
10.638264 -9.121785 -160.789459
10.760131 -9.031969 -160.788402
10.781046 -8.928309 -160.789768
10.902913 -8.838493 -160.788711
10.923829 -8.734833 -160.790077
11.045696 -8.645017 -160.789020
11.167563 -8.555201 -160.787963
11.188478 -8.451541 -160.789329
11.411297 -8.375569 -160.785849
11.533164 -8.285754 -160.784791
11.655031 -8.195938 -160.783734
11.675946 -8.092278 -160.785100
11.696861 -7.988617 -160.786466
11.717776 -7.884957 -160.787832
11.940595 -7.808986 -160.784352
12.062462 -7.719170 -160.783295
12.083377 -7.615510 -160.784661
12.205244 -7.525694 -160.783604
12.226160 -7.422034 -160.784970
12.247075 -7.318374 -160.786336
12.267990 -7.214713 -160.787702
12.389857 -7.124898 -160.786645
12.410772 -7.021237 -160.788011
12.431687 -6.917577 -160.789377
12.452602 -6.813917 -160.790743
12.473517 -6.710257 -160.792109
12.494433 -6.606597 -160.793475
12.515348 -6.502937 -160.794841
12.536263 -6.399276 -160.796207
12.557178 -6.295616 -160.797573
12.578093 -6.191956 -160.798939
12.599008 -6.088296 -160.800305
12.619923 -5.984636 -160.801671
12.640838 -5.880976 -160.803037
12.560802 -5.763471 -160.806826
12.581717 -5.659811 -160.808192
12.602632 -5.556151 -160.809558
12.623547 -5.452491 -160.810924
12.644462 -5.348831 -160.812290
12.665377 -5.245170 -160.813656
12.585341 -5.127666 -160.817445
12.606256 -5.024006 -160.818812
12.627171 -4.920346 -160.820178
12.547134 -4.802841 -160.823967
12.568049 -4.699181 -160.825333
12.588964 -4.595521 -160.826699
12.508928 -4.478016 -160.830488
12.529843 -4.374356 -160.831854
12.550758 -4.270696 -160.833220
12.470721 -4.153191 -160.837009
12.491636 -4.049531 -160.838375
12.512551 -3.945871 -160.839741
12.432514 -3.828367 -160.843530
12.453430 -3.724706 -160.844896
12.474345 -3.621046 -160.846262
12.394308 -3.503542 -160.850051
12.415223 -3.399882 -160.851417
12.335186 -3.282377 -160.855207
12.356101 -3.178717 -160.856573
12.377017 -3.075057 -160.857939
12.397932 -2.971397 -160.859305
12.317895 -2.853892 -160.863094
12.338810 -2.750232 -160.864460
12.359725 -2.646572 -160.865826
12.279688 -2.529067 -160.869615
12.300604 -2.425407 -160.870981
12.220567 -2.307903 -160.874770
12.241482 -2.204243 -160.876136
12.161445 -2.086738 -160.879925
12.081408 -1.969234 -160.883714
12.001372 -1.851729 -160.887503
12.022287 -1.748069 -160.888869
11.942250 -1.630565 -160.892659
11.963165 -1.526904 -160.894025
11.984080 -1.423244 -160.895391
11.904043 -1.305740 -160.899180
11.924958 -1.202080 -160.900546
11.844922 -1.084575 -160.904335
11.865837 -0.980915 -160.905701
11.886752 -0.877255 -160.907067
11.907667 -0.773595 -160.908433
11.928582 -0.669934 -160.909799
11.848545 -0.552430 -160.913588
11.869461 -0.448770 -160.914954
11.789424 -0.331265 -160.918743
11.709387 -0.213761 -160.922532
11.730302 -0.110101 -160.923898
11.751217 -0.006440 -160.925264
11.772132 0.097220 -160.926630
11.793048 0.200880 -160.927997
11.713011 0.318384 -160.931786
11.632974 0.435889 -160.935575
11.653889 0.539549 -160.936941
11.573852 0.657053 -160.940730
11.493816 0.774558 -160.944519
11.413779 0.892062 -160.948308
11.434694 0.995723 -160.949674
11.354657 1.113227 -160.953463
11.274620 1.230732 -160.957253
11.194584 1.348236 -160.961042
11.215499 1.451896 -160.962408
11.135462 1.569401 -160.966197
11.055425 1.686905 -160.969986
10.975388 1.804410 -160.973775
10.895352 1.921914 -160.977564
10.815315 2.039419 -160.981353
10.836230 2.143079 -160.982719
10.756193 2.260583 -160.986509
10.777108 2.364243 -160.987875
10.697071 2.481748 -160.991664
10.717987 2.585408 -160.993030
10.637950 2.702913 -160.996819
10.557913 2.820417 -161.000608
10.477876 2.937922 -161.004397
10.498791 3.041582 -161.005763
10.418755 3.159086 -161.009552
10.439670 3.262746 -161.010918
10.460585 3.366407 -161.012284
10.380548 3.483911 -161.016073
10.401463 3.587571 -161.017439
10.321426 3.705076 -161.021229
10.342342 3.808736 -161.022595
10.262305 3.926240 -161.026384
10.283220 4.029900 -161.027750
10.203183 4.147405 -161.031539
10.224098 4.251065 -161.032905
10.245013 4.354725 -161.034271
10.164977 4.472230 -161.038060
10.084940 4.589734 -161.041849
10.004903 4.707239 -161.045638
9.924866 4.824743 -161.049428
9.441022 4.997625 -161.062909
9.461937 5.101285 -161.064275
12.541436 -7.528671 -160.801609
12.602069 -7.389955 -160.800552
12.662701 -7.251239 -160.799495
12.723333 -7.112522 -160.798438
12.783965 -6.973806 -160.797381
12.844597 -6.835090 -160.796323
12.905229 -6.696373 -160.795266
12.965861 -6.557657 -160.794209
12.932144 -6.457427 -160.795575
12.992776 -6.318711 -160.794518
13.053408 -6.179995 -160.793461
13.019691 -6.079765 -160.794827
13.080324 -5.941048 -160.793770
13.140956 -5.802332 -160.792713
13.107239 -5.702102 -160.794079
13.167871 -5.563386 -160.793022
13.134154 -5.463156 -160.794388
13.100437 -5.362926 -160.795754
13.066720 -5.262696 -160.797120
13.127352 -5.123980 -160.796063
13.093635 -5.023750 -160.797429
13.059918 -4.923520 -160.798795
13.026201 -4.823290 -160.800161
12.992484 -4.723060 -160.801527
13.053116 -4.584344 -160.800470
13.019399 -4.484114 -160.801836
12.985682 -4.383884 -160.803202
12.951965 -4.283654 -160.804568
12.918248 -4.183424 -160.805934
12.978880 -4.044708 -160.804877
12.945163 -3.944478 -160.806243
12.911446 -3.844248 -160.807609
12.877729 -3.744018 -160.808975
12.844012 -3.643788 -160.810341
12.810295 -3.543558 -160.811707
12.776578 -3.443328 -160.813073
12.837210 -3.304612 -160.812016
12.803493 -3.204382 -160.813382
12.769776 -3.104152 -160.814748
12.736059 -3.003922 -160.816114
12.702342 -2.903692 -160.817480
12.668625 -2.803462 -160.818846
12.634908 -2.703232 -160.820212
12.601191 -2.603002 -160.821578
12.661823 -2.464286 -160.820521
12.628106 -2.364056 -160.821887
12.594389 -2.263826 -160.823253
12.560672 -2.163596 -160.824619
12.526955 -2.063366 -160.825985
12.493238 -1.963137 -160.827351
12.553870 -1.824420 -160.826294
12.520153 -1.724190 -160.827660
12.486436 -1.623960 -160.829026
12.452719 -1.523730 -160.830392
12.419002 -1.423501 -160.831758
12.385285 -1.323271 -160.833124
12.351568 -1.223041 -160.834490
12.317851 -1.122811 -160.835856
12.284134 -1.022581 -160.837222
12.250417 -0.922351 -160.838588
12.311050 -0.783635 -160.837531
12.277333 -0.683405 -160.838897
12.243616 -0.583175 -160.840263
12.209899 -0.482945 -160.841629
12.176182 -0.382715 -160.842995
12.236814 -0.243999 -160.841937
12.203097 -0.143769 -160.843304
12.169380 -0.043539 -160.844670
12.135663 0.056691 -160.846036
12.101946 0.156921 -160.847402
12.068229 0.257151 -160.848768
12.034512 0.357381 -160.850134
12.000795 0.457611 -160.851500
11.967078 0.557841 -160.852866
11.933361 0.658071 -160.854232
11.899644 0.758301 -160.855598
11.865927 0.858531 -160.856964
11.832210 0.958760 -160.858330
11.798493 1.058990 -160.859696
11.764776 1.159220 -160.861062
11.731059 1.259450 -160.862428
11.697342 1.359680 -160.863794
11.663625 1.459910 -160.865160
11.629908 1.560140 -160.866526
11.596191 1.660370 -160.867892
11.562474 1.760600 -160.869258
11.528757 1.860830 -160.870624
11.589389 1.999546 -160.869567
11.555672 2.099776 -160.870933
11.521955 2.200006 -160.872299
11.488238 2.300236 -160.873665
11.454521 2.400466 -160.875031
11.420804 2.500696 -160.876397
11.387087 2.600926 -160.877763
11.353370 2.701156 -160.879129
11.319653 2.801385 -160.880495
11.285936 2.901615 -160.881861
11.252219 3.001845 -160.883227
11.218502 3.102075 -160.884593
11.184785 3.202305 -160.885959
11.151068 3.302535 -160.887325
11.117351 3.402765 -160.888691
11.083634 3.502995 -160.890057
11.049917 3.603225 -160.891423
11.016200 3.703455 -160.892789
10.982483 3.803685 -160.894155
10.948766 3.903915 -160.895521
10.915049 4.004145 -160.896887
10.881332 4.104374 -160.898253
10.847615 4.204604 -160.899619
10.813898 4.304834 -160.900985
10.780181 4.405064 -160.902351
10.746464 4.505294 -160.903717
10.618398 4.567038 -160.907506
10.584681 4.667268 -160.908872
10.550964 4.767498 -160.910238
10.422898 4.829241 -160.914027
10.389181 4.929471 -160.915393
10.261115 4.991215 -160.919183
10.227398 5.091444 -160.920549
10.193681 5.191674 -160.921915
10.159964 5.291904 -160.923281
10.126247 5.392134 -160.924647
10.092530 5.492364 -160.926013
10.058813 5.592594 -160.927379
10.025096 5.692824 -160.928745
9.897029 5.754568 -160.932534
9.863312 5.854797 -160.933900
9.735246 5.916541 -160.937689
9.607180 5.978285 -160.941478
9.196067 5.924569 -160.952537
9.068001 5.986313 -160.956326
9.034284 6.086542 -160.957692
9.000567 6.186772 -160.959058
8.966850 6.287002 -160.960424
8.933133 6.387232 -160.961790
8.899416 6.487462 -160.963156
8.865699 6.587692 -160.964522
8.737633 6.649436 -160.968311
8.703916 6.749666 -160.969677
8.575849 6.811409 -160.973466
8.447783 6.873153 -160.977255
8.414066 6.973383 -160.978621
8.286000 7.035126 -160.982410
8.157934 7.096870 -160.986200
8.124217 7.197100 -160.987566
7.996151 7.258843 -160.991355
7.868085 7.320587 -160.995144
7.740019 7.382330 -160.998933
7.706302 7.482560 -161.000299
7.578236 7.544304 -161.004088
7.450170 7.606047 -161.007877
7.416453 7.706277 -161.009243
7.288386 7.768021 -161.013033
7.160320 7.829764 -161.016822
7.126603 7.929994 -161.018188
6.998537 7.991738 -161.021977
13.321575 -5.200933 -160.884695
13.304726 -5.050485 -160.883638
13.350343 -4.819532 -160.880158
13.271028 -4.749589 -160.881524
13.254178 -4.599141 -160.880467
13.237329 -4.448693 -160.879410
13.158014 -4.378750 -160.880776
13.141165 -4.228302 -160.879719
13.124316 -4.077854 -160.878661
13.169932 -3.846901 -160.875181
13.215548 -3.615949 -160.871701
13.198699 -3.465501 -160.870644
13.181850 -3.315053 -160.869587
13.102535 -3.245110 -160.870953
13.023220 -3.175167 -160.872319
13.006371 -3.024719 -160.871262
12.989522 -2.874271 -160.870205
12.972673 -2.723823 -160.869147
12.955823 -2.573375 -160.868090
13.001440 -2.342422 -160.864610
12.984590 -2.191974 -160.863553
12.967741 -2.041526 -160.862496
12.888426 -1.971583 -160.863862
12.871577 -1.821135 -160.862805
12.792262 -1.751192 -160.864171
12.712948 -1.681249 -160.865537
12.633633 -1.611306 -160.866903
12.616783 -1.460858 -160.865846
12.537469 -1.390914 -160.867212
12.458154 -1.320971 -160.868578
12.316374 -1.331533 -160.872367
12.237059 -1.261590 -160.873733
12.345141 -0.950132 -160.867830
12.328291 -0.799684 -160.866773
12.311442 -0.649236 -160.865715
12.294593 -0.498788 -160.864658
12.402675 -0.187331 -160.858755
12.448291 0.043622 -160.855275
12.431442 0.194070 -160.854218
12.352127 0.264013 -160.855584
12.335278 0.414461 -160.854527
12.255963 0.484404 -160.855893
12.239114 0.634852 -160.854835
12.159799 0.704795 -160.856201
12.142950 0.855243 -160.855144
12.063635 0.925186 -160.856510
12.046785 1.075634 -160.855453
11.967471 1.145577 -160.856819
11.950621 1.296025 -160.855762
11.871307 1.365969 -160.857128
11.791992 1.435912 -160.858494
11.837608 1.666864 -160.855014
11.820759 1.817312 -160.853957
11.741444 1.887255 -160.855323
11.662129 1.957199 -160.856689
11.645280 2.107647 -160.855632
11.565965 2.177590 -160.856998
11.486650 2.247533 -160.858364
11.469801 2.397981 -160.857307
11.452952 2.548429 -160.856250
11.373637 2.618372 -160.857616
11.356788 2.768820 -160.856558
11.277473 2.838763 -160.857924
11.260624 2.989211 -160.856867
11.243775 3.139659 -160.855810
11.164460 3.209602 -160.857176
11.147611 3.360050 -160.856119
11.130761 3.510498 -160.855062
11.051447 3.580441 -160.856428
11.034597 3.730889 -160.855371
11.017748 3.881337 -160.854314
11.000899 4.031785 -160.853257
10.984050 4.182233 -160.852200
10.967200 4.332681 -160.851143
10.950351 4.483129 -160.850085
10.933502 4.633577 -160.849028
10.854187 4.703520 -160.850394
10.837338 4.853968 -160.849337
10.758023 4.923911 -160.850703
10.741174 5.074359 -160.849646
10.661859 5.144302 -160.851012
10.645010 5.294750 -160.849955
10.565695 5.364693 -160.851321
10.548846 5.515141 -160.850264
10.469531 5.585084 -160.851630
10.390216 5.655028 -160.852996
10.310901 5.724971 -160.854362
10.294052 5.875419 -160.853305
10.214737 5.945362 -160.854671
10.135422 6.015305 -160.856037
10.056108 6.085248 -160.857403
9.976793 6.155191 -160.858769
9.897478 6.225134 -160.860135
9.818163 6.295078 -160.861501
9.801314 6.445526 -160.860444
9.721999 6.515469 -160.861810
9.642684 6.585412 -160.863176
9.563370 6.655355 -160.864542
9.484055 6.725298 -160.865908
9.467206 6.875746 -160.864851
9.387891 6.945689 -160.866217
9.308576 7.015632 -160.867583
9.229261 7.085576 -160.868949
9.149946 7.155519 -160.870315
9.070632 7.225462 -160.871681
8.991317 7.295405 -160.873047
8.912002 7.365348 -160.874413
8.832687 7.435291 -160.875779
8.753372 7.505235 -160.877145
8.674058 7.575178 -160.878511
8.594743 7.645121 -160.879877
8.515428 7.715064 -160.881243
8.373648 7.704502 -160.885032
8.294333 7.774446 -160.886398
8.215018 7.844389 -160.887764
8.135703 7.914332 -160.889130
8.056389 7.984275 -160.890496
7.914608 7.973713 -160.894285
7.835293 8.043657 -160.895651
7.755979 8.113600 -160.897017
7.676664 8.183543 -160.898383
7.597349 8.253486 -160.899749
7.518034 8.323429 -160.901115
7.376254 8.312868 -160.904905
7.296939 8.382811 -160.906271
7.217624 8.452754 -160.907637
7.138310 8.522697 -160.909003
7.058995 8.592640 -160.910369
6.979680 8.662583 -160.911735
6.837900 8.652022 -160.915524
6.758585 8.721965 -160.916890
6.616804 8.711403 -160.920679
6.350093 8.539832 -160.929314
6.208313 8.529270 -160.933104
6.128998 8.599214 -160.934470
5.987218 8.588652 -160.938259
5.907903 8.658595 -160.939625
5.766123 8.648034 -160.943414
5.624342 8.637472 -160.947203
5.482562 8.626910 -160.950992
5.340782 8.616349 -160.954781
5.199001 8.605787 -160.958570
5.057221 8.595225 -160.962360
4.852975 8.504159 -160.968572
8.706455 7.609707 -160.862153
8.616639 7.731574 -160.861096
8.526823 7.853441 -160.860039
8.423163 7.874356 -160.861405
8.319503 7.895271 -160.862771
8.229687 8.017138 -160.861714
8.153716 8.239957 -160.858233
8.063900 8.361824 -160.857176
7.974084 8.483691 -160.856119
7.884268 8.605558 -160.855062
7.780608 8.626473 -160.856428
7.676948 8.647389 -160.857794
7.587132 8.769256 -160.856737
7.483472 8.790171 -160.858103
7.379812 8.811086 -160.859469
7.276151 8.832001 -160.860835
7.172491 8.852916 -160.862201
7.068831 8.873831 -160.863567
6.965171 8.894746 -160.864933
6.861511 8.915662 -160.866299
6.757851 8.936577 -160.867665
6.668035 9.058444 -160.866608
6.564375 9.079359 -160.867974
6.460714 9.100274 -160.869340
6.357054 9.121189 -160.870706
6.253394 9.142104 -160.872072
6.149734 9.163019 -160.873438
6.046074 9.183935 -160.874804
5.942414 9.204850 -160.876170
5.838753 9.225765 -160.877536
5.735093 9.246680 -160.878902
5.631433 9.267595 -160.880268
5.527773 9.288510 -160.881634
5.410269 9.208473 -160.885423
5.306608 9.229389 -160.886789
5.202948 9.250304 -160.888155
5.099288 9.271219 -160.889521
4.995628 9.292134 -160.890887
4.891968 9.313049 -160.892253
4.788308 9.333964 -160.893619
4.684647 9.354879 -160.894985
4.580987 9.375794 -160.896351
4.477327 9.396710 -160.897717
4.359823 9.316673 -160.901507
4.256162 9.337588 -160.902873
4.152502 9.358503 -160.904239
4.048842 9.379418 -160.905605
3.931338 9.299381 -160.909394
3.827677 9.320297 -160.910760
3.710173 9.240260 -160.914549
3.592669 9.160223 -160.918338
3.489008 9.181138 -160.919704
3.371504 9.101101 -160.923493
3.267844 9.122016 -160.924859
3.150339 9.041980 -160.928648
3.032835 8.961943 -160.932438
2.915330 8.881906 -160.936227
2.783981 8.700917 -160.942439
2.680321 8.721833 -160.943805
2.562817 8.641796 -160.947594
2.459157 8.662711 -160.948960
2.341652 8.582674 -160.952749
2.237992 8.603589 -160.954115
2.120487 8.523552 -160.957904
2.016827 8.544468 -160.959270
1.885479 8.363479 -160.965483
1.754130 8.182490 -160.971695
1.650470 8.203405 -160.973061
1.532965 8.123369 -160.976850
1.429305 8.144284 -160.978216
1.325645 8.165199 -160.979582
1.221985 8.186114 -160.980948
1.104480 8.106077 -160.984737
1.000820 8.126992 -160.986103
6.062055 9.151085 -160.901184
5.961825 9.117368 -160.902550
5.861595 9.083651 -160.903916
5.530447 9.616029 -160.890743
5.391731 9.676661 -160.889686
5.291501 9.642944 -160.891052
5.152785 9.703576 -160.889995
5.052555 9.669859 -160.891361
4.952325 9.636142 -160.892727
4.813609 9.696774 -160.891670
4.713379 9.663057 -160.893036
4.613149 9.629340 -160.894402
4.474432 9.689973 -160.893345
4.374202 9.656256 -160.894711
4.273973 9.622539 -160.896077
4.173743 9.588822 -160.897443
4.073513 9.555105 -160.898809
3.973283 9.521388 -160.900175
3.834566 9.582020 -160.899118
3.734337 9.548303 -160.900484
3.634107 9.514586 -160.901850
3.533877 9.480869 -160.903216
3.433647 9.447152 -160.904582
3.333417 9.413435 -160.905948
3.233187 9.379718 -160.907314
3.132957 9.346001 -160.908680
3.032727 9.312284 -160.910046
2.932497 9.278567 -160.911412
2.832267 9.244850 -160.912778
2.732037 9.211133 -160.914144
2.631807 9.177416 -160.915510
2.531577 9.143699 -160.916876
2.431348 9.109982 -160.918242
2.331118 9.076265 -160.919608
2.230888 9.042548 -160.920974
2.130658 9.008831 -160.922340
2.030428 8.975114 -160.923706
1.930198 8.941397 -160.925072
1.829968 8.907680 -160.926438
1.729738 8.873963 -160.927804
1.629508 8.840246 -160.929170
1.529278 8.806529 -160.930536
1.429048 8.772812 -160.931902
1.328818 8.739095 -160.933268
1.228588 8.705378 -160.934634
1.128359 8.671661 -160.936000
1.028129 8.637944 -160.937366
0.927899 8.604227 -160.938732
0.827669 8.570510 -160.940098
0.727439 8.536793 -160.941464
0.627209 8.503076 -160.942830
0.526979 8.469359 -160.944196
0.426749 8.435642 -160.945562
0.326519 8.401925 -160.946928
0.226289 8.368208 -160.948294
0.164546 8.240142 -160.952083
0.064316 8.206425 -160.953449
-0.035914 8.172708 -160.954815
-0.136144 8.138991 -160.956181
-0.236374 8.105274 -160.957547
-0.298118 7.977207 -160.961337
-0.398347 7.943490 -160.962703
-0.498577 7.909773 -160.964069
-0.560321 7.781707 -160.967858
-0.660551 7.747990 -160.969224
-0.760781 7.714273 -160.970590
-0.822524 7.586207 -160.974379
-0.922754 7.552490 -160.975745
-0.984498 7.424424 -160.979534
-1.046241 7.296358 -160.983323
-1.146471 7.262641 -160.984689
-1.246701 7.228924 -160.986055
-1.308445 7.100858 -160.989844
-1.408675 7.067141 -160.991210
-1.316473 6.561678 -161.004692
-0.199235 8.427888 -160.958199
-0.349682 8.411038 -160.957142
-0.419626 8.331724 -160.958508
-0.570073 8.314875 -160.957451
-0.640017 8.235560 -160.958817
-0.709960 8.156245 -160.960183
-0.860408 8.139396 -160.959126
-0.930351 8.060081 -160.960492
-1.000294 7.980767 -160.961858
-1.150742 7.963918 -160.960801
-1.220685 7.884603 -160.962167
-1.290628 7.805288 -160.963533
-1.360571 7.725974 -160.964899
-1.430514 7.646659 -160.966265
-1.500458 7.567344 -160.967631
-1.570401 7.488029 -160.968997
-1.640344 7.408715 -160.970363
-1.710287 7.329400 -160.971729
-1.780230 7.250085 -160.973095
-1.930678 7.233236 -160.972038
-2.000621 7.153922 -160.973404
-2.070564 7.074607 -160.974770
-2.140507 6.995292 -160.976136
-2.210451 6.915978 -160.977502
-2.280394 6.836663 -160.978868
-2.350337 6.757348 -160.980234
-2.420280 6.678033 -160.981600
-2.490223 6.598719 -160.982966
-2.560166 6.519404 -160.984332
-2.630110 6.440089 -160.985698
-2.780557 6.423240 -160.984641
-2.850501 6.343926 -160.986007
-2.920444 6.264611 -160.987373
-2.990387 6.185296 -160.988739
-3.060330 6.105982 -160.990105
-3.130273 6.026667 -160.991471
-3.200216 5.947352 -160.992837
-3.189655 5.805572 -160.996626
-3.259598 5.726257 -160.997992
-3.329541 5.646943 -160.999358
-3.399484 5.567628 -161.000724
-3.469427 5.488313 -161.002090
-3.539371 5.408999 -161.003456
-3.609314 5.329684 -161.004822
-3.679257 5.250369 -161.006188
-3.749200 5.171054 -161.007554
-3.738639 5.029274 -161.011344
-3.808582 4.949960 -161.012710
-3.878525 4.870645 -161.014076
-3.948468 4.791330 -161.015442
-3.937907 4.649550 -161.019231
-4.007850 4.570235 -161.020597
-4.139963 4.821712 -161.005214
-4.261830 4.731896 -161.004156
-4.282745 4.628236 -161.005522
-4.303660 4.524576 -161.006888
-4.425527 4.434760 -161.005831
-4.446442 4.331100 -161.007197
-4.467357 4.227440 -161.008563
-4.488272 4.123780 -161.009929
-4.509188 4.020120 -161.011295
-4.530103 3.916460 -161.012661
-4.551018 3.812799 -161.014027
-4.571933 3.709139 -161.015393
-4.592848 3.605479 -161.016759
-4.613763 3.501819 -161.018125
-4.634678 3.398159 -161.019492
-4.655593 3.294499 -161.020858
-4.676509 3.190838 -161.022224
-4.697424 3.087178 -161.023590
-4.718339 2.983518 -161.024956
-4.739254 2.879858 -161.026322
-4.760169 2.776198 -161.027688
-4.680132 2.658693 -161.031477
-4.701047 2.555033 -161.032843
-4.721963 2.451373 -161.034209
-4.742878 2.347713 -161.035575
-4.864745 2.257897 -161.034518
-4.885660 2.154237 -161.035884
-4.906575 2.050577 -161.037250
-4.826538 1.933072 -161.041039
-4.847453 1.829412 -161.042405
-4.868368 1.725752 -161.043771
-4.889284 1.622092 -161.045137
-4.910199 1.518432 -161.046503
-4.931114 1.414771 -161.047869
-4.952029 1.311111 -161.049235
-4.972944 1.207451 -161.050601
-4.993859 1.103791 -161.051967
-5.014774 1.000131 -161.053333
-5.035690 0.896471 -161.054699
-5.056605 0.792810 -161.056065
-5.077520 0.689150 -161.057431
-5.098435 0.585490 -161.058797
-5.119350 0.481830 -161.060163
-5.140265 0.378170 -161.061529
-5.161180 0.274510 -161.062895
-5.182095 0.170849 -161.064261
-5.203011 0.067189 -161.065627
-5.223926 -0.036471 -161.066993
-5.244841 -0.140131 -161.068359
-5.265756 -0.243791 -161.069725
-5.286671 -0.347451 -161.071091
-5.307586 -0.451111 -161.072457
-5.328501 -0.554772 -161.073823
-5.248465 -0.672276 -161.077612
-5.269380 -0.775936 -161.078978
-5.290295 -0.879596 -161.080344
-5.311210 -0.983257 -161.081710
-5.332125 -1.086917 -161.083076
-5.353040 -1.190577 -161.084442
-5.373955 -1.294237 -161.085808
-5.394871 -1.397897 -161.087174
-5.415786 -1.501557 -161.088541
-5.436701 -1.605218 -161.089907
-5.457616 -1.708878 -161.091273
-5.478531 -1.812538 -161.092639
-5.398494 -1.930042 -161.096428
-5.419409 -2.033703 -161.097794
-5.440325 -2.137363 -161.099160
-5.360288 -2.254867 -161.102949
-5.381203 -2.358527 -161.104315
-5.301166 -2.476032 -161.108104
-5.322081 -2.579692 -161.109470
-5.242044 -2.697196 -161.113259
-5.901235 -1.047068 -161.021654
-5.961867 -1.185784 -161.020597
-5.928150 -1.286014 -161.021963
-5.894433 -1.386244 -161.023329
-5.860716 -1.486474 -161.024695
-5.826999 -1.586704 -161.026061
-5.793282 -1.686934 -161.027427
-5.759565 -1.787164 -161.028793
-5.725848 -1.887394 -161.030159
-5.786480 -2.026110 -161.029102
-5.752763 -2.126340 -161.030468
-5.719046 -2.226570 -161.031834
-5.685329 -2.326800 -161.033200
-5.651612 -2.427030 -161.034566
-5.617895 -2.527260 -161.035932
-5.584178 -2.627490 -161.037298
-5.550461 -2.727720 -161.038664
-5.516744 -2.827950 -161.040030
-5.483027 -2.928179 -161.041396
-5.449310 -3.028409 -161.042762
-5.415593 -3.128639 -161.044128
-5.381876 -3.228869 -161.045494
-5.348159 -3.329099 -161.046860
-5.314442 -3.429329 -161.048226
-5.280725 -3.529559 -161.049592
-5.247008 -3.629789 -161.050958
-5.213291 -3.730019 -161.052324
-5.179574 -3.830249 -161.053690
-5.051508 -3.891992 -161.057479
-5.017791 -3.992222 -161.058845
-5.078423 -4.130939 -161.057788
-5.044706 -4.231168 -161.059154
-5.010989 -4.331398 -161.060520
-4.977272 -4.431628 -161.061886
-4.849206 -4.493372 -161.065675
-4.815489 -4.593602 -161.067041
-4.781772 -4.693832 -161.068407
-4.748055 -4.794062 -161.069773
-4.714338 -4.894292 -161.071139
-4.586272 -4.956035 -161.074928
-4.552555 -5.056265 -161.076294
-4.518838 -5.156495 -161.077661
-4.390771 -5.218238 -161.081450
-4.357054 -5.318468 -161.082816
-4.323337 -5.418698 -161.084182
-4.289620 -5.518928 -161.085548
-4.161554 -5.580672 -161.089337
-4.127837 -5.680902 -161.090703
-3.999771 -5.742645 -161.094492
-3.871705 -5.804389 -161.098281
-3.743639 -5.866132 -161.102070
-3.709922 -5.966362 -161.103436
-3.676205 -6.066592 -161.104802
-3.548139 -6.128336 -161.108591
-3.514422 -6.228566 -161.109957
-3.480705 -6.328796 -161.111323
-3.446988 -6.429026 -161.112689
-3.318922 -6.490769 -161.116479
-3.285205 -6.590999 -161.117845
-3.251488 -6.691229 -161.119211
-3.217771 -6.791459 -161.120577
-3.089705 -6.853202 -161.124366
-5.805572 -3.189655 -160.996626
-5.726257 -3.259598 -160.997992
-5.709408 -3.410046 -160.996935
-5.692559 -3.560494 -160.995878
-5.675710 -3.710942 -160.994821
-5.596395 -3.780885 -160.996187
-5.579546 -3.931333 -160.995130
-5.500231 -4.001276 -160.996496
-5.420917 -4.071219 -160.997862
-5.404067 -4.221667 -160.996805
-5.324753 -4.291610 -160.998171
-5.245438 -4.361553 -160.999537
-5.228589 -4.512001 -160.998480
-5.149274 -4.581944 -160.999846
-5.069960 -4.651887 -161.001212
-4.990645 -4.721830 -161.002578
-4.973796 -4.872278 -161.001521
-4.894481 -4.942221 -161.002887
-4.877632 -5.092669 -161.001830
-4.798317 -5.162612 -161.003196
-4.719003 -5.232555 -161.004562
-4.702153 -5.383003 -161.003504
-4.622839 -5.452946 -161.004871
-4.543524 -5.522890 -161.006237
-4.526675 -5.673337 -161.005179
-4.447360 -5.743281 -161.006545
-4.430511 -5.893728 -161.005488
-4.351196 -5.963672 -161.006854
-4.271882 -6.033615 -161.008220
-4.192567 -6.103558 -161.009586
-4.175718 -6.254006 -161.008529
-4.096403 -6.323949 -161.009895
-4.079554 -6.474397 -161.008838
-4.000239 -6.544340 -161.010204
-3.920925 -6.614283 -161.011570
-3.841610 -6.684226 -161.012936
-3.824761 -6.834674 -161.011879
-3.745446 -6.904617 -161.013245
-3.666131 -6.974560 -161.014611
-3.586817 -7.044504 -161.015977
-3.507502 -7.114447 -161.017343
-3.490653 -7.264895 -161.016286
-3.411338 -7.334838 -161.017652
-3.332024 -7.404781 -161.019018
-3.252709 -7.474724 -161.020384
-3.173394 -7.544667 -161.021750
-3.156545 -7.695115 -161.020693
-3.077230 -7.765058 -161.022059
-2.997916 -7.835001 -161.023425
-2.918601 -7.904944 -161.024791
-2.839286 -7.974888 -161.026157
-2.759972 -8.044831 -161.027523
-2.680657 -8.114774 -161.028889
-2.601342 -8.184717 -161.030255
-2.522028 -8.254660 -161.031621
-2.442713 -8.324603 -161.032987
-2.363398 -8.394547 -161.034353
-2.284084 -8.464490 -161.035719
-2.267234 -8.614938 -161.034662
-2.187920 -8.684881 -161.036028
-2.108605 -8.754824 -161.037394
-2.029290 -8.824767 -161.038760
-1.949976 -8.894710 -161.040126
-1.870661 -8.964653 -161.041492
-1.791346 -9.034597 -161.042858
-1.712032 -9.104540 -161.044224
-1.632717 -9.174483 -161.045590
-1.553402 -9.244426 -161.046956
-1.474088 -9.314369 -161.048322
-1.394773 -9.384312 -161.049688
-1.315458 -9.454255 -161.051054
-1.236143 -9.524199 -161.052420
-1.156829 -9.594142 -161.053786
-1.077514 -9.664085 -161.055152
-0.998199 -9.734028 -161.056518
-0.918885 -9.803971 -161.057884
-0.839570 -9.873914 -161.059250
-0.760255 -9.943858 -161.060616
-0.680941 -10.013801 -161.061982
-0.601626 -10.083744 -161.063348
-0.522311 -10.153687 -161.064714
-0.380531 -10.143126 -161.068504
-0.301216 -10.213069 -161.069870
-0.221902 -10.283012 -161.071236
-0.142587 -10.352955 -161.072602
-0.063272 -10.422898 -161.073968
0.016042 -10.492841 -161.075334
0.095357 -10.562784 -161.076700
0.174672 -10.632728 -161.078066
0.253986 -10.702671 -161.079432
0.333301 -10.772614 -161.080798
0.475081 -10.762052 -161.084587
0.554396 -10.831996 -161.085953
0.633711 -10.901939 -161.087319
0.713025 -10.971882 -161.088685
0.854806 -10.961320 -161.092474
0.934120 -11.031264 -161.093840
1.075901 -11.020702 -161.097629
1.155215 -11.090645 -161.098995
1.296995 -11.080084 -161.102784
1.376310 -11.150027 -161.104150
1.518090 -11.139465 -161.107940
1.597405 -11.209408 -161.109306
1.864116 -11.037838 -161.117941
2.068362 -10.946771 -161.124153
2.210142 -10.936210 -161.127942
2.351923 -10.925648 -161.131731
2.431237 -10.995591 -161.133097
2.573017 -10.985030 -161.136887
-4.393572 -5.678780 -160.979486
-4.303756 -5.800647 -160.978429
-4.200096 -5.821562 -160.979795
-4.110280 -5.943429 -160.978738
-4.034309 -6.166248 -160.975257
-3.958337 -6.389067 -160.971777
-3.882366 -6.611886 -160.968297
-3.792550 -6.733753 -160.967240
-3.702734 -6.855620 -160.966183
-3.612918 -6.977487 -160.965126
-3.523102 -7.099354 -160.964069
-3.419442 -7.120270 -160.965435
-3.329626 -7.242137 -160.964377
-3.239810 -7.364004 -160.963320
-3.163839 -7.586823 -160.959840
-3.074023 -7.708690 -160.958783
-2.984207 -7.830557 -160.957726
-2.894391 -7.952424 -160.956669
-2.804576 -8.074291 -160.955612
-2.714760 -8.196158 -160.954555
-2.624944 -8.318025 -160.953497
-2.535128 -8.439892 -160.952440
-2.445312 -8.561759 -160.951383
-2.355496 -8.683626 -160.950326
-2.251836 -8.704541 -160.951692
-2.162020 -8.826408 -160.950635
-2.058360 -8.847323 -160.952001
-1.968544 -8.969190 -160.950944
-1.864884 -8.990106 -160.952310
-1.775068 -9.111973 -160.951253
-1.671408 -9.132888 -160.952619
-1.581592 -9.254755 -160.951562
-1.491777 -9.376622 -160.950505
-1.401961 -9.498489 -160.949448
-1.298301 -9.519404 -160.950814
-1.208485 -9.641271 -160.949756
-1.118669 -9.763138 -160.948699
-1.042698 -9.985957 -160.945219
-0.952882 -10.107824 -160.944162
-0.849222 -10.128739 -160.945528
-0.759406 -10.250606 -160.944471
-0.655746 -10.271521 -160.945837
-0.565930 -10.393388 -160.944780
-0.476114 -10.515255 -160.943723
-0.386298 -10.637123 -160.942666
-0.282638 -10.658038 -160.944032
-0.178978 -10.678953 -160.945398
-0.075318 -10.699868 -160.946764
0.028343 -10.720783 -160.948130
0.118158 -10.842650 -160.947073
0.221819 -10.863565 -160.948439
0.311634 -10.985432 -160.947381
0.415295 -11.006347 -160.948748
0.518955 -11.027263 -160.950114
0.608771 -11.149130 -160.949056
0.712431 -11.170045 -160.950422
0.816091 -11.190960 -160.951788
0.919751 -11.211875 -160.953154
1.023411 -11.232790 -160.954520
1.127071 -11.253705 -160.955886
1.230732 -11.274620 -160.957253
1.334392 -11.295535 -160.958619
1.438052 -11.316451 -160.959985
1.541712 -11.337366 -160.961351
1.645372 -11.358281 -160.962717
1.749032 -11.379196 -160.964083
1.852693 -11.400111 -160.965449
1.942508 -11.521978 -160.964392
2.046168 -11.542893 -160.965758
2.149829 -11.563808 -160.967124
2.253489 -11.584724 -160.968490
2.357149 -11.605639 -160.969856
2.460809 -11.626554 -160.971222
2.564469 -11.647469 -160.972588
2.668129 -11.668384 -160.973954
2.771790 -11.689299 -160.975320
2.875450 -11.710214 -160.976686
2.979110 -11.731129 -160.978052
3.082770 -11.752045 -160.979418
3.200275 -11.672008 -160.983207
3.303935 -11.692923 -160.984573
3.407595 -11.713838 -160.985939
3.511255 -11.734753 -160.987305
3.614915 -11.755668 -160.988671
3.718575 -11.776583 -160.990037
3.822236 -11.797499 -160.991403
3.925896 -11.818414 -160.992769
4.029556 -11.839329 -160.994135
4.133216 -11.860244 -160.995501
4.250720 -11.780207 -160.999290
4.354381 -11.801122 -161.000656
4.458041 -11.822037 -161.002022
4.575545 -11.742001 -161.005811
4.693050 -11.661964 -161.009600
4.796710 -11.682879 -161.010966
4.955747 -11.299987 -161.022025
5.087096 -11.118998 -161.028237
5.218445 -10.938009 -161.034449
5.322105 -10.958924 -161.035815
5.439610 -10.878887 -161.039605
5.543270 -10.899803 -161.040971
5.646930 -10.920718 -161.042337
5.750590 -10.941633 -161.043703
5.868095 -10.861596 -161.047492
5.971755 -10.882511 -161.048858
6.089259 -10.802474 -161.052647
6.220608 -10.621486 -161.058859
6.338113 -10.541449 -161.062648
6.441773 -10.562364 -161.064014
6.559277 -10.482327 -161.067804
6.676782 -10.402291 -161.071593
6.808131 -10.221302 -161.077805
6.911791 -10.242217 -161.079171
7.029295 -10.162180 -161.082960
7.132955 -10.183095 -161.084326
7.250460 -10.103059 -161.088115
7.354120 -10.123974 -161.089481
7.471624 -10.043937 -161.093270
-0.412347 -10.147529 -160.898596
-0.235144 -10.302511 -160.895116
-0.057941 -10.457492 -160.891636
0.080775 -10.518124 -160.890578
0.219491 -10.578756 -160.889521
0.358208 -10.639388 -160.888464
0.496924 -10.700020 -160.887407
0.674127 -10.855002 -160.883927
0.851329 -11.009983 -160.880447
0.990046 -11.070615 -160.879390
1.128762 -11.131247 -160.878332
1.267478 -11.191879 -160.877275
1.406194 -11.252511 -160.876218
1.544911 -11.313143 -160.875161
1.683627 -11.373776 -160.874104
1.822343 -11.434408 -160.873047
1.922573 -11.400691 -160.874413
2.330694 -12.121767 -160.856394
2.430924 -12.088050 -160.857760
2.569640 -12.148682 -160.856703
2.669870 -12.114965 -160.858069
2.770100 -12.081248 -160.859435
2.870330 -12.047531 -160.860801
2.970560 -12.013814 -160.862167
3.109276 -12.074446 -160.861110
3.209506 -12.040729 -160.862476
3.309736 -12.007012 -160.863842
3.409966 -11.973295 -160.865208
3.510196 -11.939578 -160.866574
3.610426 -11.905861 -160.867940
3.710656 -11.872144 -160.869306
3.810886 -11.838427 -160.870672
3.911116 -11.804710 -160.872038
4.011346 -11.770993 -160.873404
4.111576 -11.737276 -160.874770
4.250292 -11.797908 -160.873713
4.350522 -11.764191 -160.875079
4.450752 -11.730474 -160.876445
4.550982 -11.696757 -160.877811
4.651212 -11.663040 -160.879177
4.751442 -11.629323 -160.880543
4.851671 -11.595606 -160.881909
4.951901 -11.561889 -160.883275
5.052131 -11.528172 -160.884641
5.152361 -11.494455 -160.886007
5.252591 -11.460738 -160.887373
5.352821 -11.427021 -160.888739
5.453051 -11.393304 -160.890105
5.553281 -11.359587 -160.891471
5.653511 -11.325870 -160.892837
5.753741 -11.292153 -160.894203
5.853971 -11.258436 -160.895569
5.915714 -11.130370 -160.899358
6.015944 -11.096653 -160.900724
6.116174 -11.062936 -160.902090
6.216404 -11.029219 -160.903456
6.316634 -10.995502 -160.904822
6.416864 -10.961785 -160.906188
6.517094 -10.928068 -160.907554
6.617324 -10.894351 -160.908920
6.717554 -10.860634 -160.910286
6.817784 -10.826917 -160.911652
6.918013 -10.793200 -160.913018
7.018243 -10.759483 -160.914384
7.118473 -10.725766 -160.915751
7.218703 -10.692049 -160.917117
7.318933 -10.658332 -160.918483
7.380677 -10.530266 -160.922272
7.480907 -10.496549 -160.923638
7.581137 -10.462832 -160.925004
7.681367 -10.429115 -160.926370
7.781596 -10.395398 -160.927736
7.881826 -10.361681 -160.929102
7.982056 -10.327964 -160.930468
8.082286 -10.294247 -160.931834
8.182516 -10.260530 -160.933200
8.282746 -10.226813 -160.934566
8.382976 -10.193096 -160.935932
8.444720 -10.065030 -160.939721
8.544949 -10.031313 -160.941087
8.645179 -9.997596 -160.942453
8.745409 -9.963879 -160.943819
8.845639 -9.930162 -160.945185
8.907383 -9.802095 -160.948974
9.007613 -9.768378 -160.950340
9.107843 -9.734661 -160.951706
9.208073 -9.700944 -160.953072
9.308302 -9.667227 -160.954438
9.408532 -9.633510 -160.955804
9.470276 -9.505444 -160.959593
9.570506 -9.471727 -160.960959
9.632249 -9.343661 -160.964749
9.732479 -9.309944 -160.966115
9.832709 -9.276227 -160.967481
9.894453 -9.148161 -160.971270
9.994683 -9.114444 -160.972636
10.056426 -8.986378 -160.976425
10.118170 -8.858312 -160.980214
10.179913 -8.730246 -160.984003
10.280143 -8.696529 -160.985369
10.380373 -8.662812 -160.986735
10.403630 -8.440397 -160.992947
10.465374 -8.312330 -160.996737
10.527117 -8.184264 -161.000526
10.627347 -8.150547 -161.001892
10.689091 -8.022481 -161.005681
10.789321 -7.988764 -161.007047
10.851064 -7.860698 -161.010836
10.951294 -7.826981 -161.012202
11.013038 -7.698915 -161.015991
11.113268 -7.665198 -161.017357
11.175011 -7.537132 -161.021146
11.275241 -7.503415 -161.022512
11.336985 -7.375349 -161.026302
11.398728 -7.247283 -161.030091
11.460472 -7.119217 -161.033880
11.522215 -6.991150 -161.037669
11.583959 -6.863084 -161.041458
11.491757 -6.357622 -161.054940
