ply
format ascii 1.0
element vertex 1268
property float x
property float y
property float z
element face 0
property list uchar uint vertex_indices
end_header
2.789934 -11.640341 -159.848980
3.101391 -11.748423 -159.843077
3.573857 -11.981436 -159.832327
3.804810 -12.027053 -159.828847
3.955258 -12.010204 -159.827790
4.105706 -11.993355 -159.826733
4.256153 -11.976505 -159.825676
4.487106 -12.022122 -159.822195
4.718058 -12.067738 -159.818715
4.868506 -12.050889 -159.817658
5.018954 -12.034040 -159.816601
5.088897 -11.954725 -159.817967
5.239345 -11.937876 -159.816910
5.309288 -11.858561 -159.818276
5.459736 -11.841712 -159.817219
5.610184 -11.824863 -159.816162
5.760632 -11.808014 -159.815105
5.911080 -11.791165 -159.814047
5.981023 -11.711850 -159.815414
6.131471 -11.695001 -159.814356
6.201414 -11.615686 -159.815722
6.351862 -11.598837 -159.814665
6.421805 -11.519522 -159.816031
6.572253 -11.502673 -159.814974
6.642196 -11.423359 -159.816340
6.792644 -11.406509 -159.815283
6.862587 -11.327195 -159.816649
6.932530 -11.247880 -159.818015
7.082978 -11.231031 -159.816958
7.152921 -11.151716 -159.818324
7.303369 -11.134867 -159.817267
7.453817 -11.118018 -159.816210
7.523760 -11.038703 -159.817576
7.674208 -11.021854 -159.816519
7.744151 -10.942539 -159.817885
7.814094 -10.863225 -159.819251
7.964542 -10.846376 -159.818194
8.034485 -10.767061 -159.819560
8.104428 -10.687746 -159.820926
8.254876 -10.670897 -159.819869
8.324819 -10.591582 -159.821235
8.475267 -10.574733 -159.820178
8.545210 -10.495419 -159.821544
8.695658 -10.478569 -159.820486
8.846106 -10.461720 -159.819429
8.996554 -10.444871 -159.818372
9.066497 -10.365556 -159.819738
9.136440 -10.286242 -159.821104
9.206383 -10.206927 -159.822470
9.276326 -10.127612 -159.823836
9.426774 -10.110763 -159.822779
9.496717 -10.031449 -159.824145
9.566660 -9.952134 -159.825511
9.636604 -9.872819 -159.826877
9.706547 -9.793505 -159.828243
9.776490 -9.714190 -159.829609
9.926938 -9.697341 -159.828552
9.996881 -9.618026 -159.829918
10.066824 -9.538711 -159.831284
10.136767 -9.459397 -159.832650
10.206710 -9.380082 -159.834016
10.276653 -9.300767 -159.835382
10.346597 -9.221453 -159.836748
10.497044 -9.204603 -159.835691
10.566988 -9.125289 -159.837057
10.636931 -9.045974 -159.838423
10.706874 -8.966659 -159.839789
10.776817 -8.887345 -159.841155
10.927265 -8.870496 -159.840098
10.997208 -8.791181 -159.841464
11.067151 -8.711866 -159.842830
11.137094 -8.632551 -159.844196
11.207038 -8.553237 -159.845562
11.276981 -8.473922 -159.846928
11.346924 -8.394607 -159.848294
11.416867 -8.315293 -159.849660
11.486810 -8.235978 -159.851026
11.556753 -8.156663 -159.852392
11.626696 -8.077349 -159.853758
11.696640 -7.998034 -159.855124
11.686078 -7.856254 -159.858913
11.756021 -7.776939 -159.860279
11.825964 -7.697624 -159.861645
11.895908 -7.618310 -159.863011
11.965851 -7.538995 -159.864377
11.955289 -7.397215 -159.868167
12.025232 -7.317900 -159.869533
12.014671 -7.176120 -159.873322
12.004109 -7.034340 -159.877111
12.074052 -6.955025 -159.878477
12.143996 -6.875710 -159.879843
12.133434 -6.733930 -159.883632
12.203377 -6.654615 -159.884998
12.273320 -6.575301 -159.886364
12.262759 -6.433520 -159.890153
12.332702 -6.354206 -159.891519
12.322141 -6.212426 -159.895308
12.311579 -6.070645 -159.899098
12.301017 -5.928865 -159.902887
12.290456 -5.787085 -159.906676
12.279894 -5.645305 -159.910465
12.269333 -5.503524 -159.914254
12.258771 -5.361744 -159.918043
12.248210 -5.219964 -159.921832
12.237648 -5.078184 -159.925622
12.227087 -4.936404 -159.929411
12.216525 -4.794623 -159.933200
12.205964 -4.652843 -159.936989
12.195402 -4.511063 -159.940778
12.184841 -4.369283 -159.944567
12.254784 -4.289968 -159.945933
12.002708 -3.960791 -159.956992
11.911642 -3.756545 -159.963204
11.981585 -3.677231 -159.964570
11.971024 -3.535450 -159.968359
11.960462 -3.393670 -159.972148
11.949901 -3.251890 -159.975937
11.858834 -3.047644 -159.982150
11.767768 -2.843398 -159.988362
11.596197 -2.576687 -159.996997
11.263617 -2.185045 -160.010479
11.333560 -2.105730 -160.011845
11.322999 -1.963950 -160.015634
11.392942 -1.884635 -160.017000
11.382380 -1.742855 -160.020789
11.452323 -1.663540 -160.022155
11.441762 -1.521760 -160.025944
11.189686 -1.192583 -160.037003
11.179125 -1.050803 -160.040792
11.249068 -0.971488 -160.042158
11.238506 -0.829708 -160.045947
10.744917 -0.313134 -160.064275
10.734355 -0.171354 -160.068064
10.723794 -0.029574 -160.071853
6.822179 -11.581251 -159.828751
7.044998 -11.505279 -159.825270
7.166865 -11.415463 -159.824213
7.288732 -11.325647 -159.823156
7.511551 -11.249676 -159.819676
7.633418 -11.159860 -159.818619
7.755285 -11.070044 -159.817562
7.877153 -10.980228 -159.816505
7.999020 -10.890413 -159.815448
8.120887 -10.800597 -159.814391
8.242754 -10.710781 -159.813333
8.364621 -10.620965 -159.812276
8.486488 -10.531149 -159.811219
8.608355 -10.441333 -159.810162
8.730222 -10.351518 -159.809105
8.953041 -10.275546 -159.805625
9.074908 -10.185730 -159.804568
9.196775 -10.095914 -159.803511
9.318642 -10.006099 -159.802453
9.541461 -9.930127 -159.798973
9.663328 -9.840311 -159.797916
9.785195 -9.750495 -159.796859
9.907062 -9.660680 -159.795802
10.230833 -9.598552 -159.789899
10.352700 -9.508737 -159.788841
10.474567 -9.418921 -159.787784
10.596434 -9.329105 -159.786727
10.718301 -9.239289 -159.785670
10.739216 -9.135629 -159.787036
10.760131 -9.031969 -159.788402
10.881998 -8.942153 -159.787345
10.902913 -8.838493 -159.788711
11.024781 -8.748677 -159.787654
11.045696 -8.645017 -159.789020
11.066611 -8.541357 -159.790386
11.087526 -8.437697 -159.791752
11.108441 -8.334036 -159.793118
11.129356 -8.230376 -159.794484
11.150271 -8.126716 -159.795850
11.171186 -8.023056 -159.797216
11.595909 -7.974773 -159.788890
11.717776 -7.884957 -159.787832
11.738691 -7.781297 -159.789198
11.860558 -7.691481 -159.788141
11.881474 -7.587821 -159.789507
12.003341 -7.498005 -159.788450
12.024256 -7.394345 -159.789816
12.146123 -7.304529 -159.788759
12.167038 -7.200869 -159.790125
12.187953 -7.097209 -159.791491
12.309820 -7.007393 -159.790434
12.330735 -6.903733 -159.791800
12.351650 -6.800073 -159.793166
12.372566 -6.696413 -159.794532
12.393481 -6.592752 -159.795898
12.414396 -6.489092 -159.797264
12.536263 -6.399276 -159.796207
12.557178 -6.295616 -159.797573
12.578093 -6.191956 -159.798939
12.498056 -6.074452 -159.802728
12.518971 -5.970791 -159.804094
12.539887 -5.867131 -159.805460
12.560802 -5.763471 -159.806826
12.581717 -5.659811 -159.808192
12.602632 -5.556151 -159.809558
12.522595 -5.438646 -159.813347
12.543510 -5.334986 -159.814713
12.463474 -5.217482 -159.818503
12.484389 -5.113822 -159.819869
12.505304 -5.010161 -159.821235
12.425267 -4.892657 -159.825024
12.446182 -4.788997 -159.826390
12.467097 -4.685337 -159.827756
12.488012 -4.581676 -159.829122
12.508928 -4.478016 -159.830488
12.529843 -4.374356 -159.831854
12.449806 -4.256852 -159.835643
12.470721 -4.153191 -159.837009
12.491636 -4.049531 -159.838375
12.411599 -3.932027 -159.842164
12.432514 -3.828367 -159.843530
12.352478 -3.710862 -159.847319
12.373393 -3.607202 -159.848685
12.394308 -3.503542 -159.850051
12.415223 -3.399882 -159.851417
12.335186 -3.282377 -159.855207
12.356101 -3.178717 -159.856573
12.276065 -3.061213 -159.860362
12.296980 -2.957552 -159.861728
12.216943 -2.840048 -159.865517
12.237858 -2.736388 -159.866883
12.157821 -2.618883 -159.870672
12.178736 -2.515223 -159.872038
12.098700 -2.397719 -159.875827
12.119615 -2.294058 -159.877193
12.039578 -2.176554 -159.880982
11.959541 -2.059049 -159.884771
11.879504 -1.941545 -159.888561
11.900420 -1.837885 -159.889927
11.921335 -1.734225 -159.891293
11.942250 -1.630565 -159.892659
11.862213 -1.513060 -159.896448
11.883128 -1.409400 -159.897814
11.904043 -1.305740 -159.899180
11.924958 -1.202080 -159.900546
11.844922 -1.084575 -159.904335
11.865837 -0.980915 -159.905701
11.886752 -0.877255 -159.907067
11.806715 -0.759750 -159.910856
11.827630 -0.656090 -159.912222
11.747594 -0.538586 -159.916011
11.667557 -0.421081 -159.919800
11.688472 -0.317421 -159.921166
11.608435 -0.199916 -159.924956
11.629350 -0.096256 -159.926322
11.650265 0.007404 -159.927688
11.671181 0.111064 -159.929054
11.591144 0.228568 -159.932843
11.612059 0.332229 -159.934209
11.532022 0.449733 -159.937998
11.451985 0.567238 -159.941787
11.472900 0.670898 -159.943153
11.392864 0.788402 -159.946942
11.413779 0.892062 -159.948308
11.232790 1.023411 -159.954520
12.689616 -7.012292 -159.799804
12.844597 -6.835090 -159.796323
12.810880 -6.734860 -159.797689
12.871512 -6.596143 -159.796632
12.932144 -6.457427 -159.795575
12.992776 -6.318711 -159.794518
13.053408 -6.179995 -159.793461
13.114041 -6.041278 -159.792404
13.080324 -5.941048 -159.793770
13.140956 -5.802332 -159.792713
13.107239 -5.702102 -159.794079
13.167871 -5.563386 -159.793022
13.134154 -5.463156 -159.794388
13.194786 -5.324440 -159.793331
13.161069 -5.224210 -159.794697
13.127352 -5.123980 -159.796063
13.093635 -5.023750 -159.797429
13.059918 -4.923520 -159.798795
13.026201 -4.823290 -159.800161
13.086833 -4.684574 -159.799104
13.053116 -4.584344 -159.800470
13.019399 -4.484114 -159.801836
12.985682 -4.383884 -159.803202
12.951965 -4.283654 -159.804568
12.918248 -4.183424 -159.805934
12.884531 -4.083194 -159.807300
12.850814 -3.982964 -159.808666
12.817097 -3.882734 -159.810032
12.877729 -3.744018 -159.808975
12.844012 -3.643788 -159.810341
12.810295 -3.543558 -159.811707
12.776578 -3.443328 -159.813073
12.837210 -3.304612 -159.812016
12.803493 -3.204382 -159.813382
12.769776 -3.104152 -159.814748
12.736059 -3.003922 -159.816114
12.702342 -2.903692 -159.817480
12.668625 -2.803462 -159.818846
12.634908 -2.703232 -159.820212
12.601191 -2.603002 -159.821578
12.567474 -2.502773 -159.822944
12.533757 -2.402543 -159.824310
12.594389 -2.263826 -159.823253
12.560672 -2.163596 -159.824619
12.526955 -2.063366 -159.825985
12.493238 -1.963137 -159.827351
12.459521 -1.862907 -159.828717
12.425804 -1.762677 -159.830083
12.486436 -1.623960 -159.829026
12.452719 -1.523730 -159.830392
12.419002 -1.423501 -159.831758
12.385285 -1.323271 -159.833124
12.351568 -1.223041 -159.834490
12.317851 -1.122811 -159.835856
12.284134 -1.022581 -159.837222
12.250417 -0.922351 -159.838588
12.216700 -0.822121 -159.839954
12.277333 -0.683405 -159.838897
12.243616 -0.583175 -159.840263
12.209899 -0.482945 -159.841629
12.176182 -0.382715 -159.842995
12.142465 -0.282485 -159.844361
12.108748 -0.182255 -159.845727
12.075031 -0.082025 -159.847093
12.135663 0.056691 -159.846036
12.101946 0.156921 -159.847402
12.068229 0.257151 -159.848768
12.034512 0.357381 -159.850134
12.000795 0.457611 -159.851500
11.967078 0.557841 -159.852866
11.933361 0.658071 -159.854232
11.899644 0.758301 -159.855598
11.865927 0.858531 -159.856964
11.832210 0.958760 -159.858330
11.798493 1.058990 -159.859696
11.764776 1.159220 -159.861062
11.731059 1.259450 -159.862428
11.697342 1.359680 -159.863794
11.663625 1.459910 -159.865160
11.629908 1.560140 -159.866526
11.596191 1.660370 -159.867892
11.562474 1.760600 -159.869258
11.528757 1.860830 -159.870624
11.495040 1.961060 -159.871990
11.461323 2.061290 -159.873356
11.521955 2.200006 -159.872299
11.488238 2.300236 -159.873665
11.454521 2.400466 -159.875031
11.420804 2.500696 -159.876397
11.387087 2.600926 -159.877763
11.353370 2.701156 -159.879129
11.319653 2.801385 -159.880495
11.285936 2.901615 -159.881861
11.252219 3.001845 -159.883227
11.218502 3.102075 -159.884593
11.184785 3.202305 -159.885959
11.151068 3.302535 -159.887325
11.117351 3.402765 -159.888691
11.083634 3.502995 -159.890057
11.049917 3.603225 -159.891423
11.016200 3.703455 -159.892789
10.982483 3.803685 -159.894155
10.948766 3.903915 -159.895521
10.915049 4.004145 -159.896887
10.881332 4.104374 -159.898253
10.847615 4.204604 -159.899619
10.719549 4.266348 -159.903408
10.685832 4.366578 -159.904774
10.652115 4.466808 -159.906140
10.524049 4.528551 -159.909929
10.490332 4.628781 -159.911295
10.456615 4.729011 -159.912661
10.328549 4.790755 -159.916451
10.294832 4.890985 -159.917817
10.166765 4.952728 -159.921606
10.133048 5.052958 -159.922972
10.193681 5.191674 -159.921915
10.159964 5.291904 -159.923281
10.126247 5.392134 -159.924647
9.998180 5.453878 -159.928436
9.964463 5.554108 -159.929802
9.930746 5.654338 -159.931168
9.802680 5.716081 -159.934957
9.674614 5.777825 -159.938746
9.452199 5.801082 -159.944958
9.418482 5.901312 -159.946324
9.290416 5.963055 -159.950114
9.256699 6.063285 -159.951480
9.222982 6.163515 -159.952846
9.094916 6.225259 -159.956635
9.061199 6.325489 -159.958001
8.933133 6.387232 -159.961790
8.805067 6.448976 -159.965579
8.677000 6.510719 -159.969368
8.643283 6.610949 -159.970734
8.609566 6.711179 -159.972100
8.481500 6.772923 -159.975889
8.447783 6.873153 -159.977255
8.414066 6.973383 -159.978621
8.286000 7.035126 -159.982410
8.252283 7.135356 -159.983776
8.124217 7.197100 -159.987566
7.996151 7.258843 -159.991355
7.868085 7.320587 -159.995144
7.740019 7.382330 -159.998933
7.611953 7.444074 -160.002722
7.483887 7.505817 -160.006511
7.450170 7.606047 -160.007877
7.416453 7.706277 -160.009243
7.288386 7.768021 -160.013033
7.160320 7.829764 -160.016822
7.032254 7.891508 -160.020611
6.904188 7.953251 -160.024400
12.407606 -0.869627 -159.865406
12.390757 -0.719179 -159.864349
12.373908 -0.568732 -159.863292
12.357058 -0.418284 -159.862235
12.340209 -0.267836 -159.861178
12.385825 -0.036883 -159.857698
12.368976 0.113565 -159.856641
12.352127 0.264013 -159.855584
12.335278 0.414461 -159.854527
12.255963 0.484404 -159.855893
12.239114 0.634852 -159.854835
12.159799 0.704795 -159.856201
12.142950 0.855243 -159.855144
12.063635 0.925186 -159.856510
12.046785 1.075634 -159.855453
11.967471 1.145577 -159.856819
11.888156 1.215521 -159.858185
11.808841 1.285464 -159.859551
11.729526 1.355407 -159.860917
11.650212 1.425350 -159.862283
11.633362 1.575798 -159.861226
11.554047 1.645741 -159.862592
11.537198 1.796189 -159.861535
11.520349 1.946637 -159.860478
11.503500 2.097085 -159.859421
11.486650 2.247533 -159.858364
11.407336 2.317476 -159.859730
11.390486 2.467924 -159.858673
11.311172 2.537867 -159.860039
11.231857 2.607810 -159.861405
11.152542 2.677754 -159.862771
11.073227 2.747697 -159.864137
11.056378 2.898145 -159.863080
11.164460 3.209602 -159.857176
11.147611 3.360050 -159.856119
11.130761 3.510498 -159.855062
11.113912 3.660946 -159.854005
11.034597 3.730889 -159.855371
11.017748 3.881337 -159.854314
11.000899 4.031785 -159.853257
10.984050 4.182233 -159.852200
10.967200 4.332681 -159.851143
10.887885 4.402624 -159.852509
10.871036 4.553072 -159.851451
10.791721 4.623015 -159.852817
10.774872 4.773463 -159.851760
10.695557 4.843406 -159.853126
10.616243 4.913349 -159.854492
10.536928 4.983293 -159.855858
10.520079 5.133741 -159.854801
10.440764 5.203684 -159.856167
10.423914 5.354132 -159.855110
10.407065 5.504580 -159.854053
10.327750 5.574523 -159.855419
10.310901 5.724971 -159.854362
10.231586 5.794914 -159.855728
10.152272 5.864857 -159.857094
10.072957 5.934800 -159.858460
10.056108 6.085248 -159.857403
9.976793 6.155191 -159.858769
9.897478 6.225134 -159.860135
9.818163 6.295078 -159.861501
9.738848 6.365021 -159.862867
9.659534 6.434964 -159.864233
9.642684 6.585412 -159.863176
9.563370 6.655355 -159.864542
9.484055 6.725298 -159.865908
9.404740 6.795241 -159.867274
9.325425 6.865184 -159.868640
9.246110 6.935128 -159.870006
9.166796 7.005071 -159.871372
9.087481 7.075014 -159.872738
9.008166 7.144957 -159.874104
8.928851 7.214900 -159.875470
8.849536 7.284843 -159.876836
8.770222 7.354787 -159.878202
8.690907 7.424730 -159.879568
8.611592 7.494673 -159.880934
8.469812 7.484111 -159.884723
8.390497 7.554054 -159.886089
8.311182 7.623998 -159.887455
8.231867 7.693941 -159.888821
8.152553 7.763884 -159.890187
8.073238 7.833827 -159.891553
7.993923 7.903770 -159.892919
7.914608 7.973713 -159.894285
7.772828 7.963152 -159.898075
7.693513 8.033095 -159.899441
7.614198 8.103038 -159.900807
7.534883 8.172981 -159.902173
7.455569 8.242924 -159.903539
7.376254 8.312868 -159.904905
7.296939 8.382811 -159.906271
7.217624 8.452754 -159.907637
7.138310 8.522697 -159.909003
6.996529 8.512135 -159.912792
6.917214 8.582079 -159.914158
6.775434 8.571517 -159.917947
6.696119 8.641460 -159.919313
6.616804 8.711403 -159.920679
6.475024 8.700842 -159.924468
6.395709 8.770785 -159.925834
6.253929 8.760223 -159.929623
5.924752 8.508147 -159.940682
5.782972 8.497586 -159.944471
5.703657 8.567529 -159.945837
5.561877 8.556967 -159.949626
5.482562 8.626910 -159.950992
5.340782 8.616349 -159.954781
5.199001 8.605787 -159.958570
5.057221 8.595225 -159.962360
4.915441 8.584664 -159.966149
4.648729 8.413093 -159.974784
4.506949 8.402531 -159.978573
4.427634 8.472474 -159.979939
4.348319 8.542417 -159.981305
4.206539 8.531856 -159.985094
4.064759 8.521294 -159.988884
3.860513 8.430228 -159.995096
10.067537 5.882653 -159.875586
9.977721 6.004520 -159.874529
9.887905 6.126387 -159.873472
9.798089 6.248254 -159.872415
9.708273 6.370121 -159.871358
9.618457 6.491988 -159.870301
9.528642 6.613855 -159.869244
9.438826 6.735722 -159.868187
9.349010 6.857589 -159.867130
9.259194 6.979457 -159.866072
9.155534 7.000372 -159.867438
9.065718 7.122239 -159.866381
8.962058 7.143154 -159.867747
8.872242 7.265021 -159.866690
8.782426 7.386888 -159.865633
8.692611 7.508755 -159.864576
8.602795 7.630622 -159.863519
8.512979 7.752489 -159.862462
8.409319 7.773404 -159.863828
8.305659 7.794319 -159.865194
8.215843 7.916186 -159.864137
8.112183 7.937101 -159.865503
8.063900 8.361824 -159.857176
7.974084 8.483691 -159.856119
7.884268 8.605558 -159.855062
7.780608 8.626473 -159.856428
7.676948 8.647389 -159.857794
7.573288 8.668304 -159.859160
7.469627 8.689219 -159.860526
7.365967 8.710134 -159.861892
7.276151 8.832001 -159.860835
7.172491 8.852916 -159.862201
7.068831 8.873831 -159.863567
6.965171 8.894746 -159.864933
6.861511 8.915662 -159.866299
6.757851 8.936577 -159.867665
6.654190 8.957492 -159.869031
6.550530 8.978407 -159.870397
6.446870 8.999322 -159.871763
6.343210 9.020237 -159.873129
6.239550 9.041152 -159.874495
6.135890 9.062068 -159.875861
6.032229 9.082983 -159.877227
5.928569 9.103898 -159.878593
5.824909 9.124813 -159.879959
5.721249 9.145728 -159.881325
5.617589 9.166643 -159.882691
5.513929 9.187558 -159.884057
5.410269 9.208473 -159.885423
5.306608 9.229389 -159.886789
5.202948 9.250304 -159.888155
5.099288 9.271219 -159.889521
4.981784 9.191182 -159.893311
4.878123 9.212097 -159.894677
4.774463 9.233012 -159.896043
4.670803 9.253927 -159.897409
4.567143 9.274843 -159.898775
4.463483 9.295758 -159.900141
4.359823 9.316673 -159.901507
4.256162 9.337588 -159.902873
4.152502 9.358503 -159.904239
4.034998 9.278466 -159.908028
3.931338 9.299381 -159.909394
3.827677 9.320297 -159.910760
3.710173 9.240260 -159.914549
3.606513 9.261175 -159.915915
3.489008 9.181138 -159.919704
3.371504 9.101101 -159.923493
3.253999 9.021065 -159.927282
3.136495 8.941028 -159.931072
3.032835 8.961943 -159.932438
2.915330 8.881906 -159.936227
2.797826 8.801869 -159.940016
2.680321 8.721833 -159.943805
2.576661 8.742748 -159.945171
2.459157 8.662711 -159.948960
2.355496 8.683626 -159.950326
2.237992 8.603589 -159.954115
2.134332 8.624504 -159.955481
2.016827 8.544468 -159.959270
1.913167 8.565383 -159.960636
1.781818 8.384394 -159.966849
1.664314 8.304357 -159.970638
1.560654 8.325272 -159.972004
1.443149 8.245236 -159.975793
1.325645 8.165199 -159.979582
1.221985 8.186114 -159.980948
1.090636 8.005125 -159.987160
0.973131 7.925088 -159.990950
0.855627 7.845052 -159.994739
0.738122 7.765015 -159.998528
0.620618 7.684978 -160.002317
0.503113 7.604941 -160.006106
0.371765 7.423953 -160.012318
0.240416 7.242964 -160.018531
0.109067 7.061975 -160.024743
6.038798 8.928670 -159.907396
5.938568 8.894953 -159.908762
5.568934 9.521680 -159.893166
5.430217 9.582312 -159.892109
5.329987 9.548595 -159.893475
5.191271 9.609227 -159.892418
5.052555 9.669859 -159.891361
4.952325 9.636142 -159.892727
4.813609 9.696774 -159.891670
4.713379 9.663057 -159.893036
4.574662 9.723690 -159.891979
4.474432 9.689973 -159.893345
4.374202 9.656256 -159.894711
4.273973 9.622539 -159.896077
4.173743 9.588822 -159.897443
4.073513 9.555105 -159.898809
3.934796 9.615737 -159.897752
3.834566 9.582020 -159.899118
3.734337 9.548303 -159.900484
3.634107 9.514586 -159.901850
3.533877 9.480869 -159.903216
3.433647 9.447152 -159.904582
3.333417 9.413435 -159.905948
3.233187 9.379718 -159.907314
3.132957 9.346001 -159.908680
3.032727 9.312284 -159.910046
2.932497 9.278567 -159.911412
2.832267 9.244850 -159.912778
2.732037 9.211133 -159.914144
2.631807 9.177416 -159.915510
2.531577 9.143699 -159.916876
2.431348 9.109982 -159.918242
2.331118 9.076265 -159.919608
2.230888 9.042548 -159.920974
2.130658 9.008831 -159.922340
2.030428 8.975114 -159.923706
1.930198 8.941397 -159.925072
1.829968 8.907680 -159.926438
1.729738 8.873963 -159.927804
1.629508 8.840246 -159.929170
1.529278 8.806529 -159.930536
1.429048 8.772812 -159.931902
1.328818 8.739095 -159.933268
1.228588 8.705378 -159.934634
1.128359 8.671661 -159.936000
1.028129 8.637944 -159.937366
0.927899 8.604227 -159.938732
0.827669 8.570510 -159.940098
0.727439 8.536793 -159.941464
0.627209 8.503076 -159.942830
0.526979 8.469359 -159.944196
0.426749 8.435642 -159.945562
0.326519 8.401925 -159.946928
0.226289 8.368208 -159.948294
0.164546 8.240142 -159.952083
0.064316 8.206425 -159.953449
-0.035914 8.172708 -159.954815
-0.136144 8.138991 -159.956181
-0.236374 8.105274 -159.957547
-0.336604 8.071557 -159.958913
-0.398347 7.943490 -159.962703
-0.498577 7.909773 -159.964069
-0.598807 7.876056 -159.965435
-0.699037 7.842339 -159.966801
-0.799267 7.808622 -159.968167
-0.861011 7.680556 -159.971956
-0.961241 7.646839 -159.973322
-1.061471 7.613122 -159.974688
-1.123214 7.485056 -159.978477
-1.223444 7.451339 -159.979843
-1.285188 7.323273 -159.983632
-1.346931 7.195207 -159.987421
-1.408675 7.067141 -159.991210
-1.470418 6.939075 -159.994999
0.451377 8.858159 -159.953483
0.300929 8.841310 -159.952426
0.150481 8.824461 -159.951369
0.000033 8.807612 -159.950312
-0.069910 8.728297 -159.951678
-0.139853 8.648983 -159.953044
-0.290301 8.632133 -159.951987
-0.360244 8.552819 -159.953353
-0.510692 8.535970 -159.952296
-0.580635 8.456655 -159.953662
-0.650578 8.377340 -159.955028
-0.801026 8.360491 -159.953971
-0.870969 8.281176 -159.955337
-0.940912 8.201862 -159.956703
-1.091360 8.185013 -159.955646
-1.161303 8.105698 -159.957012
-1.231246 8.026383 -159.958378
-1.301190 7.947068 -159.959744
-1.371133 7.867754 -159.961110
-1.441076 7.788439 -159.962476
-1.591524 7.771590 -159.961419
-1.661467 7.692275 -159.962785
-1.731410 7.612961 -159.964151
-1.801353 7.533646 -159.965517
-1.871296 7.454331 -159.966883
-1.941240 7.375017 -159.968249
-2.011183 7.295702 -159.969615
-2.081126 7.216387 -159.970981
-2.151069 7.137072 -159.972347
-2.221012 7.057758 -159.973713
-2.290955 6.978443 -159.975079
-2.360898 6.899128 -159.976445
-2.430842 6.819814 -159.977811
-2.500785 6.740499 -159.979177
-2.570728 6.661184 -159.980543
-2.640671 6.581870 -159.981909
-2.710614 6.502555 -159.983275
-2.780557 6.423240 -159.984641
-2.850501 6.343926 -159.986007
-2.920444 6.264611 -159.987373
-2.990387 6.185296 -159.988739
-3.060330 6.105982 -159.990105
-3.130273 6.026667 -159.991471
-3.200216 5.947352 -159.992837
-3.270160 5.868037 -159.994203
-3.340103 5.788723 -159.995569
-3.410046 5.709408 -159.996935
-3.479989 5.630093 -159.998301
-3.549932 5.550779 -159.999667
-3.619875 5.471464 -160.001033
-3.689818 5.392149 -160.002399
-3.759762 5.312835 -160.003765
-3.829705 5.233520 -160.005131
-3.899648 5.154205 -160.006497
-3.969591 5.074891 -160.007863
-4.039534 4.995576 -160.009229
-4.028973 4.853796 -160.013018
-4.098916 4.774481 -160.014384
-4.168859 4.695166 -160.015751
-4.238802 4.615852 -160.017117
-4.308745 4.536537 -160.018483
-4.298184 4.394757 -160.022272
-4.368127 4.315442 -160.023638
-4.438070 4.236127 -160.025004
-3.944481 3.719554 -160.043332
-4.014424 3.640239 -160.044698
-4.003862 3.498459 -160.048487
-4.073805 3.419144 -160.049853
-4.063244 3.277364 -160.053642
-4.052682 3.135584 -160.057431
-4.042121 2.993804 -160.061220
-4.112064 2.914489 -160.062586
-4.101502 2.772709 -160.066375
-4.171446 2.693394 -160.067741
-4.160884 2.551614 -160.071530
-4.150322 2.409834 -160.075320
-4.139761 2.268053 -160.079109
-4.129199 2.126273 -160.082898
-4.199143 2.046958 -160.084264
-4.188581 1.905178 -160.088053
-4.178020 1.763398 -160.091842
-4.167458 1.621618 -160.095631
-3.993557 5.547333 -159.995651
-4.014472 5.443673 -159.997017
-4.136339 5.353857 -159.995960
-4.157254 5.250197 -159.997326
-4.178169 5.146537 -159.998692
-4.199084 5.042877 -160.000058
-4.219999 4.939217 -160.001424
-4.341866 4.849401 -160.000367
-4.362782 4.745741 -160.001733
-4.383697 4.642081 -160.003099
-4.404612 4.538420 -160.004465
-4.425527 4.434760 -160.005831
-4.446442 4.331100 -160.007197
-4.467357 4.227440 -160.008563
-4.488272 4.123780 -160.009929
-4.509188 4.020120 -160.011295
-4.530103 3.916460 -160.012661
-4.551018 3.812799 -160.014027
-4.571933 3.709139 -160.015393
-4.592848 3.605479 -160.016759
-4.613763 3.501819 -160.018125
-4.735630 3.412003 -160.017068
-4.756545 3.308343 -160.018434
-4.777460 3.204683 -160.019800
-4.798376 3.101023 -160.021166
-4.718339 2.983518 -160.024956
-4.739254 2.879858 -160.026322
-4.760169 2.776198 -160.027688
-4.781084 2.672538 -160.029054
-4.801999 2.568877 -160.030420
-4.822914 2.465217 -160.031786
-4.843830 2.361557 -160.033152
-4.864745 2.257897 -160.034518
-4.885660 2.154237 -160.035884
-4.906575 2.050577 -160.037250
-4.927490 1.946917 -160.038616
-4.948405 1.843256 -160.039982
-4.969320 1.739596 -160.041348
-4.990236 1.635936 -160.042714
-5.011151 1.532276 -160.044080
-5.032066 1.428616 -160.045446
-5.052981 1.324956 -160.046812
-4.972944 1.207451 -160.050601
-4.993859 1.103791 -160.051967
-5.014774 1.000131 -160.053333
-5.035690 0.896471 -160.054699
-5.056605 0.792810 -160.056065
-5.077520 0.689150 -160.057431
-5.098435 0.585490 -160.058797
-5.119350 0.481830 -160.060163
-5.140265 0.378170 -160.061529
-5.161180 0.274510 -160.062895
-5.182095 0.170849 -160.064261
-5.203011 0.067189 -160.065627
-5.223926 -0.036471 -160.066993
-5.244841 -0.140131 -160.068359
-5.265756 -0.243791 -160.069725
-5.286671 -0.347451 -160.071091
-5.307586 -0.451111 -160.072457
-5.328501 -0.554772 -160.073823
-5.349417 -0.658432 -160.075189
-5.370332 -0.762092 -160.076555
-5.391247 -0.865752 -160.077921
-5.412162 -0.969412 -160.079287
-5.332125 -1.086917 -160.083076
-5.353040 -1.190577 -160.084442
-5.373955 -1.294237 -160.085808
-5.394871 -1.397897 -160.087174
-5.415786 -1.501557 -160.088541
-5.436701 -1.605218 -160.089907
-5.457616 -1.708878 -160.091273
-5.478531 -1.812538 -160.092639
-5.499446 -1.916198 -160.094005
-5.419409 -2.033703 -160.097794
-5.440325 -2.137363 -160.099160
-5.360288 -2.254867 -160.102949
-5.381203 -2.358527 -160.104315
-5.463206 -0.754406 -160.032403
-5.618187 -0.931609 -160.028923
-5.773168 -1.108812 -160.025443
-5.833801 -1.247528 -160.024386
-5.800084 -1.347758 -160.025752
-5.766367 -1.447988 -160.027118
-5.826999 -1.586704 -160.026061
-5.793282 -1.686934 -160.027427
-5.759565 -1.787164 -160.028793
-5.725848 -1.887394 -160.030159
-5.786480 -2.026110 -160.029102
-5.752763 -2.126340 -160.030468
-5.719046 -2.226570 -160.031834
-5.779678 -2.365286 -160.030777
-5.745961 -2.465516 -160.032143
-5.712244 -2.565746 -160.033509
-5.678527 -2.665976 -160.034875
-5.644810 -2.766206 -160.036241
-5.611093 -2.866436 -160.037607
-5.577376 -2.966666 -160.038973
-5.543659 -3.066896 -160.040339
-5.509942 -3.167126 -160.041705
-5.476225 -3.267356 -160.043071
-5.442508 -3.367586 -160.044437
-5.314442 -3.429329 -160.048226
-5.280725 -3.529559 -160.049592
-5.247008 -3.629789 -160.050958
-5.213291 -3.730019 -160.052324
-5.179574 -3.830249 -160.053690
-5.145857 -3.930479 -160.055056
-5.112140 -4.030709 -160.056422
-5.078423 -4.130939 -160.057788
-5.044706 -4.231168 -160.059154
-5.010989 -4.331398 -160.060520
-4.977272 -4.431628 -160.061886
-4.943555 -4.531858 -160.063252
-4.815489 -4.593602 -160.067041
-4.781772 -4.693832 -160.068407
-4.748055 -4.794062 -160.069773
-4.714338 -4.894292 -160.071139
-4.586272 -4.956035 -160.074928
-4.552555 -5.056265 -160.076294
-4.424488 -5.118009 -160.080084
-4.390771 -5.218238 -160.081450
-4.357054 -5.318468 -160.082816
-4.323337 -5.418698 -160.084182
-4.289620 -5.518928 -160.085548
-4.255903 -5.619158 -160.086914
-4.127837 -5.680902 -160.090703
-4.094120 -5.781132 -160.092069
-4.060403 -5.881362 -160.093435
-4.026686 -5.981591 -160.094801
-3.992969 -6.081821 -160.096167
-3.864903 -6.143565 -160.099956
-3.831186 -6.243795 -160.101322
-3.703120 -6.305538 -160.105111
-3.575054 -6.367282 -160.108900
-3.446988 -6.429026 -160.112689
-3.413271 -6.529255 -160.114056
-3.379554 -6.629485 -160.115422
-3.251488 -6.691229 -160.119211
-3.217771 -6.791459 -160.120577
-3.184054 -6.891689 -160.121943
-3.150337 -6.991919 -160.123309
-3.116620 -7.092149 -160.124675
-2.988554 -7.153892 -160.128464
-2.954837 -7.254122 -160.129830
-2.921120 -7.354352 -160.131196
-2.793054 -7.416096 -160.134985
-2.664987 -7.477839 -160.138774
-5.618175 -2.948141 -160.003896
-5.538861 -3.018084 -160.005262
-5.522011 -3.168532 -160.004205
-5.442697 -3.238475 -160.005571
-5.675710 -3.710942 -159.994821
-5.596395 -3.780885 -159.996187
-5.579546 -3.931333 -159.995130
-5.500231 -4.001276 -159.996496
-5.420917 -4.071219 -159.997862
-5.404067 -4.221667 -159.996805
-5.324753 -4.291610 -159.998171
-5.245438 -4.361553 -159.999537
-5.166123 -4.431496 -160.000903
-5.086809 -4.501439 -160.002269
-5.069960 -4.651887 -160.001212
-5.053110 -4.802335 -160.000155
-4.973796 -4.872278 -160.001521
-4.894481 -4.942221 -160.002887
-4.877632 -5.092669 -160.001830
-4.798317 -5.162612 -160.003196
-4.781468 -5.313060 -160.002138
-4.702153 -5.383003 -160.003504
-4.685304 -5.533451 -160.002447
-4.605990 -5.603394 -160.003813
-4.526675 -5.673337 -160.005179
-4.447360 -5.743281 -160.006545
-4.430511 -5.893728 -160.005488
-4.351196 -5.963672 -160.006854
-4.271882 -6.033615 -160.008220
-4.255033 -6.184063 -160.007163
-4.175718 -6.254006 -160.008529
-4.158869 -6.404454 -160.007472
-4.079554 -6.474397 -160.008838
-4.062705 -6.624845 -160.007781
-3.983390 -6.694788 -160.009147
-3.904076 -6.764731 -160.010513
-3.887226 -6.915179 -160.009456
-3.807912 -6.985122 -160.010822
-3.728597 -7.055065 -160.012188
-3.649282 -7.125008 -160.013554
-3.569968 -7.194951 -160.014920
-3.490653 -7.264895 -160.016286
-3.411338 -7.334838 -160.017652
-3.332024 -7.404781 -160.019018
-3.252709 -7.474724 -160.020384
-3.173394 -7.544667 -160.021750
-3.156545 -7.695115 -160.020693
-3.077230 -7.765058 -160.022059
-2.997916 -7.835001 -160.023425
-2.918601 -7.904944 -160.024791
-2.839286 -7.974888 -160.026157
-2.822437 -8.125335 -160.025100
-2.743122 -8.195279 -160.026466
-2.663808 -8.265222 -160.027832
-2.584493 -8.335165 -160.029198
-2.505178 -8.405108 -160.030564
-2.425864 -8.475051 -160.031930
-2.346549 -8.544994 -160.033296
-2.267234 -8.614938 -160.034662
-2.187920 -8.684881 -160.036028
-2.108605 -8.754824 -160.037394
-2.029290 -8.824767 -160.038760
-2.012441 -8.975215 -160.037703
-1.933126 -9.045158 -160.039069
-1.853812 -9.115101 -160.040435
-1.774497 -9.185044 -160.041801
-1.695182 -9.254988 -160.043167
-1.615868 -9.324931 -160.044533
-1.536553 -9.394874 -160.045899
-1.457238 -9.464817 -160.047265
-1.377924 -9.534760 -160.048631
-1.298609 -9.604703 -160.049997
-1.219294 -9.674646 -160.051363
-1.139980 -9.744590 -160.052729
-1.060665 -9.814533 -160.054095
-0.981350 -9.884476 -160.055461
-0.902036 -9.954419 -160.056827
-0.822721 -10.024362 -160.058193
-0.743406 -10.094305 -160.059559
-0.601626 -10.083744 -160.063348
-0.522311 -10.153687 -160.064714
-0.442997 -10.223630 -160.066080
-0.363682 -10.293573 -160.067446
-0.284367 -10.363517 -160.068812
-0.142587 -10.352955 -160.072602
-0.063272 -10.422898 -160.073968
0.016042 -10.492841 -160.075334
0.095357 -10.562784 -160.076700
0.174672 -10.632728 -160.078066
0.253986 -10.702671 -160.079432
0.333301 -10.772614 -160.080798
0.475081 -10.762052 -160.084587
0.554396 -10.831996 -160.085953
0.633711 -10.901939 -160.087319
0.713025 -10.971882 -160.088685
0.854806 -10.961320 -160.092474
0.934120 -11.031264 -160.093840
1.075901 -11.020702 -160.097629
1.217681 -11.010140 -160.101418
1.421927 -10.919074 -160.107631
-3.585229 -6.775584 -159.969972
-3.495414 -6.897451 -159.968915
-3.405598 -7.019318 -159.967858
-3.315782 -7.141185 -159.966801
-3.225966 -7.263052 -159.965743
-3.136150 -7.384919 -159.964686
-3.046334 -7.506786 -159.963629
-2.970363 -7.729605 -159.960149
-2.894391 -7.952424 -159.956669
-2.818420 -8.175243 -159.953189
-2.728604 -8.297110 -159.952131
-2.638788 -8.418977 -159.951074
-2.535128 -8.439892 -159.952440
-2.445312 -8.561759 -159.951383
-2.355496 -8.683626 -159.950326
-2.251836 -8.704541 -159.951692
-2.162020 -8.826408 -159.950635
-2.072205 -8.948275 -159.949578
-1.982389 -9.070142 -159.948521
-1.878729 -9.091057 -159.949887
-1.788913 -9.212924 -159.948830
-1.685253 -9.233840 -159.950196
-1.595437 -9.355707 -159.949139
-1.491777 -9.376622 -159.950505
-1.415805 -9.599441 -159.947024
-1.339834 -9.822260 -159.943544
-1.250018 -9.944127 -159.942487
-1.160202 -10.065994 -159.941430
-1.056542 -10.086909 -159.942796
-0.966726 -10.208776 -159.941739
-0.863066 -10.229691 -159.943105
-0.773250 -10.351558 -159.942048
-0.683434 -10.473425 -159.940991
-0.593618 -10.595292 -159.939934
-0.489958 -10.616207 -159.941300
-0.386298 -10.637123 -159.942666
-0.282638 -10.658038 -159.944032
-0.178978 -10.678953 -159.945398
-0.089162 -10.800820 -159.944341
0.014498 -10.821735 -159.945707
0.104314 -10.943602 -159.944649
0.207974 -10.964517 -159.946015
0.311634 -10.985432 -159.947381
0.401450 -11.107299 -159.946324
0.505110 -11.128214 -159.947690
0.608771 -11.149130 -159.949056
0.712431 -11.170045 -159.950422
0.816091 -11.190960 -159.951788
0.919751 -11.211875 -159.953154
1.023411 -11.232790 -159.954520
1.127071 -11.253705 -159.955886
1.230732 -11.274620 -159.957253
1.334392 -11.295535 -159.958619
1.438052 -11.316451 -159.959985
1.541712 -11.337366 -159.961351
1.645372 -11.358281 -159.962717
1.749032 -11.379196 -159.964083
1.852693 -11.400111 -159.965449
1.942508 -11.521978 -159.964392
2.046168 -11.542893 -159.965758
2.149829 -11.563808 -159.967124
2.253489 -11.584724 -159.968490
2.357149 -11.605639 -159.969856
2.460809 -11.626554 -159.971222
2.564469 -11.647469 -159.972588
2.668129 -11.668384 -159.973954
2.771790 -11.689299 -159.975320
2.889294 -11.609262 -159.979109
2.992954 -11.630178 -159.980475
3.096614 -11.651093 -159.981841
3.200275 -11.672008 -159.983207
3.303935 -11.692923 -159.984573
3.407595 -11.713838 -159.985939
3.511255 -11.734753 -159.987305
3.614915 -11.755668 -159.988671
3.718575 -11.776583 -159.990037
3.822236 -11.797499 -159.991403
3.925896 -11.818414 -159.992769
4.029556 -11.839329 -159.994135
4.133216 -11.860244 -159.995501
4.250720 -11.780207 -159.999290
4.354381 -11.801122 -160.000656
4.458041 -11.822037 -160.002022
4.575545 -11.742001 -160.005811
4.679205 -11.762916 -160.007177
4.796710 -11.682879 -160.010966
4.969592 -11.199035 -160.024448
5.073252 -11.219950 -160.025814
5.190756 -11.139913 -160.029603
5.294417 -11.160828 -160.030969
5.411921 -11.080791 -160.034758
5.529426 -11.000755 -160.038548
5.646930 -10.920718 -160.042337
5.750590 -10.941633 -160.043703
5.868095 -10.861596 -160.047492
5.985599 -10.781559 -160.051281
6.089259 -10.802474 -160.052647
6.206764 -10.722438 -160.056436
6.310424 -10.743353 -160.057802
6.427928 -10.663316 -160.061591
6.545433 -10.583279 -160.065380
6.649093 -10.604194 -160.066746
6.766598 -10.524158 -160.070536
6.884102 -10.444121 -160.074325
6.987762 -10.465036 -160.075691
7.105267 -10.384999 -160.079480
7.222771 -10.304962 -160.083269
7.367964 -10.023022 -160.091904
7.485469 -9.942985 -160.095694
7.602973 -9.862948 -160.099483
7.720478 -9.782911 -160.103272
7.824138 -9.803827 -160.104638
7.941642 -9.723790 -160.108427
8.045303 -9.744705 -160.109793
8.190496 -9.462764 -160.118428
8.308000 -9.382728 -160.122218
8.411660 -9.403643 -160.123584
8.529165 -9.323606 -160.127373
8.632825 -9.344521 -160.128739
-0.373860 -10.241879 -159.896173
-0.196658 -10.396860 -159.892693
-0.019455 -10.551841 -159.889212
0.157748 -10.706822 -159.885732
0.334950 -10.861803 -159.882252
0.473667 -10.922436 -159.881195
0.650869 -11.077417 -159.877715
0.789586 -11.138049 -159.876658
0.889816 -11.104332 -159.878024
1.028532 -11.164964 -159.876966
1.167248 -11.225596 -159.875909
1.305965 -11.286228 -159.874852
1.444681 -11.346860 -159.873795
1.583397 -11.407493 -159.872738
1.683627 -11.373776 -159.874104
1.822343 -11.434408 -159.873047
1.922573 -11.400691 -159.874413
2.061290 -11.461323 -159.873356
2.200006 -11.521955 -159.872299
2.338722 -11.582587 -159.871242
2.477438 -11.643219 -159.870185
2.731614 -11.986899 -159.861858
2.870330 -12.047531 -159.860801
2.970560 -12.013814 -159.862167
3.070790 -11.980097 -159.863533
3.171020 -11.946380 -159.864899
3.309736 -12.007012 -159.863842
3.409966 -11.973295 -159.865208
3.510196 -11.939578 -159.866574
3.610426 -11.905861 -159.867940
3.710656 -11.872144 -159.869306
3.810886 -11.838427 -159.870672
3.949602 -11.899059 -159.869615
4.049832 -11.865342 -159.870981
4.150062 -11.831625 -159.872347
4.250292 -11.797908 -159.873713
4.350522 -11.764191 -159.875079
4.412265 -11.636125 -159.878868
4.512495 -11.602408 -159.880234
4.612725 -11.568691 -159.881600
4.751442 -11.629323 -159.880543
4.851671 -11.595606 -159.881909
4.951901 -11.561889 -159.883275
5.052131 -11.528172 -159.884641
5.152361 -11.494455 -159.886007
5.252591 -11.460738 -159.887373
5.391307 -11.521370 -159.886316
5.491537 -11.487653 -159.887682
5.591767 -11.453936 -159.889048
5.691997 -11.420219 -159.890414
5.792227 -11.386502 -159.891780
5.892457 -11.352785 -159.893146
5.954201 -11.224719 -159.896935
6.054431 -11.191002 -159.898301
6.154660 -11.157285 -159.899667
6.254890 -11.123568 -159.901033
6.355120 -11.089851 -159.902399
6.455350 -11.056134 -159.903765
6.555580 -11.022417 -159.905131
6.655810 -10.988700 -159.906497
6.756040 -10.954983 -159.907863
6.856270 -10.921266 -159.909229
6.956500 -10.887549 -159.910595
7.018243 -10.759483 -159.914384
7.118473 -10.725766 -159.915751
7.218703 -10.692049 -159.917117
7.318933 -10.658332 -159.918483
7.419163 -10.624615 -159.919849
7.519393 -10.590898 -159.921215
7.619623 -10.557181 -159.922581
7.719853 -10.523464 -159.923947
7.820083 -10.489747 -159.925313
7.881826 -10.361681 -159.929102
7.982056 -10.327964 -159.930468
8.082286 -10.294247 -159.931834
8.182516 -10.260530 -159.933200
8.282746 -10.226813 -159.934566
8.382976 -10.193096 -159.935932
8.483206 -10.159379 -159.937298
8.583436 -10.125662 -159.938664
8.683666 -10.091945 -159.940030
8.783896 -10.058228 -159.941396
8.884126 -10.024511 -159.942762
8.945869 -9.896445 -159.946551
9.046099 -9.862728 -159.947917
9.107843 -9.734661 -159.951706
9.208073 -9.700944 -159.953072
9.308302 -9.667227 -159.954438
9.370046 -9.539161 -159.958227
9.470276 -9.505444 -159.959593
9.570506 -9.471727 -159.960959
9.632249 -9.343661 -159.964749
9.732479 -9.309944 -159.966115
9.832709 -9.276227 -159.967481
9.894453 -9.148161 -159.971270
9.994683 -9.114444 -159.972636
10.056426 -8.986378 -159.976425
10.156656 -8.952661 -159.977791
10.179913 -8.730246 -159.984003
10.164684 -8.413481 -159.992639
10.226428 -8.285415 -159.996428
10.326658 -8.251698 -159.997794
10.388401 -8.123632 -160.001583
10.488631 -8.089915 -160.002949
10.588861 -8.056198 -160.004315
10.689091 -8.022481 -160.005681
10.750834 -7.894415 -160.009470
10.851064 -7.860698 -160.010836
10.951294 -7.826981 -160.012202
11.013038 -7.698915 -160.015991
11.113268 -7.665198 -160.017357
11.136525 -7.442783 -160.023569
11.159782 -7.220368 -160.029782
11.221526 -7.092301 -160.033571
11.283269 -6.964235 -160.037360
11.383499 -6.930518 -160.038726
11.445243 -6.802452 -160.042515
11.506986 -6.674386 -160.046304
11.568730 -6.546320 -160.050093
