ply
format ascii 1.0
element vertex 1281
property float x
property float y
property float z
element face 0
property list uchar uint vertex_indices
end_header
2.489038 -11.674040 -158.851094
2.639486 -11.657191 -158.850037
2.789934 -11.640341 -158.848980
3.262400 -11.873354 -158.838231
3.412848 -11.856505 -158.837173
3.563296 -11.839656 -158.836116
3.874753 -11.947738 -158.830213
4.105706 -11.993355 -158.826733
4.256153 -11.976505 -158.825676
4.406601 -11.959656 -158.824619
4.557049 -11.942807 -158.823561
4.707497 -11.925958 -158.822504
4.857945 -11.909109 -158.821447
5.008393 -11.892260 -158.820390
5.158840 -11.875410 -158.819333
5.309288 -11.858561 -158.818276
5.459736 -11.841712 -158.817219
5.610184 -11.824863 -158.816162
5.680127 -11.745548 -158.817528
5.830575 -11.728699 -158.816471
5.981023 -11.711850 -158.815414
6.050966 -11.632535 -158.816780
6.201414 -11.615686 -158.815722
6.351862 -11.598837 -158.814665
6.421805 -11.519522 -158.816031
6.572253 -11.502673 -158.814974
6.722700 -11.485824 -158.813917
6.873148 -11.468975 -158.812860
6.943091 -11.389660 -158.814226
7.013035 -11.310346 -158.815592
7.163482 -11.293496 -158.814535
7.233426 -11.214182 -158.815901
7.303369 -11.134867 -158.817267
7.453817 -11.118018 -158.816210
7.523760 -11.038703 -158.817576
7.593703 -10.959389 -158.818942
7.744151 -10.942539 -158.817885
7.894599 -10.925690 -158.816828
7.964542 -10.846376 -158.818194
8.114990 -10.829526 -158.817137
8.184933 -10.750212 -158.818503
8.335381 -10.733363 -158.817445
8.485828 -10.716513 -158.816388
8.636276 -10.699664 -158.815331
8.786724 -10.682815 -158.814274
8.856667 -10.603501 -158.815640
8.926610 -10.524186 -158.817006
8.996554 -10.444871 -158.818372
9.066497 -10.365556 -158.819738
9.136440 -10.286242 -158.821104
9.286888 -10.269393 -158.820047
9.356831 -10.190078 -158.821413
9.426774 -10.110763 -158.822779
9.496717 -10.031449 -158.824145
9.566660 -9.952134 -158.825511
9.717108 -9.935285 -158.824454
9.787051 -9.855970 -158.825820
9.856995 -9.776655 -158.827186
9.926938 -9.697341 -158.828552
9.996881 -9.618026 -158.829918
10.066824 -9.538711 -158.831284
10.136767 -9.459397 -158.832650
10.206710 -9.380082 -158.834016
10.357158 -9.363233 -158.832959
10.427101 -9.283918 -158.834325
10.497044 -9.204603 -158.835691
10.566988 -9.125289 -158.837057
10.636931 -9.045974 -158.838423
10.706874 -8.966659 -158.839789
10.776817 -8.887345 -158.841155
10.846760 -8.808030 -158.842521
10.916703 -8.728715 -158.843887
11.067151 -8.711866 -158.842830
11.137094 -8.632551 -158.844196
11.207038 -8.553237 -158.845562
11.276981 -8.473922 -158.846928
11.346924 -8.394607 -158.848294
11.416867 -8.315293 -158.849660
11.486810 -8.235978 -158.851026
11.476249 -8.094198 -158.854815
11.546192 -8.014883 -158.856181
11.616135 -7.935568 -158.857547
11.686078 -7.856254 -158.858913
11.756021 -7.776939 -158.860279
11.825964 -7.697624 -158.861645
11.895908 -7.618310 -158.863011
11.885346 -7.476529 -158.866801
11.955289 -7.397215 -158.868167
12.025232 -7.317900 -158.869533
12.014671 -7.176120 -158.873322
12.004109 -7.034340 -158.877111
11.993548 -6.892559 -158.880900
11.982986 -6.750779 -158.884689
11.972425 -6.608999 -158.888478
12.042368 -6.529684 -158.889844
12.112311 -6.450370 -158.891210
12.101750 -6.308589 -158.894999
12.171693 -6.229275 -158.896366
12.161131 -6.087494 -158.900155
12.231074 -6.008180 -158.901521
12.220513 -5.866400 -158.905310
12.209951 -5.724619 -158.909099
12.199390 -5.582839 -158.912888
12.188828 -5.441059 -158.916677
12.178267 -5.299279 -158.920466
12.167705 -5.157498 -158.924256
12.237648 -5.078184 -158.925622
12.227087 -4.936404 -158.929411
12.055516 -4.669692 -158.938046
12.044954 -4.527912 -158.941835
12.034393 -4.386132 -158.945624
11.943327 -4.181886 -158.951837
11.691251 -3.852709 -158.962895
11.680690 -3.710929 -158.966684
11.670128 -3.569149 -158.970473
11.740071 -3.489834 -158.971839
11.729510 -3.348054 -158.975629
11.718948 -3.206274 -158.979418
11.708387 -3.064493 -158.983207
11.617320 -2.860248 -158.989419
11.606759 -2.718467 -158.993208
11.515693 -2.514222 -158.999420
11.263617 -2.185045 -159.010479
11.253056 -2.043264 -159.014268
11.242494 -1.901484 -159.018057
11.231933 -1.759704 -159.021846
11.221371 -1.617924 -159.025636
11.130305 -1.413678 -159.031848
11.119743 -1.271898 -159.035637
11.189686 -1.192583 -159.037003
11.179125 -1.050803 -159.040792
6.864010 -11.373930 -158.831483
6.884925 -11.270270 -158.832849
7.006792 -11.180454 -158.831792
7.532467 -11.146016 -158.821042
7.654334 -11.056200 -158.819985
7.877153 -10.980228 -158.816505
7.999020 -10.890413 -158.815448
8.120887 -10.800597 -158.814391
8.242754 -10.710781 -158.813333
8.364621 -10.620965 -158.812276
8.486488 -10.531149 -158.811219
8.507403 -10.427489 -158.812585
8.629270 -10.337673 -158.811528
8.650185 -10.234013 -158.812894
8.873004 -10.158042 -158.809414
9.095823 -10.082070 -158.805934
9.520546 -10.033787 -158.797607
9.541461 -9.930127 -158.798973
9.663328 -9.840311 -158.797916
9.684243 -9.736651 -158.799282
9.907062 -9.660680 -158.795802
10.230833 -9.598552 -158.789899
10.352700 -9.508737 -158.788841
10.474567 -9.418921 -158.787784
10.495482 -9.315261 -158.789150
10.617349 -9.225445 -158.788093
10.638264 -9.121785 -158.789459
10.760131 -9.031969 -158.788402
10.881998 -8.942153 -158.787345
11.003865 -8.852337 -158.786288
11.024781 -8.748677 -158.787654
11.146648 -8.658861 -158.786597
11.167563 -8.555201 -158.787963
11.289430 -8.465385 -158.786906
11.310345 -8.361725 -158.788272
11.432212 -8.271909 -158.787215
11.554079 -8.182093 -158.786158
11.574994 -8.078433 -158.787524
11.696861 -7.988617 -158.786466
11.717776 -7.884957 -158.787832
11.738691 -7.781297 -158.789198
11.860558 -7.691481 -158.788141
11.881474 -7.587821 -158.789507
11.902389 -7.484161 -158.790873
11.923304 -7.380501 -158.792239
12.045171 -7.290685 -158.791182
12.066086 -7.187025 -158.792548
12.187953 -7.097209 -158.791491
12.208868 -6.993549 -158.792857
12.330735 -6.903733 -158.791800
12.351650 -6.800073 -158.793166
12.372566 -6.696413 -158.794532
12.393481 -6.592752 -158.795898
12.414396 -6.489092 -158.797264
12.435311 -6.385432 -158.798630
12.456226 -6.281772 -158.799996
12.477141 -6.178112 -158.801362
12.397104 -6.060607 -158.805151
12.418020 -5.956947 -158.806517
12.438935 -5.853287 -158.807883
12.459850 -5.749627 -158.809249
12.480765 -5.645967 -158.810615
12.501680 -5.542307 -158.811981
12.421643 -5.424802 -158.815771
12.442558 -5.321142 -158.817137
12.463474 -5.217482 -158.818503
12.484389 -5.113822 -158.819869
12.404352 -4.996317 -158.823658
12.425267 -4.892657 -158.825024
12.446182 -4.788997 -158.826390
12.467097 -4.685337 -158.827756
12.387060 -4.567832 -158.831545
12.407976 -4.464172 -158.832911
12.428891 -4.360512 -158.834277
12.449806 -4.256852 -158.835643
12.369769 -4.139347 -158.839432
12.390684 -4.035687 -158.840798
12.310647 -3.918182 -158.844587
12.331563 -3.814522 -158.845953
12.251526 -3.697018 -158.849742
12.272441 -3.593358 -158.851108
12.192404 -3.475853 -158.854898
12.213319 -3.372193 -158.856264
12.234234 -3.268533 -158.857630
12.154198 -3.151028 -158.861419
12.175113 -3.047368 -158.862785
12.095076 -2.929864 -158.866574
12.115991 -2.826204 -158.867940
12.035954 -2.708699 -158.871729
11.955918 -2.591195 -158.875518
11.976833 -2.487534 -158.876884
11.896796 -2.370030 -158.880673
11.917711 -2.266370 -158.882039
11.938626 -2.162710 -158.883405
11.959541 -2.059049 -158.884771
11.879504 -1.941545 -158.888561
11.900420 -1.837885 -158.889927
11.921335 -1.734225 -158.891293
11.841298 -1.616720 -158.895082
11.761261 -1.499216 -158.898871
11.681224 -1.381711 -158.902660
11.702140 -1.278051 -158.904026
11.723055 -1.174391 -158.905392
11.643018 -1.056886 -158.909181
11.663933 -0.953226 -158.910547
11.684848 -0.849566 -158.911913
11.705763 -0.745906 -158.913279
11.625726 -0.628401 -158.917068
11.646642 -0.524741 -158.918434
11.667557 -0.421081 -158.919800
11.587520 -0.303577 -158.923590
11.608435 -0.199916 -158.924956
11.629350 -0.096256 -158.926322
11.549313 0.021248 -158.930111
11.469277 0.138753 -158.933900
11.389240 0.256257 -158.937689
11.309203 0.373762 -158.941478
11.229166 0.491266 -158.945267
10.846274 0.650304 -158.956326
10.867189 0.753964 -158.957692
10.888104 0.857624 -158.959058
10.909019 0.961284 -158.960424
10.828982 1.078789 -158.964213
10.849898 1.182449 -158.965579
10.870813 1.286109 -158.966945
10.891728 1.389769 -158.968311
10.912643 1.493429 -158.969677
10.832606 1.610934 -158.973466
10.752569 1.728438 -158.977255
10.773485 1.832098 -158.978621
10.693448 1.949603 -158.982410
10.714363 2.053263 -158.983776
10.634326 2.170767 -158.987566
10.655241 2.274428 -158.988932
10.575204 2.391932 -158.992721
10.495168 2.509437 -158.996510
10.415131 2.626941 -159.000299
10.436046 2.730601 -159.001665
10.456961 2.834261 -159.003031
10.376924 2.951766 -159.006820
10.397839 3.055426 -159.008186
10.418755 3.159086 -159.009552
10.338718 3.276591 -159.013341
10.359633 3.380251 -159.014707
10.380548 3.483911 -159.016073
10.300511 3.601415 -159.019863
10.220475 3.718920 -159.023652
10.140438 3.836424 -159.027441
10.060401 3.953929 -159.031230
9.980364 4.071433 -159.035019
10.001279 4.175094 -159.036385
9.921243 4.292598 -159.040174
9.942158 4.396258 -159.041540
9.862121 4.513763 -159.045329
9.378276 4.686645 -159.058811
9.298240 4.804149 -159.062600
9.218203 4.921653 -159.066389
9.138166 5.039158 -159.070179
11.665379 -8.113995 -158.823108
11.726011 -7.975278 -158.822051
11.692294 -7.875048 -158.823417
11.752927 -7.736332 -158.822360
11.813559 -7.597616 -158.821303
11.968540 -7.420413 -158.817823
12.406568 -7.127751 -158.807073
12.655899 -6.912062 -158.801170
12.716531 -6.773346 -158.800113
12.777163 -6.634630 -158.799055
12.743446 -6.534400 -158.800421
12.804078 -6.395684 -158.799364
12.864710 -6.256967 -158.798307
12.925342 -6.118251 -158.797250
12.985974 -5.979535 -158.796193
12.952257 -5.879305 -158.797559
13.012890 -5.740588 -158.796502
12.979173 -5.640359 -158.797868
13.039805 -5.501642 -158.796811
13.006088 -5.401412 -158.798177
12.972371 -5.301182 -158.799543
12.938654 -5.200952 -158.800909
12.904937 -5.100723 -158.802275
12.871220 -5.000493 -158.803641
12.931852 -4.861776 -158.802584
12.898135 -4.761546 -158.803950
12.864418 -4.661316 -158.805316
12.830701 -4.561087 -158.806682
12.796984 -4.460857 -158.808048
12.857616 -4.322140 -158.806991
12.823899 -4.221910 -158.808357
12.790182 -4.121680 -158.809723
12.850814 -3.982964 -158.808666
12.817097 -3.882734 -158.810032
12.783380 -3.782504 -158.811398
12.749663 -3.682274 -158.812764
12.715946 -3.582044 -158.814130
12.776578 -3.443328 -158.813073
12.742861 -3.343098 -158.814439
12.709144 -3.242868 -158.815805
12.675427 -3.142638 -158.817171
12.641710 -3.042408 -158.818537
12.607993 -2.942179 -158.819903
12.668625 -2.803462 -158.818846
12.634908 -2.703232 -158.820212
12.601191 -2.603002 -158.821578
12.567474 -2.502773 -158.822944
12.533757 -2.402543 -158.824310
12.500040 -2.302313 -158.825676
12.466323 -2.202083 -158.827042
12.432606 -2.101853 -158.828408
12.398889 -2.001623 -158.829774
12.365172 -1.901393 -158.831140
12.331455 -1.801163 -158.832506
12.392087 -1.662447 -158.831449
12.358370 -1.562217 -158.832815
12.324653 -1.461987 -158.834181
12.290936 -1.361757 -158.835547
12.257219 -1.261527 -158.836913
12.223502 -1.161297 -158.838279
12.189785 -1.061067 -158.839645
12.156068 -0.960837 -158.841011
12.122351 -0.860607 -158.842377
12.088634 -0.760377 -158.843743
12.149266 -0.621661 -158.842686
12.115549 -0.521431 -158.844052
12.081832 -0.421201 -158.845418
12.048115 -0.320971 -158.846784
12.014398 -0.220741 -158.848150
12.075031 -0.082025 -158.847093
12.041314 0.018205 -158.848459
12.007597 0.118435 -158.849825
11.973880 0.218665 -158.851191
11.940163 0.318895 -158.852557
11.906446 0.419124 -158.853923
11.872729 0.519354 -158.855289
11.839012 0.619584 -158.856655
11.805295 0.719814 -158.858021
11.771578 0.820044 -158.859387
11.737861 0.920274 -158.860753
11.798493 1.058990 -158.859696
11.764776 1.159220 -158.861062
11.731059 1.259450 -158.862428
11.697342 1.359680 -158.863794
11.663625 1.459910 -158.865160
11.629908 1.560140 -158.866526
11.596191 1.660370 -158.867892
11.562474 1.760600 -158.869258
11.528757 1.860830 -158.870624
11.495040 1.961060 -158.871990
11.461323 2.061290 -158.873356
11.427606 2.161520 -158.874722
11.393889 2.261749 -158.876088
11.360172 2.361979 -158.877454
11.326455 2.462209 -158.878820
11.292738 2.562439 -158.880186
11.259021 2.662669 -158.881552
11.225304 2.762899 -158.882918
11.191587 2.863129 -158.884284
11.252219 3.001845 -158.883227
11.218502 3.102075 -158.884593
11.184785 3.202305 -158.885959
11.151068 3.302535 -158.887325
11.117351 3.402765 -158.888691
10.989285 3.464509 -158.892480
10.955568 3.564738 -158.893846
10.921851 3.664968 -158.895212
10.888134 3.765198 -158.896578
10.854417 3.865428 -158.897944
10.820700 3.965658 -158.899310
10.786983 4.065888 -158.900676
10.753266 4.166118 -158.902042
10.719549 4.266348 -158.903408
10.591483 4.328091 -158.907197
10.557766 4.428321 -158.908563
10.524049 4.528551 -158.909929
10.395983 4.590295 -158.913719
10.362266 4.690525 -158.915085
10.328549 4.790755 -158.916451
10.294832 4.890985 -158.917817
10.261115 4.991215 -158.919183
10.227398 5.091444 -158.920549
10.193681 5.191674 -158.921915
10.065614 5.253418 -158.925704
10.031897 5.353648 -158.927070
9.903831 5.415391 -158.930859
9.775765 5.477135 -158.934648
9.742048 5.577365 -158.936014
9.708331 5.677595 -158.937380
9.674614 5.777825 -158.938746
9.546548 5.839568 -158.942535
9.512831 5.939798 -158.943901
9.479114 6.040028 -158.945267
9.351048 6.101772 -158.949056
9.317331 6.202002 -158.950422
9.189265 6.263745 -158.954212
9.061199 6.325489 -158.958001
8.933133 6.387232 -158.961790
8.710717 6.410489 -158.968002
13.191713 -4.679646 -158.882890
13.237329 -4.448693 -158.879410
13.220480 -4.298245 -158.878353
13.203631 -4.147797 -158.877295
13.186781 -3.997349 -158.876238
13.107467 -3.927406 -158.877604
13.090617 -3.776958 -158.876547
13.011303 -3.707015 -158.877913
12.994453 -3.556567 -158.876856
12.915139 -3.486624 -158.878222
12.898289 -3.336176 -158.877165
12.818975 -3.266233 -158.878531
12.802125 -3.115785 -158.877474
12.722810 -3.045842 -158.878840
12.705961 -2.895394 -158.877783
12.814043 -2.583936 -158.871880
12.797194 -2.433488 -158.870822
12.780345 -2.283040 -158.869765
12.701030 -2.213097 -158.871131
12.684180 -2.062649 -158.870074
12.604866 -1.992706 -158.871440
12.588016 -1.842258 -158.870383
12.508702 -1.772315 -158.871749
12.429387 -1.702372 -158.873115
12.350072 -1.632429 -158.874481
12.333223 -1.481981 -158.873424
12.253908 -1.412038 -158.874790
12.237059 -1.261590 -158.873733
12.407606 -0.869627 -158.865406
12.390757 -0.719179 -158.864349
12.373908 -0.568732 -158.863292
12.357058 -0.418284 -158.862235
12.340209 -0.267836 -158.861178
12.323360 -0.117388 -158.860121
12.306511 0.033060 -158.859064
12.227196 0.103003 -158.860430
12.210347 0.253451 -158.859373
12.131032 0.323395 -158.860739
12.114183 0.473842 -158.859682
12.097333 0.624290 -158.858625
12.080484 0.774738 -158.857567
12.063635 0.925186 -158.856510
11.984320 0.995129 -158.857876
11.967471 1.145577 -158.856819
11.888156 1.215521 -158.858185
11.871307 1.365969 -158.857128
11.791992 1.435912 -158.858494
11.712677 1.505855 -158.859860
11.695828 1.656303 -158.858803
11.616513 1.726246 -158.860169
11.599664 1.876694 -158.859112
11.582815 2.027142 -158.858055
11.503500 2.097085 -158.859421
11.486650 2.247533 -158.858364
11.469801 2.397981 -158.857307
11.452952 2.548429 -158.856250
11.436103 2.698877 -158.855192
11.356788 2.768820 -158.856558
11.339939 2.919268 -158.855501
11.323089 3.069716 -158.854444
11.243775 3.139659 -158.855810
11.164460 3.209602 -158.857176
11.147611 3.360050 -158.856119
11.068296 3.429993 -158.857485
10.988981 3.499936 -158.858851
10.972132 3.650384 -158.857794
10.955282 3.800832 -158.856737
10.938433 3.951280 -158.855680
10.921584 4.101728 -158.854623
10.904735 4.252176 -158.853566
10.825420 4.322119 -158.854932
10.746105 4.392062 -158.856298
10.729256 4.542510 -158.855241
10.649941 4.612454 -158.856607
10.570626 4.682397 -158.857973
10.553777 4.832845 -158.856916
10.536928 4.983293 -158.855858
10.457613 5.053236 -158.857224
10.440764 5.203684 -158.856167
10.423914 5.354132 -158.855110
10.407065 5.504580 -158.854053
10.327750 5.574523 -158.855419
10.310901 5.724971 -158.854362
10.231586 5.794914 -158.855728
10.152272 5.864857 -158.857094
10.072957 5.934800 -158.858460
9.993642 6.004743 -158.859826
9.914327 6.074686 -158.861192
9.897478 6.225134 -158.860135
9.818163 6.295078 -158.861501
9.738848 6.365021 -158.862867
9.659534 6.434964 -158.864233
9.580219 6.504907 -158.865599
9.500904 6.574850 -158.866965
9.484055 6.725298 -158.865908
9.404740 6.795241 -158.867274
9.325425 6.865184 -158.868640
9.246110 6.935128 -158.870006
9.166796 7.005071 -158.871372
9.087481 7.075014 -158.872738
9.008166 7.144957 -158.874104
8.928851 7.214900 -158.875470
8.849536 7.284843 -158.876836
8.770222 7.354787 -158.878202
8.690907 7.424730 -158.879568
8.611592 7.494673 -158.880934
8.532277 7.564616 -158.882300
8.452962 7.634559 -158.883666
8.373648 7.704502 -158.885032
8.294333 7.774446 -158.886398
8.152553 7.763884 -158.890187
8.073238 7.833827 -158.891553
7.993923 7.903770 -158.892919
7.914608 7.973713 -158.894285
7.835293 8.043657 -158.895651
7.755979 8.113600 -158.897017
7.676664 8.183543 -158.898383
7.597349 8.253486 -158.899749
7.455569 8.242924 -158.903539
7.376254 8.312868 -158.904905
7.296939 8.382811 -158.906271
7.217624 8.452754 -158.907637
7.075844 8.442192 -158.911426
6.996529 8.512135 -158.912792
6.917214 8.582079 -158.914158
6.837900 8.652022 -158.915524
6.758585 8.721965 -158.916890
6.679270 8.791908 -158.918256
6.537490 8.781346 -158.922045
6.458175 8.851290 -158.923411
6.378860 8.921233 -158.924777
6.299545 8.991176 -158.926143
5.970368 8.739100 -158.937202
5.828588 8.728538 -158.940991
5.686808 8.717977 -158.944780
5.545027 8.707415 -158.948569
5.403247 8.696853 -158.952358
5.261467 8.686292 -158.956147
5.119686 8.675730 -158.959936
4.915441 8.584664 -158.966149
10.309295 5.315148 -158.883604
10.219480 5.437015 -158.882547
10.129664 5.558882 -158.881490
10.026004 5.579797 -158.882856
9.936188 5.701664 -158.881799
9.846372 5.823531 -158.880742
9.756556 5.945399 -158.879684
9.666740 6.067266 -158.878627
9.576925 6.189133 -158.877570
9.473264 6.210048 -158.878936
9.383449 6.331915 -158.877879
9.279788 6.352830 -158.879245
9.189973 6.474697 -158.878188
9.169378 7.101324 -158.865015
9.079562 7.223191 -158.863958
8.975902 7.244106 -158.865324
8.872242 7.265021 -158.866690
8.782426 7.386888 -158.865633
8.678766 7.407803 -158.866999
8.575106 7.428718 -158.868365
8.485290 7.550585 -158.867308
8.395474 7.672452 -158.866251
8.305659 7.794319 -158.865194
8.201998 7.815234 -158.866560
8.112183 7.937101 -158.865503
8.022367 8.058969 -158.864446
7.960240 8.382739 -158.858542
7.856579 8.403655 -158.859908
7.766764 8.525522 -158.858851
7.663103 8.546437 -158.860217
7.559443 8.567352 -158.861583
7.469627 8.689219 -158.860526
7.365967 8.710134 -158.861892
7.262307 8.731049 -158.863258
7.158647 8.751964 -158.864624
7.054987 8.772879 -158.865990
6.951327 8.793795 -158.867356
6.847666 8.814710 -158.868722
6.744006 8.835625 -158.870088
6.640346 8.856540 -158.871454
6.550530 8.978407 -158.870397
6.446870 8.999322 -158.871763
6.343210 9.020237 -158.873129
6.239550 9.041152 -158.874495
6.135890 9.062068 -158.875861
6.032229 9.082983 -158.877227
5.928569 9.103898 -158.878593
5.824909 9.124813 -158.879959
5.721249 9.145728 -158.881325
5.617589 9.166643 -158.882691
5.500084 9.086606 -158.886480
5.396424 9.107522 -158.887846
5.292764 9.128437 -158.889212
5.189104 9.149352 -158.890578
5.085444 9.170267 -158.891945
4.981784 9.191182 -158.893311
4.878123 9.212097 -158.894677
4.774463 9.233012 -158.896043
4.670803 9.253927 -158.897409
4.567143 9.274843 -158.898775
4.463483 9.295758 -158.900141
4.359823 9.316673 -158.901507
4.242318 9.236636 -158.905296
4.138658 9.257551 -158.906662
4.034998 9.278466 -158.908028
3.917493 9.198430 -158.911817
3.813833 9.219345 -158.913183
3.710173 9.240260 -158.914549
3.592669 9.160223 -158.918338
3.489008 9.181138 -158.919704
3.371504 9.101101 -158.923493
3.267844 9.122016 -158.924859
3.150339 9.041980 -158.928648
3.032835 8.961943 -158.932438
2.915330 8.881906 -158.936227
2.797826 8.801869 -158.940016
2.680321 8.721833 -158.943805
2.562817 8.641796 -158.947594
2.459157 8.662711 -158.948960
2.341652 8.582674 -158.952749
2.237992 8.603589 -158.954115
2.092799 8.321649 -158.962751
1.989139 8.342564 -158.964117
1.871634 8.262527 -158.967906
1.767974 8.283442 -158.969272
1.650470 8.203405 -158.973061
1.546809 8.224320 -158.974427
1.429305 8.144284 -158.978216
1.325645 8.165199 -158.979582
1.208140 8.085162 -158.983371
1.090636 8.005125 -158.987160
6.994583 8.821010 -158.906160
6.894353 8.787293 -158.907526
6.755637 8.847925 -158.906469
6.616920 8.908557 -158.905412
6.439718 9.063538 -158.901932
6.301001 9.124170 -158.900875
6.200771 9.090453 -158.902241
6.062055 9.151085 -158.901184
5.846366 9.400416 -158.895280
5.707650 9.461048 -158.894223
5.568934 9.521680 -158.893166
5.468704 9.487963 -158.894532
5.368474 9.454246 -158.895898
5.268244 9.420529 -158.897264
5.129527 9.481161 -158.896207
4.990811 9.541793 -158.895150
4.852095 9.602425 -158.894093
4.713379 9.663057 -158.893036
4.613149 9.629340 -158.894402
4.474432 9.689973 -158.893345
4.374202 9.656256 -158.894711
4.273973 9.622539 -158.896077
4.173743 9.588822 -158.897443
4.073513 9.555105 -158.898809
3.973283 9.521388 -158.900175
3.834566 9.582020 -158.899118
3.734337 9.548303 -158.900484
3.634107 9.514586 -158.901850
3.533877 9.480869 -158.903216
3.433647 9.447152 -158.904582
3.333417 9.413435 -158.905948
3.233187 9.379718 -158.907314
3.132957 9.346001 -158.908680
3.032727 9.312284 -158.910046
2.932497 9.278567 -158.911412
2.832267 9.244850 -158.912778
2.732037 9.211133 -158.914144
2.631807 9.177416 -158.915510
2.531577 9.143699 -158.916876
2.431348 9.109982 -158.918242
2.331118 9.076265 -158.919608
2.230888 9.042548 -158.920974
2.130658 9.008831 -158.922340
2.030428 8.975114 -158.923706
1.930198 8.941397 -158.925072
1.829968 8.907680 -158.926438
1.729738 8.873963 -158.927804
1.629508 8.840246 -158.929170
1.529278 8.806529 -158.930536
1.429048 8.772812 -158.931902
1.328818 8.739095 -158.933268
1.228588 8.705378 -158.934634
1.128359 8.671661 -158.936000
1.028129 8.637944 -158.937366
0.927899 8.604227 -158.938732
0.827669 8.570510 -158.940098
0.727439 8.536793 -158.941464
0.627209 8.503076 -158.942830
0.526979 8.469359 -158.944196
0.426749 8.435642 -158.945562
0.326519 8.401925 -158.946928
0.226289 8.368208 -158.948294
0.126059 8.334491 -158.949660
0.064316 8.206425 -158.953449
-0.035914 8.172708 -158.954815
-0.136144 8.138991 -158.956181
-0.236374 8.105274 -158.957547
-0.336604 8.071557 -158.958913
-0.436834 8.037840 -158.960279
-0.537064 8.004123 -158.961645
-0.598807 7.876056 -158.965435
-0.699037 7.842339 -158.966801
-0.799267 7.808622 -158.968167
-0.899497 7.774905 -158.969533
-0.961241 7.646839 -158.973322
-1.061471 7.613122 -158.974688
-1.161700 7.579405 -158.976054
-1.261930 7.545688 -158.977420
-1.362160 7.511971 -158.978786
-1.462390 7.478254 -158.980152
-1.524134 7.350188 -158.983941
1.123111 9.004871 -158.956346
1.053168 8.925556 -158.957712
0.983225 8.846241 -158.959078
0.832777 8.829392 -158.958021
0.682329 8.812543 -158.956964
0.451377 8.858159 -158.953483
0.300929 8.841310 -158.952426
0.150481 8.824461 -158.951369
0.000033 8.807612 -158.950312
-0.150415 8.790763 -158.949255
-0.220358 8.711448 -158.950621
-0.290301 8.632133 -158.951987
-0.440749 8.615284 -158.950930
-0.510692 8.535970 -158.952296
-0.580635 8.456655 -158.953662
-0.731083 8.439806 -158.952605
-0.801026 8.360491 -158.953971
-0.870969 8.281176 -158.955337
-1.021417 8.264327 -158.954280
-1.091360 8.185013 -158.955646
-1.161303 8.105698 -158.957012
-1.231246 8.026383 -158.958378
-1.301190 7.947068 -158.959744
-1.371133 7.867754 -158.961110
-1.441076 7.788439 -158.962476
-1.511019 7.709124 -158.963842
-1.661467 7.692275 -158.962785
-1.731410 7.612961 -158.964151
-1.801353 7.533646 -158.965517
-1.871296 7.454331 -158.966883
-1.941240 7.375017 -158.968249
-2.011183 7.295702 -158.969615
-2.081126 7.216387 -158.970981
-2.151069 7.137072 -158.972347
-2.221012 7.057758 -158.973713
-2.290955 6.978443 -158.975079
-2.360898 6.899128 -158.976445
-2.430842 6.819814 -158.977811
-2.500785 6.740499 -158.979177
-2.570728 6.661184 -158.980543
-2.640671 6.581870 -158.981909
-2.710614 6.502555 -158.983275
-2.780557 6.423240 -158.984641
-2.850501 6.343926 -158.986007
-2.920444 6.264611 -158.987373
-2.990387 6.185296 -158.988739
-3.060330 6.105982 -158.990105
-3.130273 6.026667 -158.991471
-3.200216 5.947352 -158.992837
-3.270160 5.868037 -158.994203
-3.340103 5.788723 -158.995569
-3.410046 5.709408 -158.996935
-3.479989 5.630093 -158.998301
-3.549932 5.550779 -158.999667
-3.619875 5.471464 -159.001033
-3.689818 5.392149 -159.002399
-3.759762 5.312835 -159.003765
-3.829705 5.233520 -159.005131
-3.899648 5.154205 -159.006497
-3.969591 5.074891 -159.007863
-4.039534 4.995576 -159.009229
-4.028973 4.853796 -159.013018
-4.098916 4.774481 -159.014384
-4.168859 4.695166 -159.015751
-4.238802 4.615852 -159.017117
-4.308745 4.536537 -159.018483
-4.298184 4.394757 -159.022272
-4.368127 4.315442 -159.023638
-4.357565 4.173662 -159.027427
-4.056302 5.236353 -158.999749
-4.077217 5.132693 -159.001115
-4.098132 5.029033 -159.002481
-4.119048 4.925372 -159.003848
-4.139963 4.821712 -159.005214
-4.261830 4.731896 -159.004156
-4.383697 4.642081 -159.003099
-4.505564 4.552265 -159.002042
-4.526479 4.448605 -159.003408
-4.547394 4.344945 -159.004774
-4.669261 4.255129 -159.003717
-4.690176 4.151469 -159.005083
-4.711091 4.047808 -159.006449
-4.732006 3.944148 -159.007815
-4.752922 3.840488 -159.009181
-4.773837 3.736828 -159.010547
-4.794752 3.633168 -159.011913
-4.815667 3.529508 -159.013279
-4.836582 3.425847 -159.014645
-4.857497 3.322187 -159.016011
-4.878412 3.218527 -159.017377
-4.798376 3.101023 -159.021166
-4.819291 2.997362 -159.022532
-4.840206 2.893702 -159.023898
-4.861121 2.790042 -159.025264
-4.781084 2.672538 -159.029054
-4.801999 2.568877 -159.030420
-4.822914 2.465217 -159.031786
-4.843830 2.361557 -159.033152
-4.864745 2.257897 -159.034518
-4.885660 2.154237 -159.035884
-4.906575 2.050577 -159.037250
-4.927490 1.946917 -159.038616
-4.948405 1.843256 -159.039982
-4.969320 1.739596 -159.041348
-4.990236 1.635936 -159.042714
-5.011151 1.532276 -159.044080
-5.032066 1.428616 -159.045446
-5.052981 1.324956 -159.046812
-5.073896 1.221295 -159.048178
-5.094811 1.117635 -159.049544
-5.115726 1.013975 -159.050910
-5.136641 0.910315 -159.052276
-5.157557 0.806655 -159.053642
-5.178472 0.702995 -159.055008
-5.199387 0.599334 -159.056374
-5.220302 0.495674 -159.057740
-5.241217 0.392014 -159.059106
-5.262132 0.288354 -159.060472
-5.182095 0.170849 -159.064261
-5.203011 0.067189 -159.065627
-5.223926 -0.036471 -159.066993
-5.244841 -0.140131 -159.068359
-5.265756 -0.243791 -159.069725
-5.286671 -0.347451 -159.071091
-5.307586 -0.451111 -159.072457
-5.328501 -0.554772 -159.073823
-5.349417 -0.658432 -159.075189
-5.370332 -0.762092 -159.076555
-5.391247 -0.865752 -159.077921
-5.412162 -0.969412 -159.079287
-5.433077 -1.073072 -159.080653
-5.453992 -1.176733 -159.082019
-5.474907 -1.280393 -159.083385
-5.394871 -1.397897 -159.087174
-5.415786 -1.501557 -159.088541
-5.436701 -1.605218 -159.089907
-5.457616 -1.708878 -159.091273
-5.478531 -1.812538 -159.092639
-5.499446 -1.916198 -159.094005
-5.419409 -2.033703 -159.097794
-5.440325 -2.137363 -159.099160
-5.461240 -2.241023 -159.100526
-5.381203 -2.358527 -159.104315
-6.069820 -0.545918 -159.014824
-6.130452 -0.684635 -159.013767
-6.096735 -0.784865 -159.015133
-6.157367 -0.923581 -159.014076
-6.123650 -1.023811 -159.015442
-6.089933 -1.124041 -159.016808
-6.056216 -1.224271 -159.018174
-6.022499 -1.324501 -159.019540
-5.988782 -1.424731 -159.020906
-5.955065 -1.524961 -159.022272
-5.921348 -1.625190 -159.023638
-5.887631 -1.725420 -159.025004
-5.853914 -1.825650 -159.026370
-5.820197 -1.925880 -159.027736
-5.786480 -2.026110 -159.029102
-5.752763 -2.126340 -159.030468
-5.813395 -2.265056 -159.029411
-5.779678 -2.365286 -159.030777
-5.745961 -2.465516 -159.032143
-5.712244 -2.565746 -159.033509
-5.678527 -2.665976 -159.034875
-5.644810 -2.766206 -159.036241
-5.611093 -2.866436 -159.037607
-5.577376 -2.966666 -159.038973
-5.543659 -3.066896 -159.040339
-5.509942 -3.167126 -159.041705
-5.476225 -3.267356 -159.043071
-5.348159 -3.329099 -159.046860
-5.314442 -3.429329 -159.048226
-5.280725 -3.529559 -159.049592
-5.247008 -3.629789 -159.050958
-5.213291 -3.730019 -159.052324
-5.179574 -3.830249 -159.053690
-5.145857 -3.930479 -159.055056
-5.112140 -4.030709 -159.056422
-5.078423 -4.130939 -159.057788
-5.044706 -4.231168 -159.059154
-5.010989 -4.331398 -159.060520
-4.977272 -4.431628 -159.061886
-4.943555 -4.531858 -159.063252
-4.909838 -4.632088 -159.064618
-4.876121 -4.732318 -159.065984
-4.748055 -4.794062 -159.069773
-4.714338 -4.894292 -159.071139
-4.680621 -4.994521 -159.072505
-4.552555 -5.056265 -159.076294
-4.518838 -5.156495 -159.077661
-4.485121 -5.256725 -159.079027
-4.451404 -5.356955 -159.080393
-4.417687 -5.457185 -159.081759
-4.289620 -5.518928 -159.085548
-4.255903 -5.619158 -159.086914
-4.127837 -5.680902 -159.090703
-4.094120 -5.781132 -159.092069
-3.966054 -5.842875 -159.095858
-3.932337 -5.943105 -159.097224
-3.898620 -6.043335 -159.098590
-3.770554 -6.105079 -159.102379
-3.736837 -6.205308 -159.103745
-3.703120 -6.305538 -159.105111
-3.575054 -6.367282 -159.108900
-3.541337 -6.467512 -159.110266
-3.413271 -6.529255 -159.114056
-3.379554 -6.629485 -159.115422
-3.251488 -6.691229 -159.119211
-3.123422 -6.752972 -159.123000
-2.995356 -6.814716 -159.126789
-2.867289 -6.876460 -159.130578
-2.833572 -6.976689 -159.131944
-2.799855 -7.076919 -159.133310
-5.420917 -4.071219 -158.997862
-5.404067 -4.221667 -158.996805
-5.387218 -4.372115 -158.995748
-5.307904 -4.442058 -158.997114
-5.228589 -4.512001 -158.998480
-5.149274 -4.581944 -158.999846
-5.132425 -4.732392 -158.998789
-5.053110 -4.802335 -159.000155
-4.973796 -4.872278 -159.001521
-4.956947 -5.022726 -159.000464
-4.877632 -5.092669 -159.001830
-4.860783 -5.243117 -159.000772
-4.781468 -5.313060 -159.002138
-4.702153 -5.383003 -159.003504
-4.685304 -5.533451 -159.002447
-4.605990 -5.603394 -159.003813
-4.589140 -5.753842 -159.002756
-4.509826 -5.823785 -159.004122
-4.492977 -5.974233 -159.003065
-4.413662 -6.044176 -159.004431
-4.396813 -6.194624 -159.003374
-4.317498 -6.264567 -159.004740
-4.238183 -6.334510 -159.006106
-4.158869 -6.404454 -159.007472
-4.079554 -6.474397 -159.008838
-4.000239 -6.544340 -159.010204
-3.983390 -6.694788 -159.009147
-3.904076 -6.764731 -159.010513
-3.824761 -6.834674 -159.011879
-3.745446 -6.904617 -159.013245
-3.728597 -7.055065 -159.012188
-3.649282 -7.125008 -159.013554
-3.569968 -7.194951 -159.014920
-3.490653 -7.264895 -159.016286
-3.473804 -7.415342 -159.015229
-3.394489 -7.485286 -159.016595
-3.315174 -7.555229 -159.017961
-3.235860 -7.625172 -159.019327
-3.156545 -7.695115 -159.020693
-3.139696 -7.845563 -159.019636
-3.060381 -7.915506 -159.021002
-2.981067 -7.985449 -159.022368
-2.901752 -8.055392 -159.023734
-2.822437 -8.125335 -159.025100
-2.743122 -8.195279 -159.026466
-2.663808 -8.265222 -159.027832
-2.584493 -8.335165 -159.029198
-2.505178 -8.405108 -159.030564
-2.488329 -8.555556 -159.029507
-2.409015 -8.625499 -159.030873
-2.329700 -8.695442 -159.032239
-2.250385 -8.765385 -159.033605
-2.171071 -8.835329 -159.034971
-2.091756 -8.905272 -159.036337
-2.012441 -8.975215 -159.037703
-1.933126 -9.045158 -159.039069
-1.853812 -9.115101 -159.040435
-1.774497 -9.185044 -159.041801
-1.695182 -9.254988 -159.043167
-1.615868 -9.324931 -159.044533
-1.599019 -9.475379 -159.043476
-1.519704 -9.545322 -159.044842
-1.440389 -9.615265 -159.046208
-1.361075 -9.685208 -159.047574
-1.281760 -9.755151 -159.048940
-1.202445 -9.825094 -159.050306
-1.060665 -9.814533 -159.054095
-0.981350 -9.884476 -159.055461
-0.902036 -9.954419 -159.056827
-0.822721 -10.024362 -159.058193
-0.743406 -10.094305 -159.059559
-0.664092 -10.164249 -159.060925
-0.584777 -10.234192 -159.062291
-0.505462 -10.304135 -159.063657
-0.363682 -10.293573 -159.067446
-0.284367 -10.363517 -159.068812
-0.205053 -10.433460 -159.070179
-0.125738 -10.503403 -159.071545
-0.046423 -10.573346 -159.072911
0.032892 -10.643289 -159.074277
0.174672 -10.632728 -159.078066
0.253986 -10.702671 -159.079432
0.333301 -10.772614 -159.080798
0.412616 -10.842557 -159.082164
0.491930 -10.912500 -159.083530
0.633711 -10.901939 -159.087319
0.713025 -10.971882 -159.088685
0.854806 -10.961320 -159.092474
0.996586 -10.950759 -159.096263
1.138366 -10.940197 -159.100052
1.280146 -10.929636 -159.103841
1.421927 -10.919074 -159.107631
1.501241 -10.989017 -159.108997
1.643021 -10.978456 -159.112786
1.722336 -11.048399 -159.114152
1.989047 -10.876828 -159.122787
2.130828 -10.866267 -159.126576
2.210142 -10.936210 -159.127942
2.351923 -10.925648 -159.131731
2.493703 -10.915087 -159.135521
-3.177683 -7.687775 -158.957417
-3.087867 -7.809642 -158.956360
-3.011896 -8.032461 -158.952880
-2.922080 -8.154328 -158.951823
-2.832264 -8.276195 -158.950765
-2.728604 -8.297110 -158.952131
-2.624944 -8.318025 -158.953497
-2.535128 -8.439892 -158.952440
-2.431468 -8.460807 -158.953806
-2.341652 -8.582674 -158.952749
-2.251836 -8.704541 -158.951692
-2.175865 -8.927360 -158.948212
-2.072205 -8.948275 -158.949578
-1.982389 -9.070142 -158.948521
-1.892573 -9.192009 -158.947464
-1.802757 -9.313876 -158.946407
-1.712941 -9.435743 -158.945350
-1.609281 -9.456659 -158.946716
-1.519465 -9.578526 -158.945658
-1.429649 -9.700393 -158.944601
-1.339834 -9.822260 -158.943544
-1.250018 -9.944127 -158.942487
-1.146358 -9.965042 -158.943853
-1.056542 -10.086909 -158.942796
-0.980570 -10.309728 -158.939316
-0.904599 -10.532547 -158.935836
-0.814783 -10.654414 -158.934778
-0.711123 -10.675329 -158.936144
-0.607463 -10.696244 -158.937510
-0.503803 -10.717159 -158.938876
-0.400142 -10.738074 -158.940243
-0.296482 -10.758990 -158.941609
-0.192822 -10.779905 -158.942975
-0.103006 -10.901772 -158.941917
0.000654 -10.922687 -158.943283
0.104314 -10.943602 -158.944649
0.207974 -10.964517 -158.946015
0.297790 -11.086384 -158.944958
0.401450 -11.107299 -158.946324
0.505110 -11.128214 -158.947690
0.608771 -11.149130 -158.949056
0.712431 -11.170045 -158.950422
0.816091 -11.190960 -158.951788
0.919751 -11.211875 -158.953154
1.023411 -11.232790 -158.954520
1.127071 -11.253705 -158.955886
1.230732 -11.274620 -158.957253
1.334392 -11.295535 -158.958619
1.438052 -11.316451 -158.959985
1.541712 -11.337366 -158.961351
1.645372 -11.358281 -158.962717
1.735188 -11.480148 -158.961659
1.838848 -11.501063 -158.963025
1.942508 -11.521978 -158.964392
2.046168 -11.542893 -158.965758
2.149829 -11.563808 -158.967124
2.253489 -11.584724 -158.968490
2.357149 -11.605639 -158.969856
2.460809 -11.626554 -158.971222
2.564469 -11.647469 -158.972588
2.668129 -11.668384 -158.973954
2.785634 -11.588347 -158.977743
2.889294 -11.609262 -158.979109
2.992954 -11.630178 -158.980475
3.096614 -11.651093 -158.981841
3.200275 -11.672008 -158.983207
3.303935 -11.692923 -158.984573
3.407595 -11.713838 -158.985939
3.511255 -11.734753 -158.987305
3.614915 -11.755668 -158.988671
3.718575 -11.776583 -158.990037
3.822236 -11.797499 -158.991403
3.925896 -11.818414 -158.992769
4.029556 -11.839329 -158.994135
4.133216 -11.860244 -158.995501
4.236876 -11.881159 -158.996867
4.354381 -11.801122 -159.000656
4.458041 -11.822037 -159.002022
4.575545 -11.742001 -159.005811
4.679205 -11.762916 -159.007177
4.852087 -11.279071 -159.020659
4.969592 -11.199035 -159.024448
5.087096 -11.118998 -159.028237
5.190756 -11.139913 -159.029603
5.294417 -11.160828 -159.030969
5.411921 -11.080791 -159.034758
5.529426 -11.000755 -159.038548
5.633086 -11.021670 -159.039914
5.750590 -10.941633 -159.043703
5.868095 -10.861596 -159.047492
5.985599 -10.781559 -159.051281
6.089259 -10.802474 -159.052647
6.192919 -10.823390 -159.054013
6.310424 -10.743353 -159.057802
6.427928 -10.663316 -159.061591
6.545433 -10.583279 -159.065380
6.649093 -10.604194 -159.066746
6.766598 -10.524158 -159.070536
6.884102 -10.444121 -159.074325
7.015451 -10.263132 -159.080537
7.132955 -10.183095 -159.084326
7.250460 -10.103059 -159.088115
7.367964 -10.023022 -159.091904
7.485469 -9.942985 -159.095694
-1.005698 -9.810652 -158.905248
-0.828495 -9.965633 -158.901767
-0.689779 -10.026265 -158.900710
-0.589549 -9.992548 -158.902076
-0.450833 -10.053180 -158.901019
-0.312117 -10.113812 -158.899962
0.057518 -10.740539 -158.884366
0.196234 -10.801171 -158.883309
0.334950 -10.861803 -158.882252
0.473667 -10.922436 -158.881195
0.650869 -11.077417 -158.877715
0.789586 -11.138049 -158.876658
0.928302 -11.198681 -158.875600
1.028532 -11.164964 -158.876966
1.167248 -11.225596 -158.875909
1.305965 -11.286228 -158.874852
1.444681 -11.346860 -158.873795
1.583397 -11.407493 -158.872738
1.722113 -11.468125 -158.871681
1.822343 -11.434408 -158.873047
1.961060 -11.495040 -158.871990
2.099776 -11.555672 -158.870933
2.238492 -11.616304 -158.869876
2.377209 -11.676936 -158.868819
2.554411 -11.831917 -158.865338
2.770100 -12.081248 -158.859435
2.870330 -12.047531 -158.860801
2.970560 -12.013814 -158.862167
3.070790 -11.980097 -158.863533
3.209506 -12.040729 -158.862476
3.309736 -12.007012 -158.863842
3.409966 -11.973295 -158.865208
3.510196 -11.939578 -158.866574
3.610426 -11.905861 -158.867940
3.710656 -11.872144 -158.869306
3.849372 -11.932776 -158.868249
3.949602 -11.899059 -158.869615
4.049832 -11.865342 -158.870981
4.150062 -11.831625 -158.872347
4.250292 -11.797908 -158.873713
4.350522 -11.764191 -158.875079
4.450752 -11.730474 -158.876445
4.550982 -11.696757 -158.877811
4.651212 -11.663040 -158.879177
4.751442 -11.629323 -158.880543
4.851671 -11.595606 -158.881909
4.951901 -11.561889 -158.883275
5.052131 -11.528172 -158.884641
5.152361 -11.494455 -158.886007
5.252591 -11.460738 -158.887373
5.391307 -11.521370 -158.886316
5.491537 -11.487653 -158.887682
5.591767 -11.453936 -158.889048
5.691997 -11.420219 -158.890414
5.792227 -11.386502 -158.891780
5.892457 -11.352785 -158.893146
5.992687 -11.319068 -158.894512
6.092917 -11.285351 -158.895878
6.193147 -11.251634 -158.897244
6.254890 -11.123568 -158.901033
6.355120 -11.089851 -158.902399
6.455350 -11.056134 -158.903765
6.555580 -11.022417 -158.905131
6.655810 -10.988700 -158.906497
6.756040 -10.954983 -158.907863
6.856270 -10.921266 -158.909229
6.956500 -10.887549 -158.910595
7.056730 -10.853832 -158.911961
7.156960 -10.820115 -158.913327
7.257190 -10.786398 -158.914693
7.357420 -10.752681 -158.916059
7.457649 -10.718964 -158.917425
7.557879 -10.685247 -158.918791
7.658109 -10.651530 -158.920157
7.719853 -10.523464 -158.923947
7.820083 -10.489747 -158.925313
7.920313 -10.456030 -158.926679
8.020543 -10.422313 -158.928045
8.120773 -10.388596 -158.929411
8.221002 -10.354879 -158.930777
8.321232 -10.321162 -158.932143
8.382976 -10.193096 -158.935932
8.483206 -10.159379 -158.937298
8.583436 -10.125662 -158.938664
8.683666 -10.091945 -158.940030
8.783896 -10.058228 -158.941396
8.884126 -10.024511 -158.942762
8.984355 -9.990794 -158.944128
9.046099 -9.862728 -158.947917
9.146329 -9.829011 -158.949283
9.246559 -9.795294 -158.950649
9.308302 -9.667227 -158.954438
9.408532 -9.633510 -158.955804
9.470276 -9.505444 -158.959593
9.570506 -9.471727 -158.960959
9.670736 -9.438010 -158.962325
9.732479 -9.309944 -158.966115
9.794223 -9.181878 -158.969904
9.855966 -9.053812 -158.973693
9.956196 -9.020095 -158.975059
10.017940 -8.892029 -158.978848
10.118170 -8.858312 -158.980214
10.179913 -8.730246 -158.984003
10.241657 -8.602180 -158.987792
10.303400 -8.474114 -158.991581
10.365144 -8.346047 -158.995371
10.426888 -8.217981 -158.999160
10.527117 -8.184264 -159.000526
10.588861 -8.056198 -159.004315
10.650605 -7.928132 -159.008104
10.750834 -7.894415 -159.009470
10.812578 -7.766349 -159.013259
10.912808 -7.732632 -159.014625
10.974551 -7.604566 -159.018414
11.036295 -7.476500 -159.022203
11.098039 -7.348434 -159.025993
11.159782 -7.220368 -159.029782
11.144553 -6.903603 -159.038417
11.206296 -6.775537 -159.042206
11.268040 -6.647471 -159.045995
11.329784 -6.519405 -159.049785
11.353041 -6.296990 -159.055997
11.183866 -5.602829 -159.074325
11.284096 -5.569112 -159.075691
