ply
format ascii 1.0
comment VCGLIB generated
element vertex 1538
property float x
property float y
property float z
element face 0
property list uchar int vertex_indices
end_header
4.62839 -14.937 -23.7451
4.77884 -14.9202 -23.744
5.41232 -15.2781 -23.7284
5.64327 -15.3238 -23.7249
5.79372 -15.3069 -23.7239
5.94417 -15.2901 -23.7228
6.17512 -15.3357 -23.7193
6.32557 -15.3188 -23.7183
6.39551 -15.2395 -23.7196
6.54596 -15.2227 -23.7186
6.69641 -15.2058 -23.7175
6.84685 -15.189 -23.7165
6.9973 -15.1721 -23.7154
7.14775 -15.1553 -23.7143
7.21769 -15.0759 -23.7157
7.28764 -14.9966 -23.7171
7.43808 -14.9798 -23.716
7.50803 -14.9005 -23.7174
7.65847 -14.8836 -23.7163
7.80892 -14.8668 -23.7153
7.95937 -14.8499 -23.7142
8.02931 -14.7706 -23.7156
8.09926 -14.6913 -23.7169
8.1692 -14.612 -23.7183
8.31965 -14.5951 -23.7173
8.38959 -14.5158 -23.7186
8.45953 -14.4365 -23.72
8.52948 -14.3572 -23.7214
8.67992 -14.3403 -23.7203
8.74987 -14.261 -23.7217
8.90031 -14.2442 -23.7206
8.97026 -14.1649 -23.722
9.1207 -14.148 -23.7209
9.19065 -14.0687 -23.7223
9.3411 -14.0518 -23.7212
9.41104 -13.9725 -23.7226
9.56149 -13.9557 -23.7215
9.63143 -13.8764 -23.7229
9.70138 -13.7971 -23.7243
9.77132 -13.7177 -23.7256
9.92177 -13.7009 -23.7246
9.99171 -13.6216 -23.7259
10.0617 -13.5423 -23.7273
10.1316 -13.4629 -23.7287
10.2015 -13.3836 -23.73
10.2715 -13.3043 -23.7314
10.3414 -13.225 -23.7328
10.4114 -13.1457 -23.7341
10.4008 -13.0039 -23.7379
10.4708 -12.9246 -23.7393
10.5407 -12.8453 -23.7407
10.6106 -12.766 -23.742
10.7611 -12.7491 -23.741
10.992 -12.7947 -23.7375
11.062 -12.7154 -23.7388
11.2124 -12.6986 -23.7378
11.2824 -12.6192 -23.7392
11.3523 -12.5399 -23.7405
11.4223 -12.4606 -23.7419
11.4922 -12.3813 -23.7433
11.5621 -12.302 -23.7446
11.6321 -12.2227 -23.746
11.702 -12.1434 -23.7474
11.8525 -12.1265 -23.7463
12.0029 -12.1097 -23.7452
12.0729 -12.0303 -23.7466
12.2233 -12.0135 -23.7455
12.2933 -11.9342 -23.7469
12.3632 -11.8549 -23.7483
12.4331 -11.7756 -23.7496
12.5836 -11.7587 -23.7486
12.6535 -11.6794 -23.75
12.7235 -11.6001 -23.7513
12.7934 -11.5208 -23.7527
12.9439 -11.5039 -23.7516
13.0943 -11.4871 -23.7506
13.2448 -11.4702 -23.7495
13.3147 -11.3909 -23.7509
13.4652 -11.374 -23.7498
13.6156 -11.3572 -23.7488
13.6855 -11.2779 -23.7501
13.836 -11.261 -23.7491
13.9059 -11.1817 -23.7504
14.0564 -11.1649 -23.7494
14.1263 -11.0856 -23.7507
14.1963 -11.0062 -23.7521
14.1857 -10.8645 -23.7559
14.2557 -10.7851 -23.7573
14.3256 -10.7058 -23.7586
14.3955 -10.6265 -23.76
14.4655 -10.5472 -23.7614
14.5354 -10.4679 -23.7627
14.6054 -10.3886 -23.7641
14.6753 -10.3093 -23.7655
14.7453 -10.2299 -23.7668
14.8152 -10.1506 -23.7682
14.8851 -10.0713 -23.7696
15.0356 -10.0545 -23.7685
15.1055 -9.97515 -23.7699
15.1755 -9.89583 -23.7712
15.2454 -9.81652 -23.7726
15.3154 -9.73721 -23.774
15.3853 -9.65789 -23.7753
15.3747 -9.51612 -23.7791
15.4447 -9.4368 -23.7805
15.5146 -9.35748 -23.7819
15.5846 -9.27817 -23.7832
15.6545 -9.19886 -23.7846
15.7245 -9.11954 -23.786
15.7944 -9.04022 -23.7873
15.7838 -8.89845 -23.7911
15.8538 -8.81913 -23.7925
15.9237 -8.73982 -23.7939
15.9937 -8.6605 -23.7952
16.0636 -8.58119 -23.7966
16.0531 -8.43941 -23.8004
16.123 -8.36009 -23.8017
16.1929 -8.28078 -23.8031
16.2629 -8.20146 -23.8045
16.3328 -8.12214 -23.8058
16.3223 -7.98037 -23.8096
16.3922 -7.90105 -23.811
16.4622 -7.82174 -23.8124
16.5321 -7.74242 -23.8137
16.5215 -7.60064 -23.8175
16.5915 -7.52133 -23.8189
16.6614 -7.44201 -23.8202
16.6509 -7.30023 -23.824
16.7208 -7.22092 -23.8254
16.3882 -6.82928 -23.8389
16.4582 -6.74996 -23.8402
16.4476 -6.60818 -23.844
16.5175 -6.52887 -23.8454
16.507 -6.38708 -23.8492
16.4964 -6.24531 -23.853
16.5664 -6.16599 -23.8543
16.5558 -6.02421 -23.8581
16.5452 -5.88243 -23.8619
16.6152 -5.80311 -23.8633
16.6046 -5.66134 -23.8671
16.5941 -5.51956 -23.8709
16.5835 -5.37778 -23.8747
16.5729 -5.23599 -23.8784
14.0667 -3.15778 -23.9574
14.1367 -3.07847 -23.9587
14.2066 -2.99915 -23.9601
14.1961 -2.85737 -23.9639
14.266 -2.77806 -23.9652
14.2554 -2.63628 -23.969
14.3254 -2.55696 -23.9704
14.3148 -2.41519 -23.9742
14.3043 -2.2734 -23.978
13.9717 -1.88176 -23.9915
13.9611 -1.73998 -23.9952
13.7895 -1.47327 -24.0039
13.779 -1.33149 -24.0077
13.8489 -1.25217 -24.009
13.8384 -1.11039 -24.0128
13.4253 -0.656287 -24.0287
13.4952 -0.576973 -24.0301
13.4847 -0.435193 -24.0339
13.3936 -0.230945 -24.0401
12.8195 0.348094 -24.0609
12.8089 0.489874 -24.0646
12.7984 0.631651 -24.0684
12.8683 0.710967 -24.0698
12.8578 0.852749 -24.0736
12.9277 0.932063 -24.075
12.9976 1.01138 -24.0763
12.9871 1.15316 -24.0801
12.896 1.3574 -24.0863
12.8855 1.49919 -24.0901
12.8749 1.64096 -24.0939
12.8643 1.78275 -24.0977
12.7733 1.98699 -24.1039
12.7627 2.12877 -24.1077
12.8327 2.20809 -24.1091
12.8221 2.34986 -24.1128
12.8115 2.49164 -24.1166
12.5595 2.82082 -24.1277
12.5489 2.96261 -24.1315
12.6188 3.04192 -24.1328
12.6083 3.1837 -24.1366
12.6782 3.26301 -24.138
12.7482 3.34233 -24.1394
12.7376 3.48411 -24.1431
12.566 3.75082 -24.1518
12.5555 3.8926 -24.1556
12.5449 4.03438 -24.1594
12.5343 4.17616 -24.1631
12.5238 4.31794 -24.1669
12.5937 4.39725 -24.1683
12.5832 4.53903 -24.1721
12.4921 4.74328 -24.1783
12.562 4.82259 -24.1797
12.5515 4.96438 -24.1835
12.5409 5.10615 -24.1873
12.6109 5.18547 -24.1886
12.6003 5.32725 -24.1924
12.5897 5.46903 -24.1962
12.5792 5.61081 -24.2
12.4076 5.87752 -24.2086
12.397 6.0193 -24.2124
12.467 6.09862 -24.2138
12.4564 6.2404 -24.2176
12.5264 6.31971 -24.2189
12.5158 6.46149 -24.2227
12.5858 6.5408 -24.2241
12.5752 6.68259 -24.2279
9.50885 -14.7194 -23.7157
9.52977 -14.6158 -23.7171
9.65163 -14.526 -23.716
9.67255 -14.4223 -23.7174
9.69346 -14.3186 -23.7187
9.81533 -14.2288 -23.7177
9.83625 -14.1252 -23.719
9.95811 -14.0353 -23.718
9.97902 -13.9317 -23.7194
10.1009 -13.8419 -23.7183
10.1218 -13.7382 -23.7197
10.2437 -13.6484 -23.7186
10.3655 -13.5586 -23.7175
10.3865 -13.4549 -23.7189
10.5083 -13.3651 -23.7179
10.5292 -13.2614 -23.7192
11.1559 -13.2408 -23.7061
11.1768 -13.1372 -23.7074
11.2986 -13.0474 -23.7064
11.3196 -12.9437 -23.7077
11.4414 -12.8539 -23.7067
11.4623 -12.7502 -23.708
11.5842 -12.6604 -23.707
11.7061 -12.5706 -23.7059
11.727 -12.4669 -23.7073
11.8489 -12.3771 -23.7062
11.8698 -12.2735 -23.7076
11.9916 -12.1837 -23.7065
12.0126 -12.08 -23.7079
12.2354 -12.004 -23.7044
12.4582 -11.9281 -23.7009
12.5801 -11.8382 -23.6999
12.7019 -11.7484 -23.6988
12.8238 -11.6586 -23.6978
12.9457 -11.5688 -23.6967
13.0675 -11.479 -23.6957
13.0884 -11.3753 -23.697
13.7151 -11.3547 -23.6839
13.8369 -11.2649 -23.6828
14.0598 -11.1889 -23.6793
14.3835 -11.1268 -23.6734
14.5054 -11.037 -23.6724
14.6273 -10.9472 -23.6713
14.6482 -10.8435 -23.6727
14.77 -10.7537 -23.6716
14.8919 -10.6639 -23.6705
14.9128 -10.5602 -23.6719
15.0347 -10.4704 -23.6709
15.0556 -10.3667 -23.6722
15.0765 -10.2631 -23.6736
15.0974 -10.1594 -23.675
15.2193 -10.0696 -23.6739
15.2402 -9.96595 -23.6753
15.3621 -9.87613 -23.6742
15.484 -9.78631 -23.6732
15.5049 -9.68265 -23.6745
15.6267 -9.59284 -23.6735
15.6477 -9.48918 -23.6748
15.6686 -9.38552 -23.6762
15.7904 -9.2957 -23.6751
15.8114 -9.19204 -23.6765
15.8323 -9.08838 -23.6779
15.8532 -8.98472 -23.6792
15.9751 -8.8949 -23.6782
16.0969 -8.80509 -23.6771
16.2188 -8.71527 -23.6761
16.2397 -8.61161 -23.6774
16.3616 -8.5218 -23.6764
16.3825 -8.41814 -23.6777
16.4034 -8.31448 -23.6791
16.5253 -8.22466 -23.678
16.5462 -8.121 -23.6794
16.5671 -8.01734 -23.6808
16.689 -7.92752 -23.6797
16.7099 -7.82386 -23.6811
16.7308 -7.7202 -23.6824
16.7517 -7.61654 -23.6838
16.7726 -7.51288 -23.6852
16.7935 -7.40922 -23.6866
16.9154 -7.31941 -23.6855
16.9363 -7.21575 -23.6869
16.9572 -7.11209 -23.6882
16.9782 -7.00843 -23.6896
16.9991 -6.90477 -23.691
16.919 -6.78726 -23.6947
16.9399 -6.6836 -23.6961
16.9609 -6.57994 -23.6975
16.9818 -6.47628 -23.6989
16.9017 -6.35878 -23.7026
16.9227 -6.25512 -23.704
16.9436 -6.15146 -23.7054
16.9645 -6.0478 -23.7067
16.9854 -5.94414 -23.7081
17.0063 -5.84048 -23.7095
17.0272 -5.73682 -23.7108
17.0481 -5.63316 -23.7122
16.9681 -5.51565 -23.716
16.989 -5.41199 -23.7173
16.909 -5.29449 -23.7211
16.9299 -5.19083 -23.7225
16.9508 -5.08717 -23.7239
16.8708 -4.96966 -23.7277
16.8917 -4.866 -23.729
16.9126 -4.76234 -23.7304
16.8326 -4.64484 -23.7342
16.7525 -4.52733 -23.738
16.6725 -4.40983 -23.7418
16.4915 -4.27848 -23.748
16.0077 -4.1056 -23.7615
15.9276 -3.98809 -23.7652
15.8476 -3.87059 -23.769
15.8685 -3.76693 -23.7704
15.7885 -3.64943 -23.7742
15.7084 -3.53192 -23.778
15.7293 -3.42826 -23.7793
15.6493 -3.31075 -23.7831
15.5693 -3.19325 -23.7869
15.3883 -3.0619 -23.7931
15.2073 -2.93055 -23.7993
15.2282 -2.82689 -23.8007
15.1482 -2.70939 -23.8045
15.1691 -2.60573 -23.8059
15.19 -2.50207 -23.8072
15.11 -2.38456 -23.811
14.929 -2.25322 -23.8172
14.8489 -2.13571 -23.821
14.7689 -2.01821 -23.8248
14.6889 -1.9007 -23.8286
14.6088 -1.7832 -23.8324
14.6297 -1.67954 -23.8338
14.5497 -1.56203 -23.8376
14.5706 -1.45837 -23.8389
14.4906 -1.34087 -23.8427
14.4106 -1.22336 -23.8465
14.4315 -1.1197 -23.8479
14.3514 -1.0022 -23.8517
14.3723 -0.898539 -23.853
14.3933 -0.794878 -23.8544
14.4142 -0.691218 -23.8557
14.3341 -0.573715 -23.8595
14.2541 -0.456208 -23.8633
14.0731 -0.324861 -23.8695
13.9931 -0.207356 -23.8733
14.014 -0.103696 -23.8747
13.934 0.0138071 -23.8785
13.9549 0.117469 -23.8799
13.8748 0.234972 -23.8836
13.8957 0.338634 -23.885
13.8157 0.456138 -23.8888
13.8366 0.559797 -23.8902
13.7566 0.677302 -23.894
13.7775 0.780962 -23.8953
13.6975 0.898467 -23.8991
13.7184 1.00213 -23.9005
13.7393 1.10579 -23.9018
13.6593 1.22329 -23.9056
13.6802 1.32695 -23.907
13.7011 1.43061 -23.9084
13.6211 1.54812 -23.9121
13.642 1.65178 -23.9135
13.5619 1.76928 -23.9173
13.5828 1.87294 -23.9187
13.5028 1.99045 -23.9225
13.5237 2.09411 -23.9238
13.5446 2.19777 -23.9252
13.4646 2.31527 -23.929
13.4855 2.41893 -23.9303
13.5064 2.52259 -23.9317
13.5274 2.62625 -23.9331
13.4473 2.74375 -23.9369
13.4682 2.84742 -23.9382
13.4891 2.95108 -23.9396
13.5101 3.05474 -23.941
13.531 3.1584 -23.9423
13.5519 3.26206 -23.9437
13.4719 3.37956 -23.9475
13.4928 3.48322 -23.9489
13.4127 3.60073 -23.9526
13.4336 3.70439 -23.954
13.4546 3.80805 -23.9554
13.3745 3.92555 -23.9592
13.3954 4.02921 -23.9605
13.4164 4.13287 -23.9619
13.4373 4.23653 -23.9633
13.4582 4.34019 -23.9646
13.4791 4.44385 -23.966
13.5 4.54751 -23.9673
13.5209 4.65117 -23.9687
13.5418 4.75483 -23.9701
13.4618 4.87234 -23.9739
13.4827 4.976 -23.9752
13.5036 5.07966 -23.9766
13.5246 5.18332 -23.978
13.4445 5.30082 -23.9818
13.4654 5.40448 -23.9831
13.3854 5.52199 -23.9869
13.3054 5.63949 -23.9907
13.3263 5.74315 -23.9921
13.3472 5.84681 -23.9934
13.3681 5.95047 -23.9948
13.389 6.05413 -23.9962
13.309 6.17164 -24
13.3299 6.2753 -24.0013
13.3508 6.37896 -24.0027
13.3717 6.48262 -24.0041
13.3926 6.58628 -24.0054
13.4136 6.68994 -24.0068
13.4345 6.7936 -24.0081
13.4554 6.89726 -24.0095
13.4763 7.00092 -24.0109
13.4972 7.10458 -24.0123
13.5181 7.20824 -24.0136
13.539 7.3119 -24.015
13.56 7.41556 -24.0164
13.5809 7.51922 -24.0177
13.5008 7.63672 -24.0215
13.5218 7.74038 -24.0229
13.5427 7.84404 -24.0242
13.5636 7.9477 -24.0256
13.5845 8.05136 -24.027
13.5045 8.16887 -24.0308
13.5254 8.27253 -24.0321
13.2434 8.41772 -24.0408
13.1634 8.53522 -24.0446
13.0834 8.65273 -24.0483
14.4636 -11.2443 -24.6696
14.5854 -11.1545 -24.6686
14.6064 -11.0508 -24.6699
14.7282 -10.961 -24.6689
14.8501 -10.8712 -24.6678
14.972 -10.7814 -24.6668
14.9929 -10.6777 -24.6681
15.1147 -10.5879 -24.6671
15.2366 -10.4981 -24.666
15.2575 -10.3944 -24.6674
15.3794 -10.3046 -24.6663
15.4003 -10.201 -24.6677
15.4212 -10.0973 -24.6691
15.4421 -9.99363 -24.6704
15.564 -9.90382 -24.6694
15.5849 -9.80016 -24.6707
15.6058 -9.6965 -24.6721
15.6267 -9.59284 -24.6735
15.7486 -9.50302 -24.6724
15.7695 -9.39936 -24.6738
15.7904 -9.2957 -24.6751
15.9123 -9.20588 -24.6741
15.9332 -9.10223 -24.6754
15.9541 -8.99856 -24.6768
15.9751 -8.8949 -24.6782
16.1178 -8.70143 -24.6785
16.3407 -8.62546 -24.675
16.3616 -8.5218 -24.6764
16.4834 -8.43198 -24.6753
16.5043 -8.32832 -24.6767
16.6262 -8.2385 -24.6756
16.6471 -8.13484 -24.677
16.769 -8.04503 -24.6759
16.7899 -7.94137 -24.6773
16.9118 -7.85155 -24.6762
16.9327 -7.74789 -24.6776
17.1852 -8.25602 -24.6709
17.3402 -8.07882 -24.6674
17.4009 -7.9401 -24.6663
17.3671 -7.83987 -24.6677
17.4278 -7.70115 -24.6666
17.3941 -7.60092 -24.668
17.3603 -7.50069 -24.6693
17.3266 -7.40046 -24.6707
17.3873 -7.26175 -24.6697
17.3535 -7.16152 -24.671
17.4142 -7.0228 -24.67
17.3804 -6.92257 -24.6713
17.4411 -6.78385 -24.6703
17.5017 -6.64514 -24.6692
17.5623 -6.50642 -24.6682
17.5286 -6.40619 -24.6695
17.5893 -6.26748 -24.6685
17.5555 -6.16724 -24.6698
17.5218 -6.06701 -24.6712
17.4881 -5.96678 -24.6726
17.4544 -5.86656 -24.6739
17.515 -5.72784 -24.6729
17.4813 -5.62761 -24.6742
17.4476 -5.52738 -24.6756
17.4139 -5.42715 -24.677
17.3802 -5.32692 -24.6783
15.5006 -9.62712 -23.7111
15.9386 -9.33446 -23.7004
16.0936 -9.15726 -23.6969
16.0599 -9.05703 -23.6982
16.1205 -8.91831 -23.6972
16.1811 -8.7796 -23.6961
16.2417 -8.64088 -23.6951
16.5854 -8.38671 -23.6868
16.7404 -8.2095 -23.6833
16.7067 -8.10927 -23.6846
16.7673 -7.97056 -23.6836
17.111 -7.71638 -23.6752
17.1716 -7.57767 -23.6742
17.2323 -7.43895 -23.6731
17.2929 -7.30023 -23.6721
17.3535 -7.16152 -23.671
17.4142 -7.0228 -23.67
17.3804 -6.92257 -23.6713
17.4411 -6.78385 -23.6703
17.4074 -6.68362 -23.6716
17.468 -6.54491 -23.6706
17.4343 -6.44468 -23.672
17.4006 -6.34445 -23.6733
17.4612 -6.20573 -23.6723
17.4275 -6.1055 -23.6736
17.3938 -6.00527 -23.675
17.36 -5.90504 -23.6764
17.3263 -5.80481 -23.6777
17.387 -5.6661 -23.6767
17.3532 -5.56586 -23.678
17.3195 -5.46564 -23.6794
17.2858 -5.36541 -23.6808
17.2521 -5.26518 -23.6821
17.2184 -5.16495 -23.6835
17.1847 -5.06471 -23.6849
17.1509 -4.96449 -23.6862
17.1172 -4.86426 -23.6876
17.0835 -4.76403 -23.689
17.0498 -4.6638 -23.6903
17.0161 -4.56357 -23.6917
16.9824 -4.46334 -23.6931
16.9486 -4.36311 -23.6944
16.9149 -4.26288 -23.6958
16.8812 -4.16265 -23.6972
16.8475 -4.06242 -23.6985
16.8138 -3.96219 -23.6999
16.7801 -3.86196 -23.7012
16.652 -3.80021 -23.705
16.6183 -3.69998 -23.7064
16.5846 -3.59975 -23.7078
16.5508 -3.49952 -23.7091
16.5171 -3.39929 -23.7105
16.3891 -3.33755 -23.7143
16.3553 -3.23732 -23.7157
16.0386 -3.25255 -23.7243
16.0049 -3.15232 -23.7257
15.8768 -3.09058 -23.7294
15.8431 -2.99034 -23.7308
15.8094 -2.89011 -23.7322
15.6813 -2.82837 -23.736
15.5532 -2.76663 -23.7398
15.5195 -2.6664 -23.7411
15.3914 -2.60465 -23.7449
15.3577 -2.50442 -23.7463
15.324 -2.4042 -23.7477
15.2903 -2.30397 -23.749
15.1622 -2.24222 -23.7528
15.1285 -2.14199 -23.7542
15.0948 -2.04176 -23.7555
15.0611 -1.94153 -23.7569
15.0274 -1.8413 -23.7583
14.9936 -1.74107 -23.7596
14.9599 -1.64084 -23.761
14.9262 -1.54061 -23.7624
14.8925 -1.44038 -23.7637
14.8588 -1.34015 -23.7651
14.8251 -1.23992 -23.7665
14.7913 -1.13969 -23.7678
14.7576 -1.03946 -23.7692
14.7239 -0.939234 -23.7706
14.7845 -0.800517 -23.7695
14.7508 -0.700287 -23.7709
14.7171 -0.600057 -23.7722
14.6834 -0.499827 -23.7736
14.6497 -0.399597 -23.775
14.5216 -0.337854 -23.7788
14.4879 -0.237624 -23.7801
14.4542 -0.137394 -23.7815
14.4204 -0.0371642 -23.7829
14.3867 0.063066 -23.7842
14.353 0.163296 -23.7856
14.3193 0.263526 -23.787
14.2856 0.363755 -23.7883
14.2519 0.463986 -23.7897
14.2181 0.564215 -23.7911
14.1844 0.664446 -23.7924
14.0564 0.72619 -23.7962
14.0226 0.826418 -23.7976
14.0833 0.965135 -23.7965
14.0496 1.06537 -23.7979
14.1102 1.20408 -23.7968
14.0765 1.30431 -23.7982
14.0428 1.40454 -23.7996
14.1034 1.54326 -23.7985
14.0697 1.64349 -23.7999
14.036 1.74372 -23.8012
14.0022 1.84395 -23.8026
13.9685 1.94418 -23.804
13.9348 2.04441 -23.8053
13.9011 2.14464 -23.8067
13.8674 2.24487 -23.8081
13.8337 2.3451 -23.8094
13.7999 2.44533 -23.8108
13.7662 2.54556 -23.8122
13.7325 2.64579 -23.8135
13.6988 2.74602 -23.8149
13.6651 2.84625 -23.8163
13.7257 2.98496 -23.8152
13.692 3.08519 -23.8166
13.7526 3.22391 -23.8155
13.7189 3.32414 -23.8169
13.6852 3.42437 -23.8182
13.7458 3.56309 -23.8172
13.7121 3.66331 -23.8186
13.6784 3.76355 -23.8199
13.6447 3.86378 -23.8213
13.6109 3.964 -23.8226
13.5772 4.06423 -23.824
13.5435 4.16446 -23.8254
13.5098 4.2647 -23.8268
13.4761 4.36492 -23.8281
13.4424 4.46515 -23.8295
13.4086 4.56538 -23.8308
13.4693 4.7041 -23.8298
13.4356 4.80433 -23.8312
13.4018 4.90456 -23.8325
13.4625 5.04328 -23.8315
13.4288 5.14351 -23.8328
13.395 5.24374 -23.8342
13.4557 5.38245 -23.8331
13.422 5.48268 -23.8345
13.3882 5.58291 -23.8359
13.3545 5.68314 -23.8372
13.3208 5.78337 -23.8386
13.2871 5.8836 -23.84
13.3477 6.02232 -23.8389
13.314 6.12255 -23.8403
13.2803 6.22278 -23.8416
13.3409 6.3615 -23.8406
13.3072 6.46173 -23.8419
13.2735 6.56195 -23.8433
13.3341 6.70067 -23.8423
13.3004 6.8009 -23.8436
13.361 6.93962 -23.8426
13.3273 7.03985 -23.8439
13.3879 7.17856 -23.8429
13.4486 7.31728 -23.8418
13.4149 7.41751 -23.8432
13.4755 7.55622 -23.8421
13.4418 7.65646 -23.8435
13.4081 7.75669 -23.8449
13.3743 7.85692 -23.8462
13.3406 7.95714 -23.8476
13.3069 8.05737 -23.849
13.2732 8.1576 -23.8503
13.3338 8.29632 -23.8493
13.3001 8.39655 -23.8506
13.2664 8.49678 -23.852
13.327 8.6355 -23.851
13.2933 8.73573 -23.8523
13.2596 8.83596 -23.8537
13.2259 8.93619 -23.855
13.0978 8.99793 -23.8588
13.0641 9.09816 -23.8602
13.0304 9.19839 -23.8616
12.9023 9.26013 -23.8654
12.7742 9.32188 -23.8691
12.7405 9.42211 -23.8705
12.6125 9.48385 -23.8743
12.5787 9.58408 -23.8757
12.3563 9.60734 -23.8819
12.1339 9.6306 -23.8881
12.1002 9.73083 -23.8895
11.9721 9.79257 -23.8932
11.9384 9.8928 -23.8946
11.9047 9.99303 -23.896
11.7766 10.0548 -23.8998
11.7429 10.155 -23.9011
11.6148 10.2167 -23.9049
11.2037 10.163 -23.916
10.9813 10.1863 -23.9222
10.8532 10.248 -23.926
10.7252 10.3098 -23.9298
10.5971 10.3715 -23.9336
10.5634 10.4717 -23.9349
10.4353 10.5335 -23.9387
9.92987 10.4413 -23.9522
9.89616 10.5415 -23.9536
9.76809 10.6033 -23.9574
9.54567 10.6265 -23.9636
9.32326 10.6498 -23.9698
9.19519 10.7115 -23.9736
8.87842 10.6963 -23.9822
8.84471 10.7965 -23.9836
8.71665 10.8583 -23.9874
8.68293 10.9585 -23.9887
8.46051 10.9818 -23.9949
8.14375 10.9665 -24.0036
8.01568 11.0283 -24.0074
7.88762 11.09 -24.0112
17.0486 -4.01308 -23.776
17.0317 -3.86263 -23.775
16.9524 -3.79269 -23.7764
16.9355 -3.64224 -23.7753
16.8562 -3.5723 -23.7767
16.7769 -3.50236 -23.778
16.6976 -3.43241 -23.7794
16.6807 -3.28196 -23.7783
16.6014 -3.21202 -23.7797
16.5221 -3.14208 -23.7811
16.4428 -3.07213 -23.7824
16.4259 -2.92169 -23.7814
16.3466 -2.85174 -23.7827
16.2673 -2.7818 -23.7841
16.188 -2.71186 -23.7855
16.1087 -2.64192 -23.7868
16.0918 -2.49146 -23.7858
16.0125 -2.42152 -23.7872
15.9332 -2.35158 -23.7885
15.8539 -2.28164 -23.7899
15.7746 -2.21169 -23.7913
15.6953 -2.14175 -23.7926
15.5535 -2.15231 -23.7964
15.5366 -2.00186 -23.7953
15.4573 -1.93192 -23.7967
15.378 -1.86198 -23.7981
15.3612 -1.71153 -23.797
15.3443 -1.56108 -23.796
15.3275 -1.41063 -23.7949
15.2481 -1.34069 -23.7963
15.2313 -1.19024 -23.7952
15.152 -1.1203 -23.7966
15.0727 -1.05036 -23.798
15.0558 -0.899909 -23.7969
14.9765 -0.829965 -23.7983
14.8972 -0.760021 -23.7996
14.8179 -0.690081 -23.801
14.7386 -0.620137 -23.8024
14.6592 -0.550193 -23.8037
14.5799 -0.480249 -23.8051
14.5631 -0.3298 -23.804
14.4838 -0.25986 -23.8054
14.4044 -0.189917 -23.8068
14.3876 -0.0394683 -23.8057
14.3083 0.0304751 -23.8071
14.2914 0.180927 -23.806
14.2121 0.250868 -23.8074
14.3202 0.562325 -23.8015
14.3034 0.712774 -23.8004
14.224 0.782717 -23.8018
14.2072 0.933166 -23.8007
14.1903 1.08361 -23.7997
14.1735 1.23406 -23.7986
14.1566 1.38451 -23.7976
14.0773 1.45445 -23.7989
14.0605 1.6049 -23.7979
13.9812 1.67484 -23.7992
13.9018 1.74478 -23.8006
13.885 1.89523 -23.7995
13.8682 2.04568 -23.7985
13.8513 2.19613 -23.7974
13.8345 2.34658 -23.7964
13.8176 2.49703 -23.7953
13.8008 2.64747 -23.7943
13.7839 2.79792 -23.7932
13.7671 2.94837 -23.7921
13.7502 3.09882 -23.7911
13.7334 3.24926 -23.79
13.7165 3.39971 -23.789
13.6997 3.55016 -23.7879
13.6203 3.6201 -23.7893
13.6035 3.77055 -23.7882
13.5866 3.921 -23.7872
13.5073 3.99094 -23.7885
13.4905 4.14139 -23.7875
13.4112 4.21133 -23.7888
13.3943 4.36178 -23.7878
13.3775 4.51223 -23.7867
13.3606 4.66268 -23.7857
13.2813 4.73262 -23.787
13.2645 4.88307 -23.786
13.1851 4.95301 -23.7874
13.1058 5.02296 -23.7887
13.0265 5.0929 -23.7901
12.9472 5.16284 -23.7914
13.2427 5.71581 -23.7783
13.2883 5.94677 -23.7748
13.2714 6.09721 -23.7737
13.2546 6.24766 -23.7727
13.3002 6.47861 -23.7692
13.2834 6.62906 -23.7681
13.2665 6.77951 -23.7671
13.2497 6.92996 -23.766
13.1703 6.9999 -23.7674
13.1535 7.15035 -23.7663
13.1366 7.3008 -23.7653
13.1823 7.53175 -23.7618
13.1654 7.6822 -23.7607
13.1486 7.83264 -23.7597
13.1317 7.98309 -23.7586
13.1149 8.13354 -23.7576
13.1605 8.36449 -23.7541
13.1436 8.51495 -23.753
13.1268 8.66539 -23.752
13.1099 8.81584 -23.7509
13.0306 8.88578 -23.7523
13.0138 9.03623 -23.7512
12.9969 9.18668 -23.7502
12.9176 9.25662 -23.7515
12.8383 9.32656 -23.7529
12.759 9.39651 -23.7543
12.6797 9.46645 -23.7556
12.6628 9.6169 -23.7546
12.5835 9.68684 -23.756
12.5042 9.75678 -23.7573
12.4249 9.82673 -23.7587
12.3456 9.89667 -23.76
12.2662 9.96661 -23.7614
12.1869 10.0366 -23.7628
12.0451 10.026 -23.7666
11.9658 10.0959 -23.7679
11.8865 10.1659 -23.7693
11.8072 10.2358 -23.7707
11.6654 10.2253 -23.7744
11.5861 10.2952 -23.7758
11.5068 10.3652 -23.7772
11.365 10.3546 -23.781
11.2857 10.4245 -23.7823
11.2064 10.4945 -23.7837
11.1271 10.5644 -23.7851
10.9853 10.5539 -23.7889
10.906 10.6238 -23.7902
10.7642 10.6132 -23.794
10.6849 10.6832 -23.7954
10.5431 10.6726 -23.7992
10.3388 10.5816 -23.8054
10.2595 10.6515 -23.8067
10.1802 10.7214 -23.8081
10.1009 10.7914 -23.8095
10.0216 10.8613 -23.8109
9.87981 10.8508 -23.8146
9.80049 10.9207 -23.816
9.72118 10.9906 -23.8174
9.5794 10.9801 -23.8212
9.50008 11.05 -23.8225
9.3583 11.0395 -23.8263
9.21652 11.0289 -23.8301
9.13721 11.0989 -23.8315
8.99543 11.0883 -23.8353
8.85365 11.0777 -23.8391
8.77433 11.1477 -23.8404
8.63255 11.1371 -23.8442
8.49077 11.1265 -23.848
8.41146 11.1965 -23.8493
8.33214 11.2664 -23.8507
8.19036 11.2559 -23.8545
8.11105 11.3258 -23.8559
7.96927 11.3153 -23.8597
7.82749 11.3047 -23.8634
7.68571 11.2941 -23.8672
7.60639 11.3641 -23.8686
7.46461 11.3535 -23.8724
7.38529 11.4235 -23.8738
7.24352 11.4129 -23.8775
7.10174 11.4023 -23.8813
6.95995 11.3918 -23.8851
6.88064 11.4617 -23.8865
6.73886 11.4512 -23.8903
6.65955 11.5211 -23.8916
6.51777 11.5105 -23.8954
6.37598 11.5 -23.8992
6.23421 11.4894 -23.903
6.15489 11.5594 -23.9044
6.01311 11.5488 -23.9082
5.87133 11.5382 -23.912
5.60462 11.3667 -23.9206
5.5253 11.4366 -23.922
5.38352 11.426 -23.9258
5.24174 11.4155 -23.9296
5.03749 11.3244 -23.9358
4.83325 11.2333 -23.942
4.69147 11.2228 -23.9458
4.54969 11.2122 -23.9496
4.40791 11.2017 -23.9533
4.32859 11.2716 -23.9547
4.12435 11.1805 -23.9609
3.73271 10.848 -23.9744
3.59093 10.8374 -23.9782
3.44915 10.8268 -23.982
12.8603 9.15774 -23.7559
12.7705 9.27961 -23.7548
12.6668 9.30052 -23.7562
12.577 9.4224 -23.7551
12.5426 9.94807 -23.7444
12.4389 9.96898 -23.7457
12.3491 10.0908 -23.7447
12.2454 10.1118 -23.7461
12.1279 10.0317 -23.7498
12.0243 10.0526 -23.7512
11.9206 10.0736 -23.7526
11.8585 10.3973 -23.7467
11.7687 10.5192 -23.7456
11.665 10.5401 -23.747
11.5613 10.561 -23.7484
11.4577 10.5819 -23.7497
11.354 10.6029 -23.7511
11.2504 10.6238 -23.7525
11.1606 10.7456 -23.7514
11.0569 10.7666 -23.7528
10.9671 10.8884 -23.7517
10.8634 10.9093 -23.7531
10.7598 10.9303 -23.7544
10.6561 10.9512 -23.7558
10.5524 10.9721 -23.7572
10.4488 10.993 -23.7585
10.3451 11.0139 -23.7599
10.2415 11.0348 -23.7613
10.1516 11.1567 -23.7602
10.048 11.1776 -23.7616
9.94432 11.1985 -23.7629
9.84066 11.2194 -23.7643
9.737 11.2404 -23.7657
9.63334 11.2613 -23.767
9.52968 11.2822 -23.7684
9.42602 11.3031 -23.7698
9.32236 11.324 -23.7711
9.21869 11.3449 -23.7725
9.11504 11.3658 -23.7739
9.01138 11.3868 -23.7752
8.90771 11.4077 -23.7766
8.80406 11.4286 -23.778
8.70039 11.4495 -23.7793
8.59673 11.4704 -23.7807
8.49307 11.4913 -23.7821
8.38941 11.5122 -23.7834
8.28575 11.5332 -23.7848
8.18209 11.5541 -23.7862
8.07843 11.575 -23.7875
7.97477 11.5959 -23.7889
7.87111 11.6168 -23.7903
7.76745 11.6377 -23.7916
7.67764 11.7596 -23.7906
7.57398 11.7805 -23.7919
7.48416 11.9024 -23.7909
7.3805 11.9233 -23.7922
7.27684 11.9442 -23.7936
7.17318 11.9651 -23.795
7.06952 11.986 -23.7963
6.96586 12.007 -23.7977
6.8622 12.0279 -23.7991
6.75854 12.0488 -23.8004
6.65488 12.0697 -23.8018
6.53738 11.9897 -23.8056
6.43372 12.0106 -23.807
6.33006 12.0315 -23.8083
6.2264 12.0524 -23.8097
6.12274 12.0733 -23.8111
6.00523 11.9933 -23.8148
5.88773 11.9133 -23.8186
5.78407 11.9342 -23.82
5.66656 11.8541 -23.8238
5.5629 11.8751 -23.8252
5.45924 11.896 -23.8265
5.35558 11.9169 -23.8279
5.26577 12.0387 -23.8268
5.14826 11.9587 -23.8306
5.0446 11.9796 -23.832
4.9271 11.8996 -23.8358
4.80959 11.8196 -23.8396
4.69209 11.7395 -23.8434
4.58843 11.7604 -23.8447
4.47092 11.6804 -23.8485
4.36726 11.7013 -23.8499
4.24976 11.6213 -23.8537
4.1461 11.6422 -23.855
4.04244 11.6631 -23.8564
3.92493 11.5831 -23.8602
3.82127 11.604 -23.8616
3.71761 11.6249 -23.8629
3.61395 11.6458 -23.8643
3.49645 11.5658 -23.8681
3.39279 11.5867 -23.8694
3.27528 11.5067 -23.8732
3.15778 11.4266 -23.877
3.04028 11.3466 -23.8808
2.92277 11.2665 -23.8846
2.81911 11.2875 -23.886
2.7016 11.2074 -23.8898
2.59794 11.2283 -23.8911
2.49429 11.2493 -23.8925
2.37678 11.1692 -23.8963
2.27312 11.1901 -23.8976
2.15562 11.1101 -23.9014
2.05196 11.131 -23.9028
1.93445 11.051 -23.9066
1.81695 10.9709 -23.9104
1.71329 10.9919 -23.9117
1.59578 10.9118 -23.9155
1.49212 10.9327 -23.9169
1.37462 10.8527 -23.9207
1.24327 10.6717 -23.9269
1.12576 10.5917 -23.9307
1.00826 10.5116 -23.9345
0.890756 10.4316 -23.9383
0.759408 10.2506 -23.9445
0.614213 9.96867 -23.9531
0.482864 9.78768 -23.9593
0.351514 9.60669 -23.9655
0.234011 9.52665 -23.9693
0.116506 9.44662 -23.9731
0.0128466 9.46753 -23.9745
-0.104657 9.3875 -23.9783
-0.208319 9.40841 -23.9796
-0.325824 9.32837 -23.9834
-0.443327 9.24834 -23.9872
-0.616209 8.76449 -24.0007
-0.719869 8.78541 -24.0021
-0.837375 8.70537 -24.0058
-0.941034 8.72628 -24.0072
10.7576 11.0525 -23.8284
10.6189 11.1132 -23.8273
10.4802 11.1738 -23.8262
10.38 11.1401 -23.8276
10.2797 11.1064 -23.829
10.141 11.167 -23.8279
10.0408 11.1333 -23.8293
9.90208 11.1939 -23.8282
9.80185 11.1602 -23.8296
9.66313 11.2208 -23.8285
9.5629 11.1871 -23.8299
9.34721 11.4365 -23.824
9.24698 11.4027 -23.8254
9.10826 11.4634 -23.8243
9.00803 11.4297 -23.8257
8.90781 11.3959 -23.827
8.80758 11.3622 -23.8284
8.66886 11.4229 -23.8273
8.56863 11.3891 -23.8287
8.39143 11.5441 -23.8252
8.25271 11.6047 -23.8242
8.15248 11.571 -23.8255
8.05225 11.5373 -23.8269
7.95202 11.5036 -23.8283
7.85179 11.4699 -23.8296
7.75156 11.4362 -23.831
7.61284 11.4968 -23.8299
7.47413 11.5574 -23.8289
7.33541 11.6181 -23.8278
7.1967 11.6787 -23.8268
7.09647 11.645 -23.8281
6.99623 11.6113 -23.8295
6.93449 11.4832 -23.8333
6.83426 11.4495 -23.8347
6.69555 11.5101 -23.8336
6.59532 11.4764 -23.835
6.4566 11.537 -23.8339
6.31788 11.5977 -23.8329
6.14068 11.7526 -23.8294
6.00196 11.8133 -23.8283
5.90174 11.7796 -23.8297
5.76302 11.8402 -23.8286
5.6243 11.9008 -23.8276
5.48559 11.9614 -23.8265
5.38536 11.9277 -23.8279
5.28512 11.894 -23.8292
5.14641 11.9546 -23.8282
5.04618 11.9209 -23.8295
4.90746 11.9816 -23.8285
4.80723 11.9478 -23.8299
4.707 11.9141 -23.8312
4.60677 11.8804 -23.8326
4.50654 11.8467 -23.834
4.40631 11.813 -23.8353
4.2676 11.8736 -23.8343
4.16737 11.8399 -23.8356
4.06714 11.8062 -23.837
3.96691 11.7725 -23.8384
3.86668 11.7387 -23.8397
3.76645 11.705 -23.8411
3.66622 11.6713 -23.8425
3.56599 11.6376 -23.8438
3.46576 11.6039 -23.8452
3.36553 11.5702 -23.8466
3.2653 11.5364 -23.8479
3.16507 11.5027 -23.8493
3.06484 11.469 -23.8507
2.92612 11.5296 -23.8496
2.82589 11.4959 -23.851
2.68718 11.5566 -23.8499
2.58695 11.5228 -23.8513
2.48671 11.4891 -23.8526
2.38649 11.4554 -23.854
2.28626 11.4217 -23.8554
2.18603 11.388 -23.8567
2.0858 11.3542 -23.8581
1.98557 11.3205 -23.8595
1.88534 11.2868 -23.8608
1.78511 11.2531 -23.8622
1.68488 11.2194 -23.8636
1.62313 11.0913 -23.8674
1.5229 11.0576 -23.8687
1.46116 10.9295 -23.8725
1.36093 10.8958 -23.8739
1.2607 10.8621 -23.8752
1.16047 10.8284 -23.8766
1.06024 10.7947 -23.878
0.96001 10.7609 -23.8793
0.85978 10.7272 -23.8807
0.759549 10.6935 -23.8821
0.697807 10.5654 -23.8859
0.597579 10.5317 -23.8872
0.497348 10.498 -23.8886
0.435604 10.3699 -23.8924
0.335374 10.3362 -23.8938
0.350603 10.0195 -23.9024
0.250374 9.98575 -23.9037
0.150143 9.95203 -23.9051
0.0114267 10.0127 -23.9041
-0.0888038 9.97895 -23.9054
-0.189032 9.94523 -23.9068
-0.289262 9.91151 -23.9082
-0.389493 9.87779 -23.9095
-0.451236 9.74973 -23.9133
-0.551466 9.71601 -23.9147
-0.613209 9.58794 -23.9185
-0.713439 9.55423 -23.9198
-0.775183 9.42616 -23.9236
-0.875413 9.39245 -23.925
-0.937158 9.26438 -23.9288
-1.03739 9.23066 -23.9301
-1.09913 9.1026 -23.9339
-1.19936 9.06888 -23.9353
-1.2611 8.94081 -23.9391
-1.36134 8.9071 -23.9405
-1.46156 8.87338 -23.9418
-1.5618 8.83966 -23.9432
-1.62354 8.7116 -23.947
-1.72377 8.67788 -23.9483
-1.78551 8.54981 -23.9521
-1.84725 8.42175 -23.9559
-1.909 8.29368 -23.9597
-1.97074 8.16561 -23.9635
-1.994 7.9432 -23.9697
-2.09423 7.90948 -23.9711
-2.15597 7.78142 -23.9749
-2.2562 7.7477 -23.9762
-2.31795 7.61963 -23.98
-2.37969 7.49157 -23.9838
-2.44143 7.3635 -23.9876
-2.50317 7.23543 -23.9914
-2.56492 7.10737 -23.9952
-2.66515 7.07365 -23.9966
-2.80387 7.13428 -23.9955
-2.90409 7.10056 -23.9969
-2.96584 6.9725 -24.0006
-3.06607 6.93879 -24.002
-3.12781 6.81072 -24.0058
-3.22804 6.777 -24.0072
-3.32827 6.74328 -24.0085
-3.4285 6.70957 -24.0099
-3.52873 6.67585 -24.0113
-3.59048 6.54778 -24.0151
-3.53676 6.13667 -24.0261
-3.5985 6.0086 -24.0299
-3.58328 5.69184 -24.0385
-3.64502 5.56378 -24.0423
-3.74525 5.53006 -24.0437
-3.80699 5.40199 -24.0475
3.60938 12.2855 -23.8958
3.45893 12.2687 -23.8947
3.38899 12.1894 -23.8961
3.31905 12.1101 -23.8975
3.2491 12.0307 -23.8988
3.09865 12.0139 -23.8978
2.94821 11.9971 -23.8967
2.79776 11.9802 -23.8957
2.72782 11.9009 -23.897
2.57737 11.884 -23.896
2.50742 11.8047 -23.8974
2.35698 11.7879 -23.8963
2.28703 11.7086 -23.8977
2.13659 11.6917 -23.8966
2.06664 11.6124 -23.898
1.9967 11.5331 -23.8993
1.92676 11.4538 -23.9007
1.7763 11.4369 -23.8996
1.62586 11.4201 -23.8986
1.39491 11.4657 -23.8951
1.24446 11.4488 -23.894
1.17452 11.3695 -23.8954
1.02407 11.3527 -23.8944
0.954125 11.2734 -23.8957
0.803678 11.2565 -23.8947
0.733734 11.1772 -23.896
0.583286 11.1603 -23.895
0.513345 11.081 -23.8963
0.362896 11.0642 -23.8953
0.292953 10.9849 -23.8967
0.22301 10.9056 -23.898
0.153066 10.8262 -23.8994
0.00261974 10.8094 -23.8983
-0.0673237 10.7301 -23.8997
-0.217775 10.7132 -23.8986
-0.287719 10.6339 -23.9
-0.357663 10.5546 -23.9014
-0.427603 10.4753 -23.9027
-0.497547 10.396 -23.9041
-0.567491 10.3167 -23.9055
-0.637434 10.2373 -23.9068
-0.707376 10.158 -23.9082
-0.85782 10.1412 -23.9071
-0.927764 10.0619 -23.9085
-0.997708 9.98254 -23.9099
-1.06765 9.90323 -23.9112
-1.2181 9.88637 -23.9102
-1.28804 9.80706 -23.9115
-1.35798 9.72775 -23.9129
-1.42793 9.64843 -23.9143
-1.49787 9.56912 -23.9156
-1.56781 9.4898 -23.917
-1.63776 9.41049 -23.9184
-1.7077 9.33117 -23.9197
-1.77764 9.25186 -23.9211
-1.84759 9.17254 -23.9225
-1.91753 9.09323 -23.9238
-1.98747 9.01391 -23.9252
-2.05742 8.9346 -23.9266
-2.12736 8.85529 -23.9279
-2.1973 8.77597 -23.9293
-2.26725 8.69665 -23.9307
-2.33719 8.61734 -23.932
-2.32663 8.47556 -23.9358
-2.39657 8.39625 -23.9372
-2.38601 8.25447 -23.941
-2.45596 8.17515 -23.9424
-2.5259 8.09584 -23.9437
-2.59584 8.01653 -23.9451
-2.66579 7.93721 -23.9464
-2.81623 7.92036 -23.9454
-2.96668 7.90351 -23.9443
-3.03662 7.82419 -23.9457
-3.10656 7.74488 -23.9471
-3.17651 7.66557 -23.9484
-3.24645 7.58625 -23.9498
-3.31639 7.50693 -23.9512
-3.38634 7.42762 -23.9525
-3.45628 7.34831 -23.9539
-3.52622 7.26899 -23.9553
-3.51566 7.12721 -23.959
-3.5856 7.0479 -23.9604
-3.65555 6.96858 -23.9618
-3.72549 6.88927 -23.9632
-3.79543 6.80995 -23.9645
-3.86538 6.73064 -23.9659
-3.93532 6.65132 -23.9672
-4.08577 6.63447 -23.9662
-4.15571 6.55516 -23.9675
-4.22565 6.47584 -23.9689
-4.2956 6.39653 -23.9703
-4.44605 6.37968 -23.9692
-4.51599 6.30037 -23.9706
-4.50543 6.15859 -23.9744
-4.57537 6.07927 -23.9758
-4.64531 5.99995 -23.9771
-4.71526 5.92064 -23.9785
-4.7852 5.84133 -23.9798
-4.85514 5.76201 -23.9812
-4.92508 5.6827 -23.9826
-4.99503 5.60338 -23.9839
-5.06497 5.52407 -23.9853
-5.13492 5.44475 -23.9867
-5.20486 5.36544 -23.988
-5.2748 5.28612 -23.9894
-5.26424 5.14434 -23.9932
-5.33418 5.06503 -23.9946
-5.32363 4.92325 -23.9984
-5.39357 4.84394 -23.9997
-5.46351 4.76462 -24.0011
-5.53345 4.68531 -24.0025
-5.6034 4.60599 -24.0038
-5.67334 4.52668 -24.0052
-5.74328 4.44736 -24.0065
-5.81323 4.36805 -24.0079
-5.88317 4.28873 -24.0093
-5.95311 4.20942 -24.0107
-6.02306 4.13011 -24.012
-6.01249 3.98832 -24.0158
-6.00193 3.84654 -24.0196
-6.07187 3.76723 -24.021
-6.06131 3.62545 -24.0247
-6.05075 3.48367 -24.0285
-6.12069 3.40435 -24.0299
-6.11013 3.26257 -24.0337
-6.18008 3.18326 -24.035
-6.25002 3.10395 -24.0364
-6.23946 2.96216 -24.0402
-6.3094 2.88284 -24.0416
-6.37934 2.80353 -24.0429
-6.36878 2.66175 -24.0467
-0.765064 10.7506 -23.9741
-0.785979 10.6469 -23.9755
-0.907847 10.5571 -23.9745
-1.13067 10.4811 -23.971
-1.25254 10.3913 -23.9699
-1.27345 10.2877 -23.9713
-1.29437 10.184 -23.9726
-1.41623 10.0942 -23.9716
-1.43715 9.99053 -23.9729
-1.55901 9.90072 -23.9719
-1.68088 9.8109 -23.9708
-1.80275 9.72108 -23.9698
-1.82366 9.61742 -23.9711
-1.94553 9.52761 -23.9701
-1.96645 9.42395 -23.9715
-2.39117 9.37566 -23.9631
-2.51304 9.28585 -23.9621
-2.53395 9.18219 -23.9634
-2.65582 9.09237 -23.9624
-2.67673 8.98871 -23.9637
-2.7986 8.8989 -23.9627
-2.81952 8.79524 -23.9641
-2.84043 8.69158 -23.9654
-2.9623 8.60176 -23.9644
-2.98321 8.4981 -23.9657
-3.00413 8.39444 -23.9671
-3.02504 8.29078 -23.9685
-3.04596 8.18712 -23.9698
-3.06687 8.08346 -23.9712
-3.08779 7.9798 -23.9726
-3.20965 7.88999 -23.9715
-3.23057 7.78632 -23.9729
-3.25149 7.68267 -23.9742
-3.37335 7.59285 -23.9732
-3.39427 7.48919 -23.9745
-3.41518 7.38553 -23.9759
-3.4361 7.28187 -23.9773
-3.86082 7.23359 -23.9689
-3.98268 7.14377 -23.9679
-4.10456 7.05395 -23.9668
-4.22642 6.96414 -23.9658
-4.34829 6.87432 -23.9647
-4.47016 6.78451 -23.9637
-4.59202 6.69469 -23.9626
-4.61294 6.59103 -23.964
-4.63385 6.48737 -23.9653
-4.65477 6.38371 -23.9667
-4.77663 6.29389 -23.9657
-4.79755 6.19023 -23.967
-4.91942 6.10042 -23.966
-4.94033 5.99676 -23.9673
-5.16315 5.92079 -23.9639
-5.28502 5.83097 -23.9628
-5.40689 5.74115 -23.9617
-5.4278 5.6375 -23.9631
-5.44872 5.53383 -23.9645
-5.46963 5.43018 -23.9658
-5.49055 5.32652 -23.9672
-5.51146 5.22285 -23.9686
-5.43142 5.10535 -23.9724
-5.35139 4.98785 -23.9761
-6.88612 3.79443 -23.9734
-7.0411 3.61722 -23.9699
-7.10174 3.47851 -23.9688
-7.16237 3.33979 -23.9678
-7.223 3.20107 -23.9667
-7.18928 3.10085 -23.9681
-7.24991 2.96213 -23.967
-7.2162 2.8619 -23.9684
-7.27683 2.72318 -23.9673
-7.62051 2.46901 -23.959
-7.58679 2.36878 -23.9604
-7.55308 2.26855 -23.9617
-7.51936 2.16832 -23.9631
-7.57999 2.0296 -23.962
-7.54628 1.92937 -23.9634
-7.6069 1.79066 -23.9623
-7.57319 1.69043 -23.9637
-7.63382 1.55171 -23.9627
-7.60011 1.45148 -23.964
-7.66074 1.31276 -23.963
-7.62702 1.21253 -23.9643
-7.5933 1.1123 -23.9657
-7.65394 0.973586 -23.9646
-7.62022 0.873355 -23.966
-7.5865 0.773127 -23.9674
-7.64713 0.634411 -23.9663
-7.61342 0.534181 -23.9677
-7.5797 0.43395 -23.9691
-7.54598 0.33372 -23.9704
-7.51226 0.233492 -23.9718
-7.47855 0.133261 -23.9731
-7.44483 0.0330312 -23.9745
-7.41112 -0.0671983 -23.9759
-7.3774 -0.16743 -23.9772
-7.34368 -0.267658 -23.9786
-7.30996 -0.367889 -23.98
-7.27625 -0.468119 -23.9813
-7.24253 -0.568348 -23.9827
-7.20881 -0.668579 -23.9841
-7.17509 -0.768808 -23.9854
-7.14138 -0.869039 -23.9868
-7.01331 -0.930782 -23.9906
-6.9796 -1.03101 -23.992
-6.94588 -1.13124 -23.9933
-6.91216 -1.23147 -23.9947
-6.87844 -1.3317 -23.9961
-6.84473 -1.43193 -23.9974
-6.71666 -1.49368 -24.0012
-6.68294 -1.59391 -24.0026
-6.64923 -1.69413 -24.004
-6.61551 -1.79437 -24.0053
-6.48745 -1.85611 -24.0091
-6.45373 -1.95634 -24.0105
-6.32566 -2.01808 -24.0143
-6.29194 -2.11831 -24.0156
-6.25822 -2.21854 -24.017
-6.22451 -2.31877 -24.0184
-6.19079 -2.419 -24.0197
-6.15707 -2.51923 -24.0211
-6.02901 -2.58098 -24.0249
-5.99529 -2.68121 -24.0262
-5.96158 -2.78144 -24.0276
-5.92786 -2.88167 -24.029
-5.89414 -2.98189 -24.0303
-5.86043 -3.08212 -24.0317
-5.73236 -3.14387 -24.0355
-5.69864 -3.2441 -24.0369
-5.66492 -3.34433 -24.0382
-5.63121 -3.44456 -24.0396
-5.59749 -3.54479 -24.041
-5.56378 -3.64502 -24.0423
-5.53006 -3.74525 -24.0437
-5.40199 -3.80699 -24.0475
-5.36827 -3.90722 -24.0488
-5.33455 -4.00745 -24.0502
-5.30084 -4.10768 -24.0516
-5.26712 -4.20791 -24.0529
-5.13906 -4.26966 -24.0567
-5.10534 -4.36989 -24.0581
-5.07162 -4.47012 -24.0595
-5.03791 -4.57034 -24.0608
-5.00419 -4.67058 -24.0622
-4.97047 -4.77081 -24.0636
-4.93676 -4.87104 -24.0649
-4.90304 -4.97127 -24.0663
-4.86932 -5.0715 -24.0677
-4.8356 -5.17172 -24.069
-4.80189 -5.27195 -24.0704
-4.67382 -5.3337 -24.0742
-4.6401 -5.43393 -24.0755
-4.60639 -5.53416 -24.0769
-4.57267 -5.63439 -24.0783
-4.53895 -5.73462 -24.0797
-4.50523 -5.83485 -24.081
-4.37717 -5.89659 -24.0848
-4.34345 -5.99682 -24.0862
-4.30973 -6.09705 -24.0875
-4.27602 -6.19728 -24.0889
-4.2423 -6.29751 -24.0903
-4.20858 -6.39774 -24.0916
-4.17487 -6.49797 -24.093
-4.0468 -6.55971 -24.0968
-4.01308 -6.65994 -24.0982
-3.97937 -6.76017 -24.0995
-3.94565 -6.8604 -24.1009
-3.91193 -6.96063 -24.1022
-3.78387 -7.02238 -24.106
-3.75015 -7.12261 -24.1074
-3.71643 -7.22284 -24.1088
-3.68272 -7.32307 -24.1101
-3.649 -7.4233 -24.1115
-3.61528 -7.52353 -24.1129
-3.58157 -7.62376 -24.1142
-3.4535 -7.6855 -24.118
-3.41978 -7.78573 -24.1194
-3.38606 -7.88596 -24.1208
-3.35235 -7.98619 -24.1221
-3.31863 -8.08642 -24.1235
-3.28492 -8.18665 -24.1249
-3.15685 -8.24839 -24.1286
-3.12313 -8.34862 -24.13
-3.08941 -8.44885 -24.1314
-3.0557 -8.54908 -24.1327
-3.02198 -8.64931 -24.1341
-2.89391 -8.71106 -24.1379
-2.8602 -8.81129 -24.1393
-2.73213 -8.87303 -24.1431
-2.69842 -8.97326 -24.1444
-2.57035 -9.035 -24.1482
-2.53663 -9.13523 -24.1496
-2.50291 -9.23546 -24.1509
-2.46919 -9.33569 -24.1523
-2.43548 -9.43592 -24.1537
-2.40176 -9.53615 -24.155
-2.36804 -9.63638 -24.1564
-2.23998 -9.69813 -24.1602
-2.20626 -9.79836 -24.1616
-2.17255 -9.89859 -24.1629
-2.13883 -9.99882 -24.1643
-2.01076 -10.0606 -24.1681
-1.97705 -10.1608 -24.1694
-1.94333 -10.261 -24.1708
-1.81526 -10.3228 -24.1746
-1.59285 -10.346 -24.1808
-1.37043 -10.3693 -24.187
-1.33671 -10.4695 -24.1884
-1.303 -10.5697 -24.1898
-1.36363 -10.7085 -24.1887
-1.32991 -10.8087 -24.1901
-1.39054 -10.9474 -24.189
-1.35683 -11.0476 -24.1904
-1.32311 -11.1479 -24.1917
-1.2894 -11.2481 -24.1931
-1.16133 -11.3098 -24.1969
-1.03326 -11.3716 -24.2007
-0.905196 -11.4333 -24.2045
-0.777132 -11.4951 -24.2083
-0.649067 -11.5568 -24.2121
-0.520994 -11.6185 -24.2159
-0.392933 -11.6803 -24.2196
-0.264864 -11.742 -24.2234
-0.231148 -11.8423 -24.2248
-0.00873709 -11.8655 -24.231
0.119334 -11.9273 -24.2348
0.247399 -11.989 -24.2386
0.375465 -12.0508 -24.2424
0.50353 -12.1125 -24.2462
0.53725 -12.2127 -24.2475
0.570966 -12.313 -24.2489
0.604682 -12.4132 -24.2503
0.638399 -12.5134 -24.2516
0.766462 -12.5752 -24.2554
