ply
format ascii 1.0
element vertex 1210
property float x
property float y
property float z
element face 0
property list uchar uint vertex_indices
end_header
3.181895 -11.810889 -157.840654
3.332343 -11.794040 -157.839597
3.482791 -11.777191 -157.838540
3.874753 -11.947738 -157.830213
4.105706 -11.993355 -157.826733
4.256153 -11.976505 -157.825676
4.406601 -11.959656 -157.824619
4.557049 -11.942807 -157.823561
4.707497 -11.925958 -157.822504
4.857945 -11.909109 -157.821447
5.008393 -11.892260 -157.820390
5.078336 -11.812945 -157.821756
5.228784 -11.796096 -157.820699
5.379231 -11.779247 -157.819642
5.529679 -11.762398 -157.818585
5.599622 -11.683083 -157.819951
5.750070 -11.666234 -157.818894
5.900518 -11.649385 -157.817837
6.050966 -11.632535 -157.816780
6.201414 -11.615686 -157.815722
6.351862 -11.598837 -157.814665
6.502309 -11.581988 -157.813608
6.652757 -11.565139 -157.812551
6.722700 -11.485824 -157.813917
6.792644 -11.406509 -157.815283
6.943091 -11.389660 -157.814226
7.013035 -11.310346 -157.815592
7.163482 -11.293496 -157.814535
7.313930 -11.276647 -157.813478
7.383873 -11.197333 -157.814844
7.453817 -11.118018 -157.816210
7.523760 -11.038703 -157.817576
7.674208 -11.021854 -157.816519
7.744151 -10.942539 -157.817885
7.894599 -10.925690 -157.816828
8.045046 -10.908841 -157.815771
8.114990 -10.829526 -157.817137
8.265437 -10.812677 -157.816079
8.496390 -10.858294 -157.812599
8.646838 -10.841445 -157.811542
8.716781 -10.762130 -157.812908
8.786724 -10.682815 -157.814274
8.856667 -10.603501 -157.815640
9.007115 -10.586651 -157.814583
9.077058 -10.507337 -157.815949
9.147001 -10.428022 -157.817315
9.216945 -10.348707 -157.818681
9.286888 -10.269393 -157.820047
9.356831 -10.190078 -157.821413
9.426774 -10.110763 -157.822779
9.577222 -10.093914 -157.821722
9.647165 -10.014599 -157.823088
9.717108 -9.935285 -157.824454
9.787051 -9.855970 -157.825820
9.856995 -9.776655 -157.827186
9.926938 -9.697341 -157.828552
9.996881 -9.618026 -157.829918
10.066824 -9.538711 -157.831284
10.136767 -9.459397 -157.832650
10.206710 -9.380082 -157.834016
10.276653 -9.300767 -157.835382
10.346597 -9.221453 -157.836748
10.497044 -9.204603 -157.835691
10.566988 -9.125289 -157.837057
10.636931 -9.045974 -157.838423
10.706874 -8.966659 -157.839789
10.776817 -8.887345 -157.841155
10.846760 -8.808030 -157.842521
10.916703 -8.728715 -157.843887
10.986647 -8.649401 -157.845253
11.056590 -8.570086 -157.846619
11.126533 -8.490771 -157.847985
11.196476 -8.411457 -157.849351
11.266419 -8.332142 -157.850717
11.336362 -8.252827 -157.852083
11.406305 -8.173513 -157.853449
11.476249 -8.094198 -157.854815
11.546192 -8.014883 -157.856181
11.535630 -7.873103 -157.859971
11.605573 -7.793788 -157.861337
11.675517 -7.714474 -157.862703
11.745460 -7.635159 -157.864069
11.734898 -7.493379 -157.867858
11.804841 -7.414064 -157.869224
11.874785 -7.334749 -157.870590
11.944728 -7.255435 -157.871956
12.014671 -7.176120 -157.873322
12.004109 -7.034340 -157.877111
12.074052 -6.955025 -157.878477
12.063491 -6.813245 -157.882266
12.052929 -6.671465 -157.886055
12.042368 -6.529684 -157.889844
12.031806 -6.387904 -157.893633
12.101750 -6.308589 -157.894999
12.091188 -6.166809 -157.898789
12.080626 -6.025029 -157.902578
12.150570 -5.945714 -157.903944
12.140008 -5.803934 -157.907733
12.129447 -5.662154 -157.911522
12.118885 -5.520374 -157.915311
12.188828 -5.441059 -157.916677
12.178267 -5.299279 -157.920466
12.167705 -5.157498 -157.924256
12.157144 -5.015718 -157.928045
12.146582 -4.873938 -157.931834
12.136021 -4.732158 -157.935623
12.044954 -4.527912 -157.941835
12.034393 -4.386132 -157.945624
11.782317 -4.056955 -157.956683
11.771756 -3.915175 -157.960472
11.761194 -3.773394 -157.964261
11.509119 -3.444218 -157.975320
11.498557 -3.302437 -157.979109
11.487996 -3.160657 -157.982898
11.477434 -3.018877 -157.986687
11.466873 -2.877097 -157.990476
9.255897 -10.317079 -157.798355
9.377764 -10.227263 -157.797298
9.499631 -10.137447 -157.796241
9.621498 -10.047632 -157.795184
9.743365 -9.957816 -157.794127
9.865232 -9.868000 -157.793070
9.987099 -9.778184 -157.792013
10.108966 -9.688368 -157.790956
10.230833 -9.598552 -157.789899
10.352700 -9.508737 -157.788841
10.474567 -9.418921 -157.787784
10.596434 -9.329105 -157.786727
10.617349 -9.225445 -157.788093
10.739216 -9.135629 -157.787036
10.760131 -9.031969 -157.788402
10.881998 -8.942153 -157.787345
10.902913 -8.838493 -157.788711
10.923829 -8.734833 -157.790077
11.045696 -8.645017 -157.789020
11.167563 -8.555201 -157.787963
11.289430 -8.465385 -157.786906
11.411297 -8.375569 -157.785849
11.432212 -8.271909 -157.787215
11.554079 -8.182093 -157.786158
11.574994 -8.078433 -157.787524
11.595909 -7.974773 -157.788890
11.616824 -7.871113 -157.790256
11.637739 -7.767453 -157.791622
11.658655 -7.663793 -157.792988
11.780522 -7.573977 -157.791930
11.801437 -7.470317 -157.793296
11.822352 -7.366656 -157.794663
11.944219 -7.276841 -157.793605
11.965134 -7.173180 -157.794971
12.087001 -7.083365 -157.793914
12.107916 -6.979704 -157.795280
12.229783 -6.889889 -157.794223
12.250698 -6.786228 -157.795589
12.271614 -6.682568 -157.796955
12.292529 -6.578908 -157.798321
12.313444 -6.475248 -157.799687
12.334359 -6.371588 -157.801053
12.355274 -6.267928 -157.802419
12.376189 -6.164267 -157.803785
12.397104 -6.060607 -157.805151
12.418020 -5.956947 -157.806517
12.438935 -5.853287 -157.807883
12.459850 -5.749627 -157.809249
12.480765 -5.645967 -157.810615
12.400728 -5.528462 -157.814405
12.421643 -5.424802 -157.815771
12.442558 -5.321142 -157.817137
12.362522 -5.203637 -157.820926
12.383437 -5.099977 -157.822292
12.404352 -4.996317 -157.823658
12.425267 -4.892657 -157.825024
12.345230 -4.775152 -157.828813
12.366145 -4.671492 -157.830179
12.387060 -4.567832 -157.831545
12.307024 -4.450328 -157.835334
12.327939 -4.346667 -157.836700
12.348854 -4.243007 -157.838066
12.369769 -4.139347 -157.839432
12.289732 -4.021843 -157.843221
12.310647 -3.918182 -157.844587
12.230611 -3.800678 -157.848376
12.150574 -3.683174 -157.852166
12.070537 -3.565669 -157.855955
11.990500 -3.448165 -157.859744
12.011415 -3.344504 -157.861110
12.032331 -3.240844 -157.862476
12.053246 -3.137184 -157.863842
12.074161 -3.033524 -157.865208
12.095076 -2.929864 -157.866574
12.015039 -2.812359 -157.870363
12.035954 -2.708699 -157.871729
12.056869 -2.605039 -157.873095
11.976833 -2.487534 -157.876884
11.997748 -2.383874 -157.878250
12.018663 -2.280214 -157.879616
11.938626 -2.162710 -157.883405
11.959541 -2.059049 -157.884771
11.879504 -1.941545 -157.888561
11.900420 -1.837885 -157.889927
11.820383 -1.720380 -157.893716
11.841298 -1.616720 -157.895082
11.761261 -1.499216 -157.898871
11.782176 -1.395556 -157.900237
11.702140 -1.278051 -157.904026
11.622103 -1.160547 -157.907815
11.441114 -1.029198 -157.914027
11.361077 -0.911693 -157.917817
11.381992 -0.808033 -157.919183
11.301956 -0.690529 -157.922972
11.322871 -0.586868 -157.924338
11.343786 -0.483208 -157.925704
11.364701 -0.379548 -157.927070
11.385616 -0.275888 -157.928436
11.406531 -0.172228 -157.929802
11.427446 -0.068568 -157.931168
11.448362 0.035092 -157.932534
11.368325 0.152597 -157.936323
11.389240 0.256257 -157.937689
11.309203 0.373762 -157.941478
11.330118 0.477422 -157.942844
11.250081 0.594926 -157.946633
10.766237 0.767808 -157.960115
10.888104 0.857624 -157.959058
10.909019 0.961284 -157.960424
10.929934 1.064944 -157.961790
10.950849 1.168604 -157.963156
10.870813 1.286109 -157.966945
10.891728 1.389769 -157.968311
10.912643 1.493429 -157.969677
10.832606 1.610934 -157.973466
10.853521 1.714594 -157.974832
10.773485 1.832098 -157.978621
10.794400 1.935758 -157.979987
10.714363 2.053263 -157.983776
10.735278 2.156923 -157.985143
10.655241 2.274428 -157.988932
10.676156 2.378088 -157.990298
10.596120 2.495592 -157.994087
10.516083 2.613097 -157.997876
10.436046 2.730601 -158.001665
10.356009 2.848106 -158.005454
12.285304 -7.405184 -157.809187
12.440285 -7.227981 -157.805707
12.500918 -7.089265 -157.804650
12.561550 -6.950549 -157.803593
12.622182 -6.811832 -157.802536
12.588465 -6.711603 -157.803902
12.649097 -6.572886 -157.802845
12.804078 -6.395684 -157.799364
12.864710 -6.256967 -157.798307
12.925342 -6.118251 -157.797250
12.891625 -6.018021 -157.798616
12.857908 -5.917791 -157.799982
12.918540 -5.779075 -157.798925
12.979173 -5.640359 -157.797868
12.945456 -5.540129 -157.799234
13.006088 -5.401412 -157.798177
12.972371 -5.301182 -157.799543
12.938654 -5.200952 -157.800909
12.904937 -5.100723 -157.802275
12.871220 -5.000493 -157.803641
12.931852 -4.861776 -157.802584
12.898135 -4.761546 -157.803950
12.864418 -4.661316 -157.805316
12.830701 -4.561087 -157.806682
12.796984 -4.460857 -157.808048
12.857616 -4.322140 -157.806991
12.823899 -4.221910 -157.808357
12.790182 -4.121680 -157.809723
12.756465 -4.021451 -157.811089
12.722748 -3.921221 -157.812455
12.783380 -3.782504 -157.811398
12.749663 -3.682274 -157.812764
12.715946 -3.582044 -157.814130
12.682229 -3.481815 -157.815496
12.648512 -3.381585 -157.816862
12.614795 -3.281355 -157.818228
12.675427 -3.142638 -157.817171
12.641710 -3.042408 -157.818537
12.607993 -2.942179 -157.819903
12.574276 -2.841949 -157.821269
12.540559 -2.741719 -157.822635
12.506842 -2.641489 -157.824001
12.473125 -2.541259 -157.825367
12.439408 -2.441029 -157.826733
12.405691 -2.340799 -157.828099
12.371974 -2.240569 -157.829465
12.338257 -2.140339 -157.830831
12.398889 -2.001623 -157.829774
12.365172 -1.901393 -157.831140
12.331455 -1.801163 -157.832506
12.297738 -1.700933 -157.833872
12.264021 -1.600703 -157.835238
12.324653 -1.461987 -157.834181
12.290936 -1.361757 -157.835547
12.257219 -1.261527 -157.836913
12.223502 -1.161297 -157.838279
12.189785 -1.061067 -157.839645
12.156068 -0.960837 -157.841011
12.122351 -0.860607 -157.842377
12.088634 -0.760377 -157.843743
12.149266 -0.621661 -157.842686
12.115549 -0.521431 -157.844052
12.081832 -0.421201 -157.845418
12.048115 -0.320971 -157.846784
12.108748 -0.182255 -157.845727
12.075031 -0.082025 -157.847093
12.041314 0.018205 -157.848459
12.007597 0.118435 -157.849825
11.973880 0.218665 -157.851191
11.940163 0.318895 -157.852557
11.906446 0.419124 -157.853923
11.872729 0.519354 -157.855289
11.839012 0.619584 -157.856655
11.805295 0.719814 -157.858021
11.771578 0.820044 -157.859387
11.737861 0.920274 -157.860753
11.704144 1.020504 -157.862119
11.670427 1.120734 -157.863485
11.636710 1.220964 -157.864851
11.602993 1.321194 -157.866217
11.569276 1.421424 -157.867583
11.535559 1.521654 -157.868949
11.501842 1.621884 -157.870315
11.562474 1.760600 -157.869258
11.528757 1.860830 -157.870624
11.495040 1.961060 -157.871990
11.461323 2.061290 -157.873356
11.427606 2.161520 -157.874722
11.393889 2.261749 -157.876088
11.360172 2.361979 -157.877454
11.326455 2.462209 -157.878820
11.292738 2.562439 -157.880186
11.259021 2.662669 -157.881552
11.225304 2.762899 -157.882918
11.191587 2.863129 -157.884284
11.157870 2.963359 -157.885650
11.124153 3.063589 -157.887016
11.090436 3.163819 -157.888382
11.056719 3.264049 -157.889748
11.023002 3.364279 -157.891114
10.989285 3.464509 -157.892480
10.955568 3.564738 -157.893846
10.921851 3.664968 -157.895212
10.888134 3.765198 -157.896578
10.854417 3.865428 -157.897944
10.726351 3.927172 -157.901733
10.692634 4.027402 -157.903099
10.658917 4.127632 -157.904465
10.530851 4.189375 -157.908254
10.497134 4.289605 -157.909620
10.463417 4.389835 -157.910986
10.429700 4.490065 -157.912353
10.301633 4.551808 -157.916142
10.267916 4.652038 -157.917508
10.234199 4.752268 -157.918874
10.200482 4.852498 -157.920240
10.166765 4.952728 -157.921606
10.133048 5.052958 -157.922972
10.099331 5.153188 -157.924338
10.065614 5.253418 -157.925704
10.031897 5.353648 -157.927070
9.903831 5.415391 -157.930859
9.870114 5.515621 -157.932225
9.742048 5.577365 -157.936014
9.708331 5.677595 -157.937380
9.674614 5.777825 -157.938746
9.546548 5.839568 -157.942535
9.512831 5.939798 -157.943901
9.479114 6.040028 -157.945267
9.351048 6.101772 -157.949056
9.317331 6.202002 -157.950422
9.189265 6.263745 -157.954212
9.155548 6.363975 -157.955578
9.027482 6.425719 -157.959367
8.993765 6.525949 -157.960733
8.865699 6.587692 -157.964522
8.737633 6.649436 -157.968311
8.703916 6.749666 -157.969677
8.575849 6.811409 -157.973466
8.447783 6.873153 -157.977255
8.319717 6.934896 -157.981044
8.191651 6.996640 -157.984834
8.063585 7.058383 -157.988623
8.029868 7.158613 -157.989989
7.901802 7.220357 -157.993778
7.773736 7.282100 -157.997567
7.645670 7.343844 -158.001356
7.517604 7.405587 -158.005145
7.389537 7.467331 -158.008934
7.167122 7.490588 -158.015147
7.039056 7.552332 -158.018936
6.910990 7.614075 -158.022725
12.987467 -4.770712 -157.889102
12.970618 -4.620264 -157.888045
13.016234 -4.389312 -157.884565
13.061850 -4.158359 -157.881085
13.107467 -3.927406 -157.877604
13.090617 -3.776958 -157.876547
13.011303 -3.707015 -157.877913
12.994453 -3.556567 -157.876856
12.977604 -3.406119 -157.875799
12.960755 -3.255671 -157.874742
12.943906 -3.105223 -157.873685
12.927056 -2.954775 -157.872628
12.910207 -2.804327 -157.871571
12.830892 -2.734384 -157.872937
12.814043 -2.583936 -157.871880
12.734728 -2.513993 -157.873246
12.717879 -2.363545 -157.872188
12.638564 -2.293602 -157.873554
12.621715 -2.143154 -157.872497
12.542400 -2.073211 -157.873863
12.463085 -2.003268 -157.875229
12.383771 -1.933325 -157.876595
12.429387 -1.702372 -157.873115
12.475003 -1.471419 -157.869635
12.458154 -1.320971 -157.868578
12.441305 -1.170523 -157.867521
12.424455 -1.020075 -157.866464
12.407606 -0.869627 -157.865406
12.328291 -0.799684 -157.866773
12.248977 -0.729741 -157.868139
12.232127 -0.579293 -157.867081
12.152812 -0.509350 -157.868447
12.135963 -0.358902 -157.867390
12.119114 -0.208454 -157.866333
12.102265 -0.058006 -157.865276
12.085415 0.092442 -157.864219
12.131032 0.323395 -157.860739
12.114183 0.473842 -157.859682
12.034868 0.543786 -157.861048
12.018018 0.694234 -157.859991
12.001169 0.844682 -157.858933
11.921854 0.914625 -157.860299
11.842540 0.984568 -157.861665
11.825690 1.135016 -157.860608
11.746376 1.204959 -157.861974
11.729526 1.355407 -157.860917
11.650212 1.425350 -157.862283
11.633362 1.575798 -157.861226
11.554047 1.645741 -157.862592
11.537198 1.796189 -157.861535
11.520349 1.946637 -157.860478
11.441034 2.016580 -157.861844
11.424185 2.167028 -157.860787
11.344870 2.236971 -157.862153
11.390486 2.467924 -157.858673
11.373637 2.618372 -157.857616
11.356788 2.768820 -157.856558
11.339939 2.919268 -157.855501
11.260624 2.989211 -157.856867
11.243775 3.139659 -157.855810
11.164460 3.209602 -157.857176
11.085145 3.279545 -157.858542
11.005830 3.349488 -157.859908
10.988981 3.499936 -157.858851
10.909666 3.569880 -157.860217
10.892817 3.720327 -157.859160
10.813502 3.790271 -157.860526
10.796653 3.940719 -157.859469
10.717338 4.010662 -157.860835
10.700489 4.161110 -157.859778
10.746105 4.392062 -157.856298
10.666790 4.462006 -157.857664
10.649941 4.612454 -157.856607
10.570626 4.682397 -157.857973
10.553777 4.832845 -157.856916
10.474462 4.902788 -157.858282
10.457613 5.053236 -157.857224
10.440764 5.203684 -157.856167
10.361449 5.273627 -157.857533
10.344600 5.424075 -157.856476
10.265285 5.494018 -157.857842
10.185970 5.563961 -157.859208
10.106655 5.633904 -157.860574
10.089806 5.784352 -157.859517
10.010491 5.854295 -157.860883
9.931176 5.924239 -157.862249
9.851862 5.994182 -157.863615
9.835012 6.144630 -157.862558
9.755698 6.214573 -157.863924
9.676383 6.284516 -157.865290
9.597068 6.354459 -157.866656
9.517753 6.424402 -157.868022
9.438438 6.494345 -157.869388
9.421589 6.644793 -157.868331
9.342274 6.714737 -157.869697
9.262960 6.784680 -157.871063
9.183645 6.854623 -157.872429
9.104330 6.924566 -157.873795
9.025015 6.994509 -157.875161
8.945700 7.064452 -157.876527
8.866386 7.134396 -157.877893
8.787071 7.204339 -157.879259
8.707756 7.274282 -157.880625
8.628441 7.344225 -157.881991
8.549127 7.414168 -157.883357
8.469812 7.484111 -157.884723
8.390497 7.554054 -157.886089
8.311182 7.623998 -157.887455
8.231867 7.693941 -157.888821
8.152553 7.763884 -157.890187
8.073238 7.833827 -157.891553
7.931457 7.823265 -157.895343
7.852143 7.893209 -157.896709
7.772828 7.963152 -157.898075
7.693513 8.033095 -157.899441
7.614198 8.103038 -157.900807
7.534883 8.172981 -157.902173
7.455569 8.242924 -157.903539
7.376254 8.312868 -157.904905
7.296939 8.382811 -157.906271
7.155159 8.372249 -157.910060
7.075844 8.442192 -157.911426
6.996529 8.512135 -157.912792
6.917214 8.582079 -157.914158
6.775434 8.571517 -157.917947
6.696119 8.641460 -157.919313
6.616804 8.711403 -157.920679
6.475024 8.700842 -157.924468
6.395709 8.770785 -157.925834
6.191463 8.679718 -157.932046
5.987218 8.588652 -157.938259
5.907903 8.658595 -157.939625
5.766123 8.648034 -157.943414
5.624342 8.637472 -157.947203
5.482562 8.626910 -157.950992
5.340782 8.616349 -157.954781
5.136536 8.525282 -157.960994
4.994755 8.514721 -157.964783
4.915441 8.584664 -157.966149
4.773660 8.574102 -157.969938
4.631880 8.563541 -157.973727
4.490100 8.552979 -157.977516
4.348319 8.542417 -157.981305
4.269004 8.612360 -157.982671
4.127224 8.601799 -157.986460
3.985444 8.591237 -157.990250
8.948214 7.042202 -157.870171
8.858398 7.164069 -157.869113
8.754738 7.184984 -157.870479
8.651078 7.205899 -157.871845
8.561262 7.327766 -157.870788
8.512979 7.752489 -157.862462
8.423163 7.874356 -157.861405
8.333347 7.996223 -157.860348
8.229687 8.017138 -157.861714
8.139871 8.139005 -157.860657
8.050055 8.260872 -157.859599
7.960240 8.382739 -157.858542
7.856579 8.403655 -157.859908
7.766764 8.525522 -157.858851
7.663103 8.546437 -157.860217
7.559443 8.567352 -157.861583
7.455783 8.588267 -157.862949
7.352123 8.609182 -157.864315
7.248463 8.630097 -157.865681
7.144803 8.651012 -157.867047
7.054987 8.772879 -157.865990
6.951327 8.793795 -157.867356
6.847666 8.814710 -157.868722
6.744006 8.835625 -157.870088
6.640346 8.856540 -157.871454
6.536686 8.877455 -157.872820
6.433026 8.898370 -157.874186
6.329366 8.919285 -157.875552
6.225705 8.940200 -157.876918
6.122045 8.961116 -157.878284
6.018385 8.982031 -157.879650
5.914725 9.002946 -157.881016
5.811065 9.023861 -157.882382
5.707405 9.044776 -157.883748
5.603745 9.065691 -157.885114
5.500084 9.086606 -157.886480
5.396424 9.107522 -157.887846
5.292764 9.128437 -157.889212
5.189104 9.149352 -157.890578
5.085444 9.170267 -157.891945
4.981784 9.191182 -157.893311
4.878123 9.212097 -157.894677
4.774463 9.233012 -157.896043
4.656959 9.152976 -157.899832
4.553299 9.173891 -157.901198
4.449638 9.194806 -157.902564
4.345978 9.215721 -157.903930
4.242318 9.236636 -157.905296
4.138658 9.257551 -157.906662
4.034998 9.278466 -157.908028
3.931338 9.299381 -157.909394
3.827677 9.320297 -157.910760
3.724017 9.341212 -157.912126
3.606513 9.261175 -157.915915
3.502853 9.282090 -157.917281
3.399193 9.303005 -157.918647
3.295532 9.323920 -157.920013
3.178028 9.243884 -157.923802
3.074368 9.264799 -157.925168
2.970708 9.285714 -157.926534
2.797826 8.801869 -157.940016
2.680321 8.721833 -157.943805
2.576661 8.742748 -157.945171
2.473001 8.763663 -157.946537
2.369341 8.784578 -157.947903
2.265681 8.805493 -157.949269
2.148176 8.725456 -157.953058
2.044516 8.746371 -157.954424
1.927011 8.666335 -157.958213
1.809507 8.586298 -157.962002
1.622781 8.001502 -157.977907
1.519121 8.022417 -157.979273
1.415461 8.043332 -157.980639
1.311800 8.064247 -157.982005
1.194296 7.984210 -157.985794
1.090636 8.005125 -157.987160
0.986976 8.026040 -157.988526
0.869471 7.946004 -157.992316
0.751967 7.865967 -157.996105
0.648306 7.886882 -157.997471
0.530802 7.806845 -158.001260
0.413297 7.726808 -158.005049
0.295793 7.646772 -158.008838
0.122911 7.162927 -158.022320
0.019251 7.183842 -158.023686
-0.098253 7.103806 -158.027475
-0.215758 7.023769 -158.031264
-0.319418 7.044684 -158.032630
-0.436923 6.964647 -158.036419
6.894353 8.787293 -157.907526
6.717150 8.942274 -157.904046
6.539948 9.097255 -157.900566
6.401231 9.157887 -157.899509
6.301001 9.124170 -157.900875
6.162285 9.184802 -157.899818
6.062055 9.151085 -157.901184
5.923339 9.211718 -157.900127
5.823109 9.178001 -157.901493
5.684393 9.238633 -157.900435
5.545676 9.299265 -157.899378
5.291501 9.642944 -157.891052
5.152785 9.703576 -157.889995
5.052555 9.669859 -157.891361
4.913838 9.730491 -157.890304
4.813609 9.696774 -157.891670
4.713379 9.663057 -157.893036
4.613149 9.629340 -157.894402
4.474432 9.689973 -157.893345
4.374202 9.656256 -157.894711
4.273973 9.622539 -157.896077
4.173743 9.588822 -157.897443
4.073513 9.555105 -157.898809
3.973283 9.521388 -157.900175
3.873053 9.487671 -157.901541
3.772823 9.453954 -157.902907
3.634107 9.514586 -157.901850
3.533877 9.480869 -157.903216
3.433647 9.447152 -157.904582
3.333417 9.413435 -157.905948
3.233187 9.379718 -157.907314
3.132957 9.346001 -157.908680
3.032727 9.312284 -157.910046
2.932497 9.278567 -157.911412
2.832267 9.244850 -157.912778
2.732037 9.211133 -157.914144
2.631807 9.177416 -157.915510
2.531577 9.143699 -157.916876
2.431348 9.109982 -157.918242
2.331118 9.076265 -157.919608
2.230888 9.042548 -157.920974
2.130658 9.008831 -157.922340
2.030428 8.975114 -157.923706
1.930198 8.941397 -157.925072
1.829968 8.907680 -157.926438
1.729738 8.873963 -157.927804
1.629508 8.840246 -157.929170
1.529278 8.806529 -157.930536
1.429048 8.772812 -157.931902
1.328818 8.739095 -157.933268
1.228588 8.705378 -157.934634
1.128359 8.671661 -157.936000
1.028129 8.637944 -157.937366
0.927899 8.604227 -157.938732
0.827669 8.570510 -157.940098
0.727439 8.536793 -157.941464
0.627209 8.503076 -157.942830
0.526979 8.469359 -157.944196
0.426749 8.435642 -157.945562
0.326519 8.401925 -157.946928
0.226289 8.368208 -157.948294
0.126059 8.334491 -157.949660
0.025829 8.300774 -157.951026
-0.035914 8.172708 -157.954815
-0.136144 8.138991 -157.956181
-0.236374 8.105274 -157.957547
-0.336604 8.071557 -157.958913
-0.436834 8.037840 -157.960279
-0.537064 8.004123 -157.961645
-0.637294 7.970406 -157.963011
-0.699037 7.842339 -157.966801
-0.799267 7.808622 -157.968167
-0.899497 7.774905 -157.969533
-0.999727 7.741188 -157.970899
-1.061471 7.613122 -157.974688
-1.161700 7.579405 -157.976054
-1.261930 7.545688 -157.977420
-1.362160 7.511971 -157.978786
-1.423904 7.383905 -157.982575
-1.524134 7.350188 -157.983941
-1.585877 7.222122 -157.987730
-1.647621 7.094056 -157.991519
-1.709364 6.965990 -157.995308
-0.339121 8.269258 -157.960931
-0.489569 8.252409 -157.959874
-0.640017 8.235560 -157.958817
-0.709960 8.156245 -157.960183
-0.860408 8.139396 -157.959126
-1.010855 8.122547 -157.958069
-1.080799 8.043232 -157.959435
-1.231246 8.026383 -157.958378
-1.301190 7.947068 -157.959744
-1.371133 7.867754 -157.961110
-1.441076 7.788439 -157.962476
-1.511019 7.709124 -157.963842
-1.580962 7.629810 -157.965208
-1.731410 7.612961 -157.964151
-1.801353 7.533646 -157.965517
-1.871296 7.454331 -157.966883
-1.941240 7.375017 -157.968249
-2.011183 7.295702 -157.969615
-2.081126 7.216387 -157.970981
-2.151069 7.137072 -157.972347
-2.221012 7.057758 -157.973713
-2.290955 6.978443 -157.975079
-2.360898 6.899128 -157.976445
-2.430842 6.819814 -157.977811
-2.500785 6.740499 -157.979177
-2.570728 6.661184 -157.980543
-2.640671 6.581870 -157.981909
-2.710614 6.502555 -157.983275
-2.780557 6.423240 -157.984641
-2.931005 6.406391 -157.983584
-3.000948 6.327076 -157.984950
-3.070892 6.247762 -157.986316
-3.140835 6.168447 -157.987682
-3.210778 6.089132 -157.989048
-3.280721 6.009818 -157.990414
-3.270160 5.868037 -157.994203
-3.340103 5.788723 -157.995569
-3.410046 5.709408 -157.996935
-3.479989 5.630093 -157.998301
-3.549932 5.550779 -157.999667
-3.619875 5.471464 -158.001033
-3.689818 5.392149 -158.002399
-3.759762 5.312835 -158.003765
-3.829705 5.233520 -158.005131
-3.899648 5.154205 -158.006497
-3.969591 5.074891 -158.007863
-4.039534 4.995576 -158.009229
-4.109477 4.916261 -158.010595
-4.179421 4.836947 -158.011961
-4.168859 4.695166 -158.015751
-4.238802 4.615852 -158.017117
-4.308745 4.536537 -158.018483
-4.378689 4.457222 -158.019849
-4.368127 4.315442 -158.023638
-4.438070 4.236127 -158.025004
-4.427509 4.094347 -158.028793
-4.359158 5.277886 -157.992480
-4.380073 5.174226 -157.993846
-4.400988 5.070566 -157.995212
-4.522855 4.980750 -157.994155
-4.543770 4.877090 -157.995521
-4.564685 4.773429 -157.996887
-4.585601 4.669769 -157.998253
-4.606516 4.566109 -157.999619
-4.627431 4.462449 -158.000985
-4.648346 4.358789 -158.002351
-4.669261 4.255129 -158.003717
-4.791128 4.165313 -158.002660
-4.812043 4.061653 -158.004026
-4.832958 3.957993 -158.005392
-4.853874 3.854332 -158.006758
-4.874789 3.750672 -158.008124
-4.895704 3.647012 -158.009490
-4.916619 3.543352 -158.010856
-4.937534 3.439692 -158.012222
-4.958449 3.336032 -158.013588
-4.979364 3.232371 -158.014954
-5.000279 3.128711 -158.016320
-5.021195 3.025051 -158.017686
-4.941158 2.907547 -158.021475
-4.962073 2.803886 -158.022841
-4.982988 2.700226 -158.024207
-5.003903 2.596566 -158.025573
-5.024818 2.492906 -158.026939
-4.944782 2.375401 -158.030729
-4.965697 2.271741 -158.032095
-4.986612 2.168081 -158.033461
-5.007527 2.064421 -158.034827
-5.028442 1.960761 -158.036193
-5.049357 1.857101 -158.037559
-5.070272 1.753441 -158.038925
-5.091187 1.649780 -158.040291
-5.112103 1.546120 -158.041657
-5.133018 1.442460 -158.043023
-5.153933 1.338800 -158.044389
-5.174848 1.235140 -158.045755
-5.195763 1.131480 -158.047121
-5.115726 1.013975 -158.050910
-5.136641 0.910315 -158.052276
-5.157557 0.806655 -158.053642
-5.178472 0.702995 -158.055008
-5.199387 0.599334 -158.056374
-5.220302 0.495674 -158.057740
-5.241217 0.392014 -158.059106
-5.262132 0.288354 -158.060472
-5.283047 0.184694 -158.061838
-5.303963 0.081034 -158.063204
-5.324878 -0.022627 -158.064570
-5.345793 -0.126287 -158.065936
-5.366708 -0.229947 -158.067302
-5.387623 -0.333607 -158.068668
-5.408538 -0.437267 -158.070034
-5.429453 -0.540927 -158.071400
-5.450368 -0.644587 -158.072766
-5.370332 -0.762092 -158.076555
-5.391247 -0.865752 -158.077921
-5.412162 -0.969412 -158.079287
-5.433077 -1.073072 -158.080653
-5.453992 -1.176733 -158.082019
-5.474907 -1.280393 -158.083385
-5.495822 -1.384053 -158.084751
-5.516738 -1.487713 -158.086117
-5.537653 -1.591373 -158.087483
-5.558568 -1.695033 -158.088849
-5.478531 -1.812538 -158.092639
-5.499446 -1.916198 -158.094005
-5.520361 -2.019858 -158.095371
-5.440325 -2.137363 -158.099160
-5.461240 -2.241023 -158.100526
-6.042904 -0.306972 -158.014515
-6.103537 -0.445689 -158.013458
-6.069820 -0.545918 -158.014824
-6.130452 -0.684635 -158.013767
-6.096735 -0.784865 -158.015133
-6.157367 -0.923581 -158.014076
-6.123650 -1.023811 -158.015442
-6.089933 -1.124041 -158.016808
-6.056216 -1.224271 -158.018174
-6.022499 -1.324501 -158.019540
-5.988782 -1.424731 -158.020906
-5.955065 -1.524961 -158.022272
-5.921348 -1.625190 -158.023638
-5.887631 -1.725420 -158.025004
-5.853914 -1.825650 -158.026370
-5.820197 -1.925880 -158.027736
-5.786480 -2.026110 -158.029102
-5.847112 -2.164826 -158.028045
-5.813395 -2.265056 -158.029411
-5.779678 -2.365286 -158.030777
-5.745961 -2.465516 -158.032143
-5.712244 -2.565746 -158.033509
-5.678527 -2.665976 -158.034875
-5.644810 -2.766206 -158.036241
-5.611093 -2.866436 -158.037607
-5.577376 -2.966666 -158.038973
-5.543659 -3.066896 -158.040339
-5.509942 -3.167126 -158.041705
-5.476225 -3.267356 -158.043071
-5.348159 -3.329099 -158.046860
-5.314442 -3.429329 -158.048226
-5.280725 -3.529559 -158.049592
-5.247008 -3.629789 -158.050958
-5.213291 -3.730019 -158.052324
-5.179574 -3.830249 -158.053690
-5.145857 -3.930479 -158.055056
-5.112140 -4.030709 -158.056422
-5.078423 -4.130939 -158.057788
-5.044706 -4.231168 -158.059154
-5.010989 -4.331398 -158.060520
-4.977272 -4.431628 -158.061886
-4.943555 -4.531858 -158.063252
-4.909838 -4.632088 -158.064618
-4.781772 -4.693832 -158.068407
-4.748055 -4.794062 -158.069773
-4.714338 -4.894292 -158.071139
-4.680621 -4.994521 -158.072505
-4.646904 -5.094751 -158.073871
-4.613187 -5.194981 -158.075237
-4.485121 -5.256725 -158.079027
-4.451404 -5.356955 -158.080393
-4.417687 -5.457185 -158.081759
-4.383970 -5.557415 -158.083125
-4.255903 -5.619158 -158.086914
-4.222186 -5.719388 -158.088280
-4.188469 -5.819618 -158.089646
-4.060403 -5.881362 -158.093435
-4.026686 -5.981591 -158.094801
-3.992969 -6.081821 -158.096167
-3.864903 -6.143565 -158.099956
-3.831186 -6.243795 -158.101322
-3.797469 -6.344025 -158.102688
-3.669403 -6.405768 -158.106477
-3.635686 -6.505998 -158.107843
-3.507620 -6.567742 -158.111632
-3.473903 -6.667972 -158.112998
-3.440186 -6.768202 -158.114364
-3.312120 -6.829945 -158.118154
-3.184054 -6.891689 -158.121943
-3.150337 -6.991919 -158.123309
-3.022271 -7.053662 -158.127098
-2.988554 -7.153892 -158.128464
-2.954837 -7.254122 -158.129830
-2.826771 -7.315866 -158.133619
-4.113252 -6.173501 -158.010952
-4.096403 -6.323949 -158.009895
-4.079554 -6.474397 -158.008838
-4.000239 -6.544340 -158.010204
-3.983390 -6.694788 -158.009147
-3.904076 -6.764731 -158.010513
-3.824761 -6.834674 -158.011879
-3.745446 -6.904617 -158.013245
-3.728597 -7.055065 -158.012188
-3.649282 -7.125008 -158.013554
-3.569968 -7.194951 -158.014920
-3.490653 -7.264895 -158.016286
-3.473804 -7.415342 -158.015229
-3.394489 -7.485286 -158.016595
-3.315174 -7.555229 -158.017961
-3.235860 -7.625172 -158.019327
-3.156545 -7.695115 -158.020693
-3.077230 -7.765058 -158.022059
-3.060381 -7.915506 -158.021002
-2.981067 -7.985449 -158.022368
-2.901752 -8.055392 -158.023734
-2.884903 -8.205840 -158.022677
-2.805588 -8.275783 -158.024043
-2.726273 -8.345726 -158.025409
-2.646959 -8.415670 -158.026775
-2.567644 -8.485613 -158.028141
-2.488329 -8.555556 -158.029507
-2.409015 -8.625499 -158.030873
-2.329700 -8.695442 -158.032239
-2.250385 -8.765385 -158.033605
-2.233536 -8.915833 -158.032548
-2.154221 -8.985776 -158.033914
-2.074907 -9.055720 -158.035280
-1.995592 -9.125663 -158.036646
-1.916277 -9.195606 -158.038012
-1.836963 -9.265549 -158.039378
-1.757648 -9.335492 -158.040744
-1.678333 -9.405435 -158.042110
-1.599019 -9.475379 -158.043476
-1.519704 -9.545322 -158.044842
-1.440389 -9.615265 -158.046208
-1.361075 -9.685208 -158.047574
-1.281760 -9.755151 -158.048940
-1.202445 -9.825094 -158.050306
-1.123130 -9.895037 -158.051672
-1.043816 -9.964981 -158.053038
-0.964501 -10.034924 -158.054404
-0.822721 -10.024362 -158.058193
-0.743406 -10.094305 -158.059559
-0.664092 -10.164249 -158.060925
-0.584777 -10.234192 -158.062291
-0.505462 -10.304135 -158.063657
-0.426147 -10.374078 -158.065023
-0.346833 -10.444021 -158.066389
-0.267518 -10.513964 -158.067755
-0.188203 -10.583908 -158.069121
-0.046423 -10.573346 -158.072911
0.032892 -10.643289 -158.074277
0.112206 -10.713232 -158.075643
0.253986 -10.702671 -158.079432
-4.213940 -5.922514 -157.977372
-4.124124 -6.044381 -157.976315
-4.020464 -6.065296 -157.977681
-3.930648 -6.187164 -157.976623
-3.882366 -6.611886 -157.968297
-3.792550 -6.733753 -157.967240
-3.688890 -6.754668 -157.968606
-3.599074 -6.876536 -157.967549
-3.495414 -6.897451 -157.968915
-3.419442 -7.120270 -157.965435
-3.329626 -7.242137 -157.964377
-3.239810 -7.364004 -157.963320
-3.149995 -7.485871 -157.962263
-3.060179 -7.607738 -157.961206
-2.984207 -7.830557 -157.957726
-2.908236 -8.053376 -157.954246
-2.818420 -8.175243 -157.953189
-2.714760 -8.196158 -157.954555
-2.624944 -8.318025 -157.953497
-2.521284 -8.338940 -157.954863
-2.431468 -8.460807 -157.953806
-2.341652 -8.582674 -157.952749
-2.251836 -8.704541 -157.951692
-2.162020 -8.826408 -157.950635
-2.072205 -8.948275 -157.949578
-1.968544 -8.969190 -157.950944
-1.864884 -8.990106 -157.952310
-1.775068 -9.111973 -157.951253
-1.685253 -9.233840 -157.950196
-1.595437 -9.355707 -157.949139
-1.519465 -9.578526 -157.945658
-1.429649 -9.700393 -157.944601
-1.325989 -9.721308 -157.945967
-1.236173 -9.843175 -157.944910
-1.132513 -9.864090 -157.946276
-1.056542 -10.086909 -157.942796
-0.980570 -10.309728 -157.939316
-0.890754 -10.431595 -157.938259
-0.800939 -10.553462 -157.937202
-0.697278 -10.574377 -157.938568
-0.593618 -10.595292 -157.939934
-0.489958 -10.616207 -157.941300
-0.386298 -10.637123 -157.942666
-0.296482 -10.758990 -157.941609
-0.192822 -10.779905 -157.942975
-0.089162 -10.800820 -157.944341
0.014498 -10.821735 -157.945707
0.104314 -10.943602 -157.944649
0.207974 -10.964517 -157.946015
0.297790 -11.086384 -157.944958
0.401450 -11.107299 -157.946324
0.505110 -11.128214 -157.947690
0.608771 -11.149130 -157.949056
0.712431 -11.170045 -157.950422
0.816091 -11.190960 -157.951788
0.919751 -11.211875 -157.953154
1.023411 -11.232790 -157.954520
1.127071 -11.253705 -157.955886
1.230732 -11.274620 -157.957253
1.334392 -11.295535 -157.958619
1.438052 -11.316451 -157.959985
1.541712 -11.337366 -157.961351
1.645372 -11.358281 -157.962717
1.749032 -11.379196 -157.964083
1.838848 -11.501063 -157.963025
1.942508 -11.521978 -157.964392
2.046168 -11.542893 -157.965758
2.149829 -11.563808 -157.967124
2.253489 -11.584724 -157.968490
2.357149 -11.605639 -157.969856
2.460809 -11.626554 -157.971222
2.578314 -11.546517 -157.975011
2.681974 -11.567432 -157.976377
2.785634 -11.588347 -157.977743
2.889294 -11.609262 -157.979109
2.992954 -11.630178 -157.980475
3.096614 -11.651093 -157.981841
3.200275 -11.672008 -157.983207
3.303935 -11.692923 -157.984573
3.407595 -11.713838 -157.985939
3.511255 -11.734753 -157.987305
3.614915 -11.755668 -157.988671
3.718575 -11.776583 -157.990037
3.822236 -11.797499 -157.991403
3.925896 -11.818414 -157.992769
4.029556 -11.839329 -157.994135
4.147060 -11.759292 -157.997924
4.250720 -11.780207 -157.999290
4.354381 -11.801122 -158.000656
4.471885 -11.721086 -158.004445
4.575545 -11.742001 -158.005811
4.693050 -11.661964 -158.009600
4.796710 -11.682879 -158.010966
4.900370 -11.703794 -158.012332
5.017875 -11.623757 -158.016122
5.121535 -11.644673 -158.017488
5.225195 -11.665588 -158.018854
5.411921 -11.080791 -158.034758
5.529426 -11.000755 -158.038548
5.646930 -10.920718 -158.042337
5.750590 -10.941633 -158.043703
5.868095 -10.861596 -158.047492
5.985599 -10.781559 -158.051281
6.103104 -10.701523 -158.055070
6.220608 -10.621486 -158.058859
6.324268 -10.642401 -158.060225
6.441773 -10.562364 -158.064014
6.573122 -10.381375 -158.070227
6.690626 -10.301339 -158.074016
6.808131 -10.221302 -158.077805
6.911791 -10.242217 -158.079171
7.029295 -10.162180 -158.082960
7.132955 -10.183095 -158.084326
7.250460 -10.103059 -158.088115
7.354120 -10.123974 -158.089481
7.471624 -10.043937 -158.093270
7.589129 -9.963900 -158.097060
-0.258401 -10.524926 -157.888904
-0.119685 -10.585558 -157.887846
-0.019455 -10.551841 -157.889212
0.119261 -10.612473 -157.888155
0.257978 -10.673105 -157.887098
0.435180 -10.828086 -157.883618
0.650869 -11.077417 -157.877715
0.789586 -11.138049 -157.876658
0.889816 -11.104332 -157.878024
1.028532 -11.164964 -157.876966
1.167248 -11.225596 -157.875909
1.305965 -11.286228 -157.874852
1.406194 -11.252511 -157.876218
1.544911 -11.313143 -157.875161
1.683627 -11.373776 -157.874104
1.822343 -11.434408 -157.873047
1.961060 -11.495040 -157.871990
2.099776 -11.555672 -157.870933
2.200006 -11.521955 -157.872299
2.338722 -11.582587 -157.871242
2.438952 -11.548870 -157.872608
2.539182 -11.515153 -157.873974
2.870330 -12.047531 -157.860801
2.970560 -12.013814 -157.862167
3.070790 -11.980097 -157.863533
3.171020 -11.946380 -157.864899
3.271250 -11.912663 -157.866265
3.409966 -11.973295 -157.865208
3.510196 -11.939578 -157.866574
3.610426 -11.905861 -157.867940
3.710656 -11.872144 -157.869306
3.810886 -11.838427 -157.870672
3.949602 -11.899059 -157.869615
4.049832 -11.865342 -157.870981
4.150062 -11.831625 -157.872347
4.250292 -11.797908 -157.873713
4.350522 -11.764191 -157.875079
4.450752 -11.730474 -157.876445
4.550982 -11.696757 -157.877811
4.651212 -11.663040 -157.879177
4.751442 -11.629323 -157.880543
4.851671 -11.595606 -157.881909
4.951901 -11.561889 -157.883275
5.052131 -11.528172 -157.884641
5.152361 -11.494455 -157.886007
5.252591 -11.460738 -157.887373
5.391307 -11.521370 -157.886316
5.491537 -11.487653 -157.887682
5.591767 -11.453936 -157.889048
5.691997 -11.420219 -157.890414
5.792227 -11.386502 -157.891780
5.892457 -11.352785 -157.893146
5.992687 -11.319068 -157.894512
6.092917 -11.285351 -157.895878
6.193147 -11.251634 -157.897244
6.254890 -11.123568 -157.901033
6.355120 -11.089851 -157.902399
6.455350 -11.056134 -157.903765
6.555580 -11.022417 -157.905131
6.655810 -10.988700 -157.906497
6.756040 -10.954983 -157.907863
6.856270 -10.921266 -157.909229
6.956500 -10.887549 -157.910595
7.056730 -10.853832 -157.911961
7.156960 -10.820115 -157.913327
7.257190 -10.786398 -157.914693
7.357420 -10.752681 -157.916059
7.457649 -10.718964 -157.917425
7.557879 -10.685247 -157.918791
7.658109 -10.651530 -157.920157
7.719853 -10.523464 -157.923947
7.820083 -10.489747 -157.925313
7.920313 -10.456030 -157.926679
8.020543 -10.422313 -157.928045
8.120773 -10.388596 -157.929411
8.182516 -10.260530 -157.933200
8.282746 -10.226813 -157.934566
8.382976 -10.193096 -157.935932
8.483206 -10.159379 -157.937298
8.583436 -10.125662 -157.938664
8.683666 -10.091945 -157.940030
8.783896 -10.058228 -157.941396
8.884126 -10.024511 -157.942762
8.984355 -9.990794 -157.944128
9.046099 -9.862728 -157.947917
9.146329 -9.829011 -157.949283
9.246559 -9.795294 -157.950649
9.308302 -9.667227 -157.954438
9.408532 -9.633510 -157.955804
9.508762 -9.599793 -157.957170
9.570506 -9.471727 -157.960959
9.632249 -9.343661 -157.964749
9.693993 -9.215595 -157.968538
9.794223 -9.181878 -157.969904
9.855966 -9.053812 -157.973693
9.956196 -9.020095 -157.975059
10.056426 -8.986378 -157.976425
10.118170 -8.858312 -157.980214
10.179913 -8.730246 -157.984003
10.241657 -8.602180 -157.987792
10.303400 -8.474114 -157.991581
10.403630 -8.440397 -157.992947
10.465374 -8.312330 -157.996737
10.527117 -8.184264 -158.000526
10.511888 -7.867500 -158.009161
10.573632 -7.739434 -158.012950
10.673862 -7.705717 -158.014316
10.774092 -7.672000 -158.015682
10.835835 -7.543934 -158.019471
10.897579 -7.415868 -158.023261
10.959322 -7.287802 -158.027050
11.021066 -7.159735 -158.030839
11.082809 -7.031669 -158.034628
11.144553 -6.903603 -158.038417
11.206296 -6.775537 -158.042206
11.229554 -6.553122 -158.048419
11.252811 -6.330707 -158.054631
11.276068 -6.108291 -158.060843
