ply
format ascii 1.0
element vertex 1233
property float x
property float y
property float z
element face 0
property list uchar uint vertex_indices
end_header
3.342905 -11.935820 -156.835807
3.573857 -11.981436 -156.832327
3.804810 -12.027053 -156.828847
3.955258 -12.010204 -156.827790
4.105706 -11.993355 -156.826733
4.256153 -11.976505 -156.825676
4.487106 -12.022122 -156.822195
4.637554 -12.005273 -156.821138
4.788002 -11.988423 -156.820081
4.938449 -11.971574 -156.819024
5.088897 -11.954725 -156.817967
5.239345 -11.937876 -156.816910
5.309288 -11.858561 -156.818276
5.459736 -11.841712 -156.817219
5.529679 -11.762398 -156.818585
5.680127 -11.745548 -156.817528
5.830575 -11.728699 -156.816471
5.981023 -11.711850 -156.815414
6.131471 -11.695001 -156.814356
6.281918 -11.678152 -156.813299
6.351862 -11.598837 -156.814665
6.502309 -11.581988 -156.813608
6.572253 -11.502673 -156.814974
6.642196 -11.423359 -156.816340
6.792644 -11.406509 -156.815283
6.862587 -11.327195 -156.816649
7.013035 -11.310346 -156.815592
7.163482 -11.293496 -156.814535
7.313930 -11.276647 -156.813478
7.464378 -11.259798 -156.812421
7.534321 -11.180484 -156.813787
7.684769 -11.163634 -156.812730
7.835217 -11.146785 -156.811673
7.985665 -11.129936 -156.810615
8.055608 -11.050621 -156.811981
8.125551 -10.971307 -156.813347
8.195494 -10.891992 -156.814713
8.345942 -10.875143 -156.813656
8.415885 -10.795828 -156.815022
8.566333 -10.778979 -156.813965
8.636276 -10.699664 -156.815331
8.786724 -10.682815 -156.814274
8.856667 -10.603501 -156.815640
8.926610 -10.524186 -156.817006
8.996554 -10.444871 -156.818372
9.147001 -10.428022 -156.817315
9.216945 -10.348707 -156.818681
9.286888 -10.269393 -156.820047
9.356831 -10.190078 -156.821413
9.426774 -10.110763 -156.822779
9.496717 -10.031449 -156.824145
9.647165 -10.014599 -156.823088
9.717108 -9.935285 -156.824454
9.787051 -9.855970 -156.825820
9.856995 -9.776655 -156.827186
9.926938 -9.697341 -156.828552
9.996881 -9.618026 -156.829918
10.066824 -9.538711 -156.831284
10.136767 -9.459397 -156.832650
10.206710 -9.380082 -156.834016
10.276653 -9.300767 -156.835382
10.346597 -9.221453 -156.836748
10.416540 -9.142138 -156.838114
10.486483 -9.062823 -156.839480
10.556426 -8.983509 -156.840846
10.626369 -8.904194 -156.842212
10.696312 -8.824879 -156.843578
10.846760 -8.808030 -156.842521
10.916703 -8.728715 -156.843887
10.986647 -8.649401 -156.845253
11.056590 -8.570086 -156.846619
11.126533 -8.490771 -156.847985
11.196476 -8.411457 -156.849351
11.266419 -8.332142 -156.850717
11.255858 -8.190362 -156.854506
11.325801 -8.111047 -156.855872
11.395744 -8.031732 -156.857238
11.465687 -7.952418 -156.858604
11.535630 -7.873103 -156.859971
11.605573 -7.793788 -156.861337
11.595012 -7.652008 -156.865126
11.664955 -7.572693 -156.866492
11.734898 -7.493379 -156.867858
11.724337 -7.351598 -156.871647
11.713775 -7.209818 -156.875436
11.783718 -7.130503 -156.876802
11.773157 -6.988723 -156.880591
11.843100 -6.909409 -156.881957
11.832538 -6.767628 -156.885746
11.902482 -6.688314 -156.887112
11.891920 -6.546533 -156.890901
11.881359 -6.404753 -156.894691
11.951302 -6.325439 -156.896057
11.940740 -6.183658 -156.899846
12.010683 -6.104344 -156.901212
12.000122 -5.962563 -156.905001
11.989560 -5.820783 -156.908790
11.978999 -5.679003 -156.912579
12.048942 -5.599688 -156.913945
12.038380 -5.457908 -156.917734
12.027819 -5.316128 -156.921523
12.017257 -5.174348 -156.925313
12.006696 -5.032567 -156.929102
11.996134 -4.890787 -156.932891
11.985573 -4.749007 -156.936680
11.894507 -4.544761 -156.942892
11.883945 -4.402981 -156.946681
11.792879 -4.198735 -156.952894
11.782317 -4.056955 -156.956683
11.771756 -3.915175 -156.960472
11.680690 -3.710929 -156.966684
11.509119 -3.444218 -156.975320
11.498557 -3.302437 -156.979109
11.568500 -3.223123 -156.980475
11.557939 -3.081342 -156.984264
11.547377 -2.939562 -156.988053
11.536816 -2.797782 -156.991842
11.445749 -2.593536 -156.998054
11.435188 -2.451756 -157.001844
11.183112 -2.122579 -157.012902
11.172551 -1.980799 -157.016691
7.208696 -11.208143 -156.826945
7.734370 -11.173704 -156.816196
7.957189 -11.097733 -156.812716
8.079056 -11.007917 -156.811658
8.200923 -10.918101 -156.810601
8.322790 -10.828285 -156.809544
8.343706 -10.724625 -156.810910
8.465573 -10.634809 -156.809853
8.486488 -10.531149 -156.811219
8.507403 -10.427489 -156.812585
8.629270 -10.337673 -156.811528
9.356848 -10.330923 -156.795932
9.579667 -10.254952 -156.792452
9.701534 -10.165136 -156.791395
9.722450 -10.061476 -156.792761
9.844317 -9.971660 -156.791704
9.966184 -9.881844 -156.790647
10.088051 -9.792028 -156.789590
10.108966 -9.688368 -156.790956
10.230833 -9.598552 -156.789899
10.352700 -9.508737 -156.788841
10.474567 -9.418921 -156.787784
10.495482 -9.315261 -156.789150
10.617349 -9.225445 -156.788093
10.638264 -9.121785 -156.789459
10.760131 -9.031969 -156.788402
10.781046 -8.928309 -156.789768
10.902913 -8.838493 -156.788711
10.923829 -8.734833 -156.790077
11.045696 -8.645017 -156.789020
11.066611 -8.541357 -156.790386
11.188478 -8.451541 -156.789329
11.209393 -8.347881 -156.790695
11.331260 -8.258065 -156.789638
11.352175 -8.154405 -156.791004
11.373090 -8.050745 -156.792370
11.494957 -7.960929 -156.791313
11.515872 -7.857269 -156.792679
11.536788 -7.753608 -156.794045
11.658655 -7.663793 -156.792988
11.679570 -7.560132 -156.794354
11.700485 -7.456472 -156.795720
11.822352 -7.366656 -156.794663
11.843267 -7.262996 -156.796029
11.864182 -7.159336 -156.797395
11.986049 -7.069520 -156.796337
12.006964 -6.965860 -156.797703
12.027880 -6.862200 -156.799069
12.048795 -6.758540 -156.800435
12.170662 -6.668724 -156.799378
12.191577 -6.565064 -156.800744
12.212492 -6.461404 -156.802110
12.233407 -6.357743 -156.803476
12.254322 -6.254083 -156.804842
12.275237 -6.150423 -156.806208
12.296152 -6.046763 -156.807574
12.317068 -5.943103 -156.808940
12.237031 -5.825598 -156.812730
12.257946 -5.721938 -156.814096
12.278861 -5.618278 -156.815462
12.299776 -5.514618 -156.816828
12.320691 -5.410958 -156.818194
12.341606 -5.307298 -156.819560
12.362522 -5.203637 -156.820926
12.282485 -5.086133 -156.824715
12.303400 -4.982473 -156.826081
12.324315 -4.878813 -156.827447
12.244278 -4.761308 -156.831236
12.265193 -4.657648 -156.832602
12.286109 -4.553988 -156.833968
12.206072 -4.436483 -156.837757
12.226987 -4.332823 -156.839123
12.247902 -4.229163 -156.840489
12.167865 -4.111658 -156.844278
12.188780 -4.007998 -156.845644
12.209696 -3.904338 -156.847010
12.129659 -3.786834 -156.850800
12.150574 -3.683174 -156.852166
12.171489 -3.579513 -156.853532
12.091452 -3.462009 -156.857321
12.112367 -3.358349 -156.858687
12.133282 -3.254689 -156.860053
12.053246 -3.137184 -156.863842
12.074161 -3.033524 -156.865208
11.994124 -2.916019 -156.868997
12.015039 -2.812359 -156.870363
12.035954 -2.708699 -156.871729
12.056869 -2.605039 -156.873095
11.976833 -2.487534 -156.876884
11.997748 -2.383874 -156.878250
12.018663 -2.280214 -156.879616
11.938626 -2.162710 -156.883405
11.959541 -2.059049 -156.884771
11.879504 -1.941545 -156.888561
11.799468 -1.824041 -156.892350
11.820383 -1.720380 -156.893716
11.740346 -1.602876 -156.897505
11.660309 -1.485371 -156.901294
11.681224 -1.381711 -156.902660
11.702140 -1.278051 -156.904026
11.622103 -1.160547 -156.907815
11.643018 -1.056886 -156.909181
11.562981 -0.939382 -156.912970
11.583896 -0.835722 -156.914336
11.503859 -0.718217 -156.918125
11.524775 -0.614557 -156.919491
11.545690 -0.510897 -156.920858
11.465653 -0.393392 -156.924647
11.486568 -0.289732 -156.926013
11.507483 -0.186072 -156.927379
11.427446 -0.068568 -156.931168
11.448362 0.035092 -156.932534
11.368325 0.152597 -156.936323
11.389240 0.256257 -156.937689
11.309203 0.373762 -156.941478
11.128214 0.505110 -156.947690
11.149130 0.608771 -156.949056
11.069093 0.726275 -156.952846
11.090008 0.829935 -156.954212
11.110923 0.933595 -156.955578
11.030886 1.051100 -156.959367
10.950849 1.168604 -156.963156
10.870813 1.286109 -156.966945
10.891728 1.389769 -156.968311
10.811691 1.507274 -156.972100
10.731654 1.624778 -156.975889
10.550666 1.756127 -156.982102
10.369677 1.887476 -156.988314
10.289640 2.004980 -156.992103
10.310555 2.108640 -156.993469
10.331470 2.212300 -156.994835
10.352385 2.315961 -156.996201
10.474253 2.405776 -156.995144
10.495168 2.509437 -156.996510
10.415131 2.626941 -157.000299
10.436046 2.730601 -157.001665
10.456961 2.834261 -157.003031
10.376924 2.951766 -157.006820
10.397839 3.055426 -157.008186
10.216851 3.186775 -157.014399
9.934910 3.331968 -157.023034
9.955825 3.435628 -157.024400
9.875789 3.553133 -157.028189
9.896704 3.656793 -157.029555
9.816667 3.774297 -157.033344
9.837582 3.877957 -157.034710
9.858497 3.981618 -157.036076
9.778460 4.099122 -157.039865
9.698424 4.216627 -157.043655
9.618387 4.334131 -157.047444
9.538350 4.451636 -157.051233
9.458313 4.569140 -157.055022
9.378276 4.686645 -157.058811
9.197288 4.817993 -157.065023
9.117251 4.935498 -157.068812
9.037214 5.053002 -157.072602
11.692294 -7.875048 -156.823417
11.658577 -7.774819 -156.824783
11.719210 -7.636102 -156.823726
12.157238 -7.343440 -156.812976
12.312219 -7.166238 -156.809496
12.372851 -7.027522 -156.808439
12.433484 -6.888805 -156.807382
12.588465 -6.711603 -156.803902
12.554748 -6.611373 -156.805268
12.615380 -6.472656 -156.804211
12.581663 -6.372426 -156.805577
12.547946 -6.272196 -156.806943
12.608578 -6.133480 -156.805886
12.574861 -6.033250 -156.807252
12.729842 -5.856048 -156.803771
12.884823 -5.678845 -156.800291
12.851106 -5.578615 -156.801657
12.911739 -5.439899 -156.800600
12.878022 -5.339669 -156.801966
12.844305 -5.239439 -156.803332
12.810588 -5.139209 -156.804698
12.776871 -5.038979 -156.806064
12.743154 -4.938749 -156.807430
12.709437 -4.838519 -156.808796
12.675720 -4.738289 -156.810162
12.736352 -4.599573 -156.809105
12.702635 -4.499343 -156.810471
12.668918 -4.399113 -156.811837
12.635201 -4.298883 -156.813203
12.695833 -4.160167 -156.812146
12.662116 -4.059937 -156.813512
12.628399 -3.959707 -156.814878
12.594682 -3.859477 -156.816244
12.655314 -3.720761 -156.815187
12.621597 -3.620531 -156.816553
12.587880 -3.520301 -156.817919
12.554163 -3.420071 -156.819285
12.520446 -3.319841 -156.820651
12.486729 -3.219611 -156.822017
12.547361 -3.080895 -156.820960
12.513644 -2.980665 -156.822326
12.479927 -2.880435 -156.823692
12.446210 -2.780205 -156.825058
12.506842 -2.641489 -156.824001
12.473125 -2.541259 -156.825367
12.439408 -2.441029 -156.826733
12.405691 -2.340799 -156.828099
12.371974 -2.240569 -156.829465
12.338257 -2.140339 -156.830831
12.304540 -2.040109 -156.832197
12.270823 -1.939879 -156.833563
12.237106 -1.839649 -156.834929
12.297738 -1.700933 -156.833872
12.264021 -1.600703 -156.835238
12.230304 -1.500473 -156.836604
12.196587 -1.400243 -156.837970
12.162870 -1.300013 -156.839336
12.223502 -1.161297 -156.838279
12.189785 -1.061067 -156.839645
12.156068 -0.960837 -156.841011
12.122351 -0.860607 -156.842377
12.088634 -0.760377 -156.843743
12.054917 -0.660148 -156.845109
12.021200 -0.559918 -156.846475
11.987483 -0.459688 -156.847841
11.953766 -0.359458 -156.849207
11.920049 -0.259228 -156.850573
11.886332 -0.158998 -156.851939
11.852615 -0.058768 -156.853305
11.818898 0.041462 -156.854671
11.785181 0.141692 -156.856037
11.751464 0.241922 -156.857403
11.717747 0.342152 -156.858769
11.684030 0.442382 -156.860135
11.744662 0.581098 -156.859078
11.710945 0.681328 -156.860444
11.677228 0.781558 -156.861810
11.643511 0.881788 -156.863176
11.704144 1.020504 -156.862119
11.670427 1.120734 -156.863485
11.636710 1.220964 -156.864851
11.602993 1.321194 -156.866217
11.569276 1.421424 -156.867583
11.535559 1.521654 -156.868949
11.501842 1.621884 -156.870315
11.468125 1.722113 -156.871681
11.434408 1.822343 -156.873047
11.400691 1.922573 -156.874413
11.366974 2.022803 -156.875779
11.333257 2.123033 -156.877145
11.299540 2.223263 -156.878511
11.265823 2.323493 -156.879877
11.232106 2.423723 -156.881243
11.198389 2.523953 -156.882609
11.164672 2.624183 -156.883975
11.130955 2.724413 -156.885341
11.097238 2.824643 -156.886707
11.063521 2.924873 -156.888073
11.124153 3.063589 -156.887016
11.090436 3.163819 -156.888382
11.056719 3.264049 -156.889748
10.928653 3.325792 -156.893537
10.894936 3.426022 -156.894903
10.861219 3.526252 -156.896269
10.827502 3.626482 -156.897635
10.793785 3.726712 -156.899001
10.665719 3.788455 -156.902790
10.632002 3.888685 -156.904156
10.598285 3.988915 -156.905522
10.564568 4.089145 -156.906888
10.436501 4.150889 -156.910678
10.402784 4.251119 -156.912044
10.369067 4.351349 -156.913410
10.335350 4.451579 -156.914776
10.301633 4.551808 -156.916142
10.267916 4.652038 -156.917508
10.234199 4.752268 -156.918874
10.200482 4.852498 -156.920240
10.166765 4.952728 -156.921606
10.133048 5.052958 -156.922972
10.099331 5.153188 -156.924338
9.971265 5.214932 -156.928127
9.937548 5.315161 -156.929493
9.903831 5.415391 -156.930859
9.775765 5.477135 -156.934648
9.742048 5.577365 -156.936014
9.708331 5.677595 -156.937380
9.580265 5.739338 -156.941169
9.546548 5.839568 -156.942535
9.418482 5.901312 -156.946324
9.384765 6.001542 -156.947690
9.256699 6.063285 -156.951480
9.222982 6.163515 -156.952846
9.189265 6.263745 -156.954212
9.061199 6.325489 -156.958001
8.933133 6.387232 -156.961790
8.710717 6.410489 -156.968002
12.097333 0.624290 -156.858625
12.018018 0.694234 -156.859991
12.001169 0.844682 -156.858933
11.921854 0.914625 -156.860299
11.905005 1.065073 -156.859242
11.825690 1.135016 -156.860608
11.808841 1.285464 -156.859551
11.729526 1.355407 -156.860917
11.650212 1.425350 -156.862283
11.633362 1.575798 -156.861226
11.554047 1.645741 -156.862592
11.537198 1.796189 -156.861535
11.520349 1.946637 -156.860478
11.503500 2.097085 -156.859421
11.486650 2.247533 -156.858364
11.469801 2.397981 -156.857307
11.390486 2.467924 -156.858673
11.373637 2.618372 -156.857616
11.294322 2.688315 -156.858982
11.215008 2.758258 -156.860348
11.198158 2.908706 -156.859291
11.118844 2.978649 -156.860657
11.101994 3.129097 -156.859599
11.022679 3.199040 -156.860965
11.005830 3.349488 -156.859908
10.926515 3.419432 -156.861274
10.909666 3.569880 -156.860217
10.892817 3.720327 -156.859160
10.875968 3.870775 -156.858103
10.796653 3.940719 -156.859469
10.779804 4.091167 -156.858412
10.762954 4.241614 -156.857355
10.683640 4.311558 -156.858721
10.666790 4.462006 -156.857664
10.649941 4.612454 -156.856607
10.570626 4.682397 -156.857973
10.553777 4.832845 -156.856916
10.474462 4.902788 -156.858282
10.457613 5.053236 -156.857224
10.378298 5.123179 -156.858590
10.298983 5.193122 -156.859956
10.282134 5.343570 -156.858899
10.202819 5.413513 -156.860265
10.185970 5.563961 -156.859208
10.106655 5.633904 -156.860574
10.027341 5.703847 -156.861940
10.010491 5.854295 -156.860883
9.931176 5.924239 -156.862249
9.851862 5.994182 -156.863615
9.772547 6.064125 -156.864981
9.693232 6.134068 -156.866347
9.613917 6.204011 -156.867713
9.534603 6.273954 -156.869079
9.517753 6.424402 -156.868022
9.438438 6.494345 -156.869388
9.359124 6.564289 -156.870754
9.279809 6.634232 -156.872120
9.262960 6.784680 -156.871063
9.183645 6.854623 -156.872429
9.104330 6.924566 -156.873795
9.025015 6.994509 -156.875161
8.945700 7.064452 -156.876527
8.866386 7.134396 -156.877893
8.787071 7.204339 -156.879259
8.707756 7.274282 -156.880625
8.628441 7.344225 -156.881991
8.549127 7.414168 -156.883357
8.469812 7.484111 -156.884723
8.390497 7.554054 -156.886089
8.248717 7.543493 -156.889878
8.169402 7.613436 -156.891244
8.090087 7.683379 -156.892610
8.010772 7.753322 -156.893976
7.931457 7.823265 -156.895343
7.852143 7.893209 -156.896709
7.772828 7.963152 -156.898075
7.693513 8.033095 -156.899441
7.551733 8.022533 -156.903230
7.472418 8.092476 -156.904596
7.393103 8.162420 -156.905962
7.313788 8.232363 -156.907328
7.234474 8.302306 -156.908694
7.155159 8.372249 -156.910060
7.013378 8.361687 -156.913849
6.934064 8.431631 -156.915215
6.854749 8.501574 -156.916581
6.775434 8.571517 -156.917947
6.696119 8.641460 -156.919313
6.554339 8.630899 -156.923102
6.475024 8.700842 -156.924468
6.333244 8.690280 -156.928257
6.191463 8.679718 -156.932046
6.112149 8.749662 -156.933412
5.907903 8.658595 -156.939625
5.766123 8.648034 -156.943414
5.499411 8.476462 -156.952049
5.420096 8.546406 -156.953415
5.278316 8.535844 -156.957204
5.199001 8.605787 -156.958570
5.057221 8.595225 -156.962360
4.977906 8.665169 -156.963726
4.836126 8.654607 -156.967515
4.694345 8.644045 -156.971304
9.217661 6.676601 -156.873342
9.127845 6.798468 -156.872285
9.024185 6.819383 -156.873651
8.934369 6.941250 -156.872594
8.830709 6.962165 -156.873960
8.740893 7.084032 -156.872903
8.637233 7.104947 -156.874269
8.602795 7.630622 -156.863519
8.526823 7.853441 -156.860039
8.437007 7.975308 -156.858982
8.333347 7.996223 -156.860348
8.243531 8.118090 -156.859291
8.139871 8.139005 -156.860657
8.036211 8.159920 -156.862023
7.932551 8.180836 -156.863389
7.842735 8.302703 -156.862331
7.739075 8.323618 -156.863697
7.649259 8.445485 -156.862640
7.545599 8.466400 -156.864006
7.455783 8.588267 -156.862949
7.352123 8.609182 -156.864315
7.248463 8.630097 -156.865681
7.144803 8.651012 -156.867047
7.041142 8.671927 -156.868413
6.937482 8.692843 -156.869779
6.833822 8.713758 -156.871145
6.744006 8.835625 -156.870088
6.640346 8.856540 -156.871454
6.536686 8.877455 -156.872820
6.433026 8.898370 -156.874186
6.329366 8.919285 -156.875552
6.225705 8.940200 -156.876918
6.122045 8.961116 -156.878284
6.018385 8.982031 -156.879650
5.914725 9.002946 -156.881016
5.811065 9.023861 -156.882382
5.707405 9.044776 -156.883748
5.603745 9.065691 -156.885114
5.500084 9.086606 -156.886480
5.396424 9.107522 -156.887846
5.292764 9.128437 -156.889212
5.189104 9.149352 -156.890578
5.085444 9.170267 -156.891945
4.981784 9.191182 -156.893311
4.878123 9.212097 -156.894677
4.760619 9.132060 -156.898466
4.656959 9.152976 -156.899832
4.553299 9.173891 -156.901198
4.449638 9.194806 -156.902564
4.345978 9.215721 -156.903930
4.242318 9.236636 -156.905296
4.138658 9.257551 -156.906662
4.034998 9.278466 -156.908028
3.931338 9.299381 -156.909394
3.827677 9.320297 -156.910760
3.724017 9.341212 -156.912126
3.606513 9.261175 -156.915915
3.502853 9.282090 -156.917281
3.399193 9.303005 -156.918647
3.281688 9.222968 -156.922436
3.178028 9.243884 -156.923802
3.060523 9.163847 -156.927591
2.943019 9.083810 -156.931380
2.825514 9.003773 -156.935170
2.721854 9.024688 -156.936536
2.618194 9.045603 -156.937902
2.514534 9.066519 -156.939268
2.397029 8.986482 -156.943057
2.293369 9.007397 -156.944423
2.175865 8.927360 -156.948212
2.058360 8.847323 -156.952001
1.954700 8.868238 -156.953367
1.754130 8.182490 -156.971695
1.650470 8.203405 -156.973061
1.532965 8.123369 -156.976850
1.429305 8.144284 -156.978216
1.311800 8.064247 -156.982005
1.208140 8.085162 -156.983371
1.090636 8.005125 -156.987160
0.986976 8.026040 -156.988526
0.869471 7.946004 -156.992316
0.751967 7.865967 -156.996105
0.648306 7.886882 -156.997471
0.530802 7.806845 -157.001260
0.427142 7.827760 -157.002626
7.133299 8.760378 -156.907217
6.994583 8.821010 -156.906160
6.855867 8.881642 -156.905103
6.755637 8.847925 -156.906469
6.616920 8.908557 -156.905412
6.516690 8.874840 -156.906778
6.377974 8.935472 -156.905721
6.239258 8.996104 -156.904664
6.100542 9.056736 -156.903607
5.961825 9.117368 -156.902550
5.823109 9.178001 -156.901493
5.684393 9.238633 -156.900435
5.507190 9.393614 -156.896955
5.329987 9.548595 -156.893475
5.191271 9.609227 -156.892418
5.091041 9.575510 -156.893784
4.952325 9.636142 -156.892727
4.852095 9.602425 -156.894093
4.751865 9.568708 -156.895459
4.651635 9.534991 -156.896825
4.512919 9.595623 -156.895768
4.412689 9.561906 -156.897134
4.312459 9.528189 -156.898500
4.212229 9.494472 -156.899866
4.073513 9.555105 -156.898809
3.973283 9.521388 -156.900175
3.873053 9.487671 -156.901541
3.772823 9.453954 -156.902907
3.672593 9.420237 -156.904273
3.572363 9.386520 -156.905639
3.472133 9.352803 -156.907005
3.371903 9.319086 -156.908371
3.271673 9.285369 -156.909737
3.171443 9.251652 -156.911103
3.071213 9.217935 -156.912469
2.970984 9.184218 -156.913835
2.870754 9.150501 -156.915201
2.770524 9.116784 -156.916567
2.631807 9.177416 -156.915510
2.531577 9.143699 -156.916876
2.431348 9.109982 -156.918242
2.331118 9.076265 -156.919608
2.230888 9.042548 -156.920974
2.130658 9.008831 -156.922340
2.030428 8.975114 -156.923706
1.930198 8.941397 -156.925072
1.829968 8.907680 -156.926438
1.729738 8.873963 -156.927804
1.629508 8.840246 -156.929170
1.529278 8.806529 -156.930536
1.429048 8.772812 -156.931902
1.328818 8.739095 -156.933268
1.228588 8.705378 -156.934634
1.128359 8.671661 -156.936000
1.028129 8.637944 -156.937366
0.927899 8.604227 -156.938732
0.827669 8.570510 -156.940098
0.765925 8.442444 -156.943887
0.665695 8.408727 -156.945253
0.565465 8.375010 -156.946619
0.465235 8.341293 -156.947985
0.365006 8.307576 -156.949351
0.264776 8.273859 -156.950717
0.164546 8.240142 -156.952083
0.064316 8.206425 -156.953449
-0.035914 8.172708 -156.954815
-0.136144 8.138991 -156.956181
-0.236374 8.105274 -156.957547
-0.336604 8.071557 -156.958913
-0.436834 8.037840 -156.960279
-0.537064 8.004123 -156.961645
-0.637294 7.970406 -156.963011
-0.699037 7.842339 -156.966801
-0.799267 7.808622 -156.968167
-0.899497 7.774905 -156.969533
-0.999727 7.741188 -156.970899
-1.099957 7.707471 -156.972265
-1.161700 7.579405 -156.976054
-1.261930 7.545688 -156.977420
-1.323674 7.417622 -156.981209
-1.385417 7.289556 -156.984998
-1.485647 7.255839 -156.986364
-1.585877 7.222122 -156.987730
-1.647621 7.094056 -156.991519
-1.747851 7.060339 -156.992885
-1.848081 7.026622 -156.994251
0.150481 8.824461 -156.951369
0.080538 8.745146 -156.952735
-0.069910 8.728297 -156.951678
-0.139853 8.648983 -156.953044
-0.209796 8.569668 -156.954410
-0.360244 8.552819 -156.953353
-0.430187 8.473504 -156.954719
-0.580635 8.456655 -156.953662
-0.731083 8.439806 -156.952605
-0.801026 8.360491 -156.953971
-0.951474 8.343642 -156.952914
-1.021417 8.264327 -156.954280
-1.091360 8.185013 -156.955646
-1.241808 8.168163 -156.954589
-1.311751 8.088849 -156.955955
-1.381694 8.009534 -156.957321
-1.451637 7.930219 -156.958687
-1.521581 7.850905 -156.960053
-1.591524 7.771590 -156.961419
-1.661467 7.692275 -156.962785
-1.731410 7.612961 -156.964151
-1.801353 7.533646 -156.965517
-1.871296 7.454331 -156.966883
-1.941240 7.375017 -156.968249
-2.011183 7.295702 -156.969615
-2.161631 7.278853 -156.968558
-2.231574 7.199538 -156.969924
-2.301517 7.120223 -156.971290
-2.371460 7.040909 -156.972656
-2.441403 6.961594 -156.974022
-2.511346 6.882279 -156.975388
-2.581289 6.802965 -156.976754
-2.651233 6.723650 -156.978120
-2.721176 6.644335 -156.979486
-2.791119 6.565021 -156.980852
-2.861062 6.485706 -156.982218
-2.931005 6.406391 -156.983584
-3.000948 6.327076 -156.984950
-3.070892 6.247762 -156.986316
-3.140835 6.168447 -156.987682
-3.210778 6.089132 -156.989048
-3.280721 6.009818 -156.990414
-3.350664 5.930503 -156.991780
-3.420607 5.851188 -156.993146
-3.490551 5.771874 -156.994512
-3.560494 5.692559 -156.995878
-3.630437 5.613244 -156.997244
-3.700380 5.533930 -156.998610
-3.770323 5.454615 -156.999976
-3.840266 5.375300 -157.001342
-3.910209 5.295986 -157.002708
-3.899648 5.154205 -157.006497
-3.969591 5.074891 -157.007863
-4.039534 4.995576 -157.009229
-4.109477 4.916261 -157.010595
-4.179421 4.836947 -157.011961
-4.249364 4.757632 -157.013327
-4.319307 4.678317 -157.014693
-4.389250 4.599003 -157.016059
-4.378689 4.457222 -157.019849
-4.448632 4.377908 -157.021215
-4.518575 4.298593 -157.022581
-4.508013 4.156813 -157.026370
-4.174545 5.678682 -156.989439
-4.195461 5.575022 -156.990805
-4.317328 5.485206 -156.989748
-4.338243 5.381546 -156.991114
-4.359158 5.277886 -156.992480
-4.481025 5.188070 -156.991423
-4.501940 5.084410 -156.992789
-4.522855 4.980750 -156.994155
-4.543770 4.877090 -156.995521
-4.564685 4.773429 -156.996887
-4.585601 4.669769 -156.998253
-4.606516 4.566109 -156.999619
-4.627431 4.462449 -157.000985
-4.648346 4.358789 -157.002351
-4.770213 4.268973 -157.001294
-4.791128 4.165313 -157.002660
-4.812043 4.061653 -157.004026
-4.832958 3.957993 -157.005392
-4.853874 3.854332 -157.006758
-4.874789 3.750672 -157.008124
-4.895704 3.647012 -157.009490
-4.916619 3.543352 -157.010856
-4.937534 3.439692 -157.012222
-4.958449 3.336032 -157.013588
-4.979364 3.232371 -157.014954
-5.000279 3.128711 -157.016320
-4.920243 3.011207 -157.020109
-4.941158 2.907547 -157.021475
-4.962073 2.803886 -157.022841
-4.982988 2.700226 -157.024207
-4.902951 2.582722 -157.027997
-4.923866 2.479062 -157.029363
-4.944782 2.375401 -157.030729
-4.965697 2.271741 -157.032095
-4.986612 2.168081 -157.033461
-5.007527 2.064421 -157.034827
-5.028442 1.960761 -157.036193
-5.049357 1.857101 -157.037559
-5.070272 1.753441 -157.038925
-5.091187 1.649780 -157.040291
-5.112103 1.546120 -157.041657
-5.133018 1.442460 -157.043023
-5.153933 1.338800 -157.044389
-5.073896 1.221295 -157.048178
-5.094811 1.117635 -157.049544
-5.115726 1.013975 -157.050910
-5.136641 0.910315 -157.052276
-5.157557 0.806655 -157.053642
-5.178472 0.702995 -157.055008
-5.199387 0.599334 -157.056374
-5.119350 0.481830 -157.060163
-5.140265 0.378170 -157.061529
-5.161180 0.274510 -157.062895
-5.182095 0.170849 -157.064261
-5.203011 0.067189 -157.065627
-5.223926 -0.036471 -157.066993
-5.244841 -0.140131 -157.068359
-5.265756 -0.243791 -157.069725
-5.286671 -0.347451 -157.071091
-5.307586 -0.451111 -157.072457
-5.328501 -0.554772 -157.073823
-5.349417 -0.658432 -157.075189
-5.370332 -0.762092 -157.076555
-5.391247 -0.865752 -157.077921
-5.412162 -0.969412 -157.079287
-5.332125 -1.086917 -157.083076
-5.353040 -1.190577 -157.084442
-5.373955 -1.294237 -157.085808
-5.394871 -1.397897 -157.087174
-5.415786 -1.501557 -157.088541
-5.436701 -1.605218 -157.089907
-5.457616 -1.708878 -157.091273
-5.377579 -1.826382 -157.095062
-5.398494 -1.930042 -157.096428
-6.103537 -0.445689 -157.013458
-6.164169 -0.584405 -157.012401
-6.130452 -0.684635 -157.013767
-6.191084 -0.823351 -157.012710
-6.157367 -0.923581 -157.014076
-6.123650 -1.023811 -157.015442
-6.089933 -1.124041 -157.016808
-6.056216 -1.224271 -157.018174
-6.022499 -1.324501 -157.019540
-5.988782 -1.424731 -157.020906
-5.955065 -1.524961 -157.022272
-5.921348 -1.625190 -157.023638
-5.887631 -1.725420 -157.025004
-5.853914 -1.825650 -157.026370
-5.914546 -1.964367 -157.025313
-5.880829 -2.064597 -157.026679
-5.847112 -2.164826 -157.028045
-5.813395 -2.265056 -157.029411
-5.779678 -2.365286 -157.030777
-5.745961 -2.465516 -157.032143
-5.712244 -2.565746 -157.033509
-5.678527 -2.665976 -157.034875
-5.644810 -2.766206 -157.036241
-5.611093 -2.866436 -157.037607
-5.577376 -2.966666 -157.038973
-5.543659 -3.066896 -157.040339
-5.509942 -3.167126 -157.041705
-5.476225 -3.267356 -157.043071
-5.442508 -3.367586 -157.044437
-5.408791 -3.467815 -157.045803
-5.375074 -3.568045 -157.047169
-5.247008 -3.629789 -157.050958
-5.213291 -3.730019 -157.052324
-5.179574 -3.830249 -157.053690
-5.145857 -3.930479 -157.055056
-5.112140 -4.030709 -157.056422
-5.078423 -4.130939 -157.057788
-5.044706 -4.231168 -157.059154
-5.010989 -4.331398 -157.060520
-4.977272 -4.431628 -157.061886
-4.943555 -4.531858 -157.063252
-4.909838 -4.632088 -157.064618
-4.876121 -4.732318 -157.065984
-4.842404 -4.832548 -157.067350
-4.714338 -4.894292 -157.071139
-4.680621 -4.994521 -157.072505
-4.646904 -5.094751 -157.073871
-4.613187 -5.194981 -157.075237
-4.579470 -5.295211 -157.076603
-4.451404 -5.356955 -157.080393
-4.417687 -5.457185 -157.081759
-4.383970 -5.557415 -157.083125
-4.350253 -5.657645 -157.084491
-4.316536 -5.757874 -157.085857
-4.188469 -5.819618 -157.089646
-4.154752 -5.919848 -157.091012
-4.121035 -6.020078 -157.092378
-3.992969 -6.081821 -157.096167
-3.959252 -6.182051 -157.097533
-3.925535 -6.282281 -157.098899
-3.891818 -6.382511 -157.100265
-3.858101 -6.482741 -157.101631
-3.730035 -6.544485 -157.105420
-3.601969 -6.606228 -157.109209
-3.190856 -6.552513 -157.120268
-3.157139 -6.652743 -157.121634
-3.123422 -6.752972 -157.123000
-3.089705 -6.853202 -157.124366
-3.055988 -6.953432 -157.125732
-3.022271 -7.053662 -157.127098
-2.988554 -7.153892 -157.128464
-2.954837 -7.254122 -157.129830
-2.921120 -7.354352 -157.131196
-2.793054 -7.416096 -157.134985
-2.759337 -7.516325 -157.136351
-2.725620 -7.616555 -157.137717
-2.597553 -7.678299 -157.141506
-2.563836 -7.778529 -157.142872
-2.435770 -7.840272 -157.146661
-2.402053 -7.940502 -157.148027
-2.273987 -8.002246 -157.151817
-6.014749 -2.598425 -156.997066
-6.060365 -2.829378 -156.993585
-5.981050 -2.899321 -156.994951
-5.964201 -3.049769 -156.993894
-5.884887 -3.119712 -156.995260
-5.868037 -3.270160 -156.994203
-5.788723 -3.340103 -156.995569
-5.771874 -3.490551 -156.994512
-5.755025 -3.640998 -156.993455
-5.675710 -3.710942 -156.994821
-5.658861 -3.861389 -156.993764
-5.579546 -3.931333 -156.995130
-5.500231 -4.001276 -156.996496
-5.483382 -4.151724 -156.995439
-5.466533 -4.302171 -156.994382
-5.387218 -4.372115 -156.995748
-5.307904 -4.442058 -156.997114
-5.291055 -4.592506 -156.996057
-5.211740 -4.662449 -156.997423
-5.132425 -4.732392 -156.998789
-5.053110 -4.802335 -157.000155
-5.036261 -4.952783 -156.999098
-4.956947 -5.022726 -157.000464
-4.877632 -5.092669 -157.001830
-4.798317 -5.162612 -157.003196
-4.781468 -5.313060 -157.002138
-4.702153 -5.383003 -157.003504
-4.685304 -5.533451 -157.002447
-4.605990 -5.603394 -157.003813
-4.526675 -5.673337 -157.005179
-4.509826 -5.823785 -157.004122
-4.430511 -5.893728 -157.005488
-4.351196 -5.963672 -157.006854
-4.271882 -6.033615 -157.008220
-4.255033 -6.184063 -157.007163
-4.175718 -6.254006 -157.008529
-4.096403 -6.323949 -157.009895
-4.079554 -6.474397 -157.008838
-4.000239 -6.544340 -157.010204
-3.920925 -6.614283 -157.011570
-3.841610 -6.684226 -157.012936
-3.824761 -6.834674 -157.011879
-3.745446 -6.904617 -157.013245
-3.666131 -6.974560 -157.014611
-3.649282 -7.125008 -157.013554
-3.569968 -7.194951 -157.014920
-3.490653 -7.264895 -157.016286
-3.473804 -7.415342 -157.015229
-3.394489 -7.485286 -157.016595
-3.315174 -7.555229 -157.017961
-3.298325 -7.705677 -157.016904
-3.219011 -7.775620 -157.018270
-3.139696 -7.845563 -157.019636
-3.060381 -7.915506 -157.021002
-3.043532 -8.065954 -157.019945
-2.964217 -8.135897 -157.021311
-2.884903 -8.205840 -157.022677
-2.805588 -8.275783 -157.024043
-2.726273 -8.345726 -157.025409
-2.646959 -8.415670 -157.026775
-2.567644 -8.485613 -157.028141
-2.550795 -8.636061 -157.027084
-2.471480 -8.706004 -157.028450
-2.392165 -8.775947 -157.029816
-2.312851 -8.845890 -157.031182
-2.233536 -8.915833 -157.032548
-2.154221 -8.985776 -157.033914
-2.074907 -9.055720 -157.035280
-1.995592 -9.125663 -157.036646
-1.978743 -9.276111 -157.035589
-1.899428 -9.346054 -157.036955
-1.820114 -9.415997 -157.038321
-1.740799 -9.485940 -157.039687
-1.661484 -9.555883 -157.041053
-1.582169 -9.625826 -157.042419
-1.502855 -9.695770 -157.043785
-1.423540 -9.765713 -157.045151
-1.344225 -9.835656 -157.046517
-1.202445 -9.825094 -157.050306
-1.123130 -9.895037 -157.051672
-1.043816 -9.964981 -157.053038
-0.964501 -10.034924 -157.054404
-0.822721 -10.024362 -157.058193
-0.743406 -10.094305 -157.059559
-0.664092 -10.164249 -157.060925
-0.584777 -10.234192 -157.062291
-0.505462 -10.304135 -157.063657
-0.426147 -10.374078 -157.065023
-0.346833 -10.444021 -157.066389
-0.267518 -10.513964 -157.067755
-0.188203 -10.583908 -157.069121
-0.108889 -10.653851 -157.070487
0.032892 -10.643289 -157.074277
0.112206 -10.713232 -157.075643
0.191521 -10.783175 -157.077009
0.270836 -10.853119 -157.078375
0.412616 -10.842557 -157.082164
0.491930 -10.912500 -157.083530
0.633711 -10.901939 -157.087319
-4.317600 -5.901599 -156.976006
-4.227785 -6.023466 -156.974949
-4.137969 -6.145333 -156.973891
-4.048153 -6.267200 -156.972834
-3.944493 -6.288115 -156.974200
-3.854677 -6.409982 -156.973143
-3.751017 -6.430898 -156.974509
-3.702734 -6.855620 -156.966183
-3.626762 -7.078439 -156.962703
-3.523102 -7.099354 -156.964069
-3.433286 -7.221222 -156.963011
-3.343471 -7.343089 -156.961954
-3.239810 -7.364004 -156.963320
-3.149995 -7.485871 -156.962263
-3.060179 -7.607738 -156.961206
-2.970363 -7.729605 -156.960149
-2.922080 -8.154328 -156.951823
-2.832264 -8.276195 -156.950765
-2.742448 -8.398062 -156.949708
-2.652633 -8.519929 -156.948651
-2.562817 -8.641796 -156.947594
-2.473001 -8.763663 -156.946537
-2.383185 -8.885530 -156.945480
-2.279525 -8.906445 -156.946846
-2.175865 -8.927360 -156.948212
-2.086049 -9.049227 -156.947155
-1.996233 -9.171094 -156.946098
-1.892573 -9.192009 -156.947464
-1.802757 -9.313876 -156.946407
-1.699097 -9.334792 -156.947773
-1.609281 -9.456659 -156.946716
-1.519465 -9.578526 -156.945658
-1.429649 -9.700393 -156.944601
-1.325989 -9.721308 -156.945967
-1.236173 -9.843175 -156.944910
-1.174046 -10.166946 -156.939007
-1.084230 -10.288813 -156.937950
-0.980570 -10.309728 -156.939316
-0.890754 -10.431595 -156.938259
-0.787094 -10.452510 -156.939625
-0.697278 -10.574377 -156.938568
-0.593618 -10.595292 -156.939934
-0.503803 -10.717159 -156.938876
-0.400142 -10.738074 -156.940243
-0.296482 -10.758990 -156.941609
-0.206666 -10.880857 -156.940551
-0.103006 -10.901772 -156.941917
0.000654 -10.922687 -156.943283
0.090470 -11.044554 -156.942226
0.194130 -11.065469 -156.943592
0.297790 -11.086384 -156.944958
0.401450 -11.107299 -156.946324
0.505110 -11.128214 -156.947690
0.608771 -11.149130 -156.949056
0.712431 -11.170045 -156.950422
0.816091 -11.190960 -156.951788
0.919751 -11.211875 -156.953154
1.023411 -11.232790 -156.954520
1.127071 -11.253705 -156.955886
1.230732 -11.274620 -156.957253
1.334392 -11.295535 -156.958619
1.438052 -11.316451 -156.959985
1.527868 -11.438318 -156.958927
1.631528 -11.459233 -156.960293
1.735188 -11.480148 -156.961659
1.838848 -11.501063 -156.963025
1.942508 -11.521978 -156.964392
2.046168 -11.542893 -156.965758
2.149829 -11.563808 -156.967124
2.253489 -11.584724 -156.968490
2.357149 -11.605639 -156.969856
2.460809 -11.626554 -156.971222
2.564469 -11.647469 -156.972588
2.668129 -11.668384 -156.973954
2.785634 -11.588347 -156.977743
2.889294 -11.609262 -156.979109
2.992954 -11.630178 -156.980475
3.096614 -11.651093 -156.981841
3.200275 -11.672008 -156.983207
3.303935 -11.692923 -156.984573
3.407595 -11.713838 -156.985939
3.511255 -11.734753 -156.987305
3.614915 -11.755668 -156.988671
3.718575 -11.776583 -156.990037
3.822236 -11.797499 -156.991403
3.925896 -11.818414 -156.992769
4.029556 -11.839329 -156.994135
4.147060 -11.759292 -156.997924
4.250720 -11.780207 -156.999290
4.354381 -11.801122 -157.000656
4.471885 -11.721086 -157.004445
4.575545 -11.742001 -157.005811
4.693050 -11.661964 -157.009600
4.796710 -11.682879 -157.010966
4.914214 -11.602842 -157.014756
5.031719 -11.522805 -157.018545
5.163068 -11.341817 -157.024757
5.308261 -11.059876 -157.033392
5.439610 -10.878887 -157.039605
5.543270 -10.899803 -157.040971
5.646930 -10.920718 -157.042337
5.764434 -10.840681 -157.046126
5.881939 -10.760644 -157.049915
5.985599 -10.781559 -157.051281
6.103104 -10.701523 -157.055070
6.220608 -10.621486 -157.058859
6.324268 -10.642401 -157.060225
6.441773 -10.562364 -157.064014
6.559277 -10.482327 -157.067804
6.676782 -10.402291 -157.071593
-0.258401 -10.524926 -156.888904
-0.119685 -10.585558 -156.887846
0.019031 -10.646190 -156.886789
0.196234 -10.801171 -156.883309
0.334950 -10.861803 -156.882252
0.473667 -10.922436 -156.881195
0.612383 -10.983068 -156.880138
0.751099 -11.043700 -156.879081
0.851329 -11.009983 -156.880447
0.990046 -11.070615 -156.879390
1.128762 -11.131247 -156.878332
1.267478 -11.191879 -156.877275
1.367708 -11.158162 -156.878641
1.506424 -11.218794 -156.877584
1.606654 -11.185077 -156.878950
1.745371 -11.245709 -156.877893
1.884087 -11.306342 -156.876836
2.061290 -11.461323 -156.873356
2.200006 -11.521955 -156.872299
2.338722 -11.582587 -156.871242
2.669870 -12.114965 -156.858069
2.770100 -12.081248 -156.859435
2.908817 -12.141880 -156.858378
3.009047 -12.108163 -156.859744
3.109276 -12.074446 -156.861110
3.209506 -12.040729 -156.862476
3.309736 -12.007012 -156.863842
3.409966 -11.973295 -156.865208
3.510196 -11.939578 -156.866574
3.610426 -11.905861 -156.867940
3.749142 -11.966493 -156.866883
3.849372 -11.932776 -156.868249
3.949602 -11.899059 -156.869615
4.049832 -11.865342 -156.870981
4.150062 -11.831625 -156.872347
4.250292 -11.797908 -156.873713
4.350522 -11.764191 -156.875079
4.450752 -11.730474 -156.876445
4.550982 -11.696757 -156.877811
4.651212 -11.663040 -156.879177
4.751442 -11.629323 -156.880543
4.851671 -11.595606 -156.881909
4.951901 -11.561889 -156.883275
5.052131 -11.528172 -156.884641
5.152361 -11.494455 -156.886007
5.291078 -11.555087 -156.884950
5.391307 -11.521370 -156.886316
5.491537 -11.487653 -156.887682
5.591767 -11.453936 -156.889048
5.691997 -11.420219 -156.890414
5.792227 -11.386502 -156.891780
5.892457 -11.352785 -156.893146
5.992687 -11.319068 -156.894512
6.092917 -11.285351 -156.895878
6.193147 -11.251634 -156.897244
6.254890 -11.123568 -156.901033
6.355120 -11.089851 -156.902399
6.455350 -11.056134 -156.903765
6.555580 -11.022417 -156.905131
6.655810 -10.988700 -156.906497
6.756040 -10.954983 -156.907863
6.856270 -10.921266 -156.909229
6.956500 -10.887549 -156.910595
7.056730 -10.853832 -156.911961
7.156960 -10.820115 -156.913327
7.257190 -10.786398 -156.914693
7.357420 -10.752681 -156.916059
7.457649 -10.718964 -156.917425
7.557879 -10.685247 -156.918791
7.658109 -10.651530 -156.920157
7.719853 -10.523464 -156.923947
7.820083 -10.489747 -156.925313
7.920313 -10.456030 -156.926679
8.020543 -10.422313 -156.928045
8.120773 -10.388596 -156.929411
8.221002 -10.354879 -156.930777
8.321232 -10.321162 -156.932143
8.421462 -10.287445 -156.933509
8.521692 -10.253728 -156.934875
8.621922 -10.220011 -156.936241
8.683666 -10.091945 -156.940030
8.783896 -10.058228 -156.941396
8.884126 -10.024511 -156.942762
8.984355 -9.990794 -156.944128
9.046099 -9.862728 -156.947917
9.146329 -9.829011 -156.949283
9.246559 -9.795294 -156.950649
9.346789 -9.761577 -156.952015
9.408532 -9.633510 -156.955804
9.508762 -9.599793 -156.957170
9.570506 -9.471727 -156.960959
9.632249 -9.343661 -156.964749
9.693993 -9.215595 -156.968538
9.755736 -9.087529 -156.972327
9.817480 -8.959463 -156.976116
9.917710 -8.925746 -156.977482
9.940967 -8.703331 -156.983694
9.964224 -8.480915 -156.989907
10.064454 -8.447198 -156.991273
10.126198 -8.319132 -156.995062
10.226428 -8.285415 -156.996428
10.326658 -8.251698 -156.997794
10.388401 -8.123632 -157.001583
10.450145 -7.995566 -157.005372
10.511888 -7.867500 -157.009161
10.573632 -7.739434 -157.012950
10.635375 -7.611368 -157.016739
10.697119 -7.483302 -157.020529
10.797349 -7.449585 -157.021895
10.859092 -7.321519 -157.025684
10.920836 -7.193452 -157.029473
11.021066 -7.159735 -157.030839
11.082809 -7.031669 -157.034628
10.990607 -6.526207 -157.048110
11.052351 -6.398141 -157.051899
11.114095 -6.270075 -157.055688
11.175838 -6.142008 -157.059477
11.122122 -5.730895 -157.070536
