ply
format ascii 1.0
element vertex 1218
property float x
property float y
property float z
element face 0
property list uchar uint vertex_indices
end_header
3.042009 -11.969518 -155.837922
3.272962 -12.015135 -155.834441
3.423409 -11.998286 -155.833384
3.573857 -11.981436 -155.832327
3.724305 -11.964587 -155.831270
3.955258 -12.010204 -155.827790
4.186210 -12.055820 -155.824310
4.336658 -12.038971 -155.823253
4.487106 -12.022122 -155.822195
4.637554 -12.005273 -155.821138
4.788002 -11.988423 -155.820081
4.938449 -11.971574 -155.819024
5.088897 -11.954725 -155.817967
5.239345 -11.937876 -155.816910
5.389793 -11.921027 -155.815853
5.540241 -11.904178 -155.814796
5.690689 -11.887329 -155.813739
5.841136 -11.870479 -155.812681
5.911080 -11.791165 -155.814047
6.061527 -11.774316 -155.812990
6.211975 -11.757466 -155.811933
6.281918 -11.678152 -155.813299
6.432366 -11.661303 -155.812242
6.502309 -11.581988 -155.813608
6.652757 -11.565139 -155.812551
6.803205 -11.548290 -155.811494
6.873148 -11.468975 -155.812860
7.023596 -11.452126 -155.811803
7.093539 -11.372811 -155.813169
7.243987 -11.355962 -155.812112
7.313930 -11.276647 -155.813478
7.464378 -11.259798 -155.812421
7.534321 -11.180484 -155.813787
7.684769 -11.163634 -155.812730
7.915722 -11.209251 -155.809249
7.985665 -11.129936 -155.810615
8.055608 -11.050621 -155.811981
8.206056 -11.033772 -155.810924
8.275999 -10.954458 -155.812290
8.345942 -10.875143 -155.813656
8.496390 -10.858294 -155.812599
8.566333 -10.778979 -155.813965
8.636276 -10.699664 -155.815331
8.706219 -10.620350 -155.816697
8.776163 -10.541035 -155.818063
8.926610 -10.524186 -155.817006
8.996554 -10.444871 -155.818372
9.066497 -10.365556 -155.819738
9.136440 -10.286242 -155.821104
9.206383 -10.206927 -155.822470
9.356831 -10.190078 -155.821413
9.426774 -10.110763 -155.822779
9.496717 -10.031449 -155.824145
9.566660 -9.952134 -155.825511
9.636604 -9.872819 -155.826877
9.706547 -9.793505 -155.828243
9.776490 -9.714190 -155.829609
9.846433 -9.634875 -155.830975
9.916376 -9.555560 -155.832341
9.986319 -9.476246 -155.833707
10.056262 -9.396931 -155.835073
10.206710 -9.380082 -155.834016
10.276653 -9.300767 -155.835382
10.346597 -9.221453 -155.836748
10.416540 -9.142138 -155.838114
10.486483 -9.062823 -155.839480
10.556426 -8.983509 -155.840846
10.626369 -8.904194 -155.842212
10.696312 -8.824879 -155.843578
10.766256 -8.745564 -155.844944
10.836199 -8.666250 -155.846310
10.906142 -8.586935 -155.847676
10.976085 -8.507620 -155.849042
11.046028 -8.428306 -155.850408
11.115971 -8.348991 -155.851774
11.185915 -8.269676 -155.853140
11.255858 -8.190362 -155.854506
11.325801 -8.111047 -155.855872
11.395744 -8.031732 -155.857238
11.385182 -7.889952 -155.861028
11.455126 -7.810637 -155.862394
11.525069 -7.731323 -155.863760
11.595012 -7.652008 -155.865126
11.584450 -7.510228 -155.868915
11.573889 -7.368448 -155.872704
11.643832 -7.289133 -155.874070
11.633270 -7.147353 -155.877859
11.703214 -7.068038 -155.879225
11.773157 -6.988723 -155.880591
11.762595 -6.846943 -155.884380
11.752034 -6.705163 -155.888169
11.821977 -6.625848 -155.889535
11.811415 -6.484068 -155.893325
11.881359 -6.404753 -155.894691
11.870797 -6.262973 -155.898480
11.940740 -6.183658 -155.899846
12.010683 -6.104344 -155.901212
12.000122 -5.962563 -155.905001
11.989560 -5.820783 -155.908790
12.059503 -5.741468 -155.910156
12.048942 -5.599688 -155.913945
12.038380 -5.457908 -155.917734
12.027819 -5.316128 -155.921523
12.017257 -5.174348 -155.925313
12.006696 -5.032567 -155.929102
11.996134 -4.890787 -155.932891
11.985573 -4.749007 -155.936680
11.894507 -4.544761 -155.942892
11.642431 -4.215584 -155.953951
11.631869 -4.073804 -155.957740
11.621308 -3.932024 -155.961529
11.610746 -3.790244 -155.965318
11.600185 -3.648463 -155.969107
11.589623 -3.506683 -155.972897
11.579062 -3.364903 -155.976686
11.407491 -3.098192 -155.985321
11.316425 -2.893946 -155.991533
11.386368 -2.814631 -155.992899
11.375806 -2.672851 -155.996688
11.365245 -2.531071 -156.000478
11.354683 -2.389290 -156.004267
11.183112 -2.122579 -156.012902
11.092046 -1.918333 -156.019114
7.490636 -11.353336 -155.818310
7.612503 -11.263520 -155.817253
7.734370 -11.173704 -155.816196
7.856237 -11.083889 -155.815139
7.978104 -10.994073 -155.814082
8.200923 -10.918101 -155.810601
8.322790 -10.828285 -155.809544
8.444657 -10.738470 -155.808487
8.566525 -10.648654 -155.807430
8.688392 -10.558838 -155.806373
8.810259 -10.469022 -155.805316
8.932126 -10.379206 -155.804259
9.154945 -10.303235 -155.800778
9.276812 -10.213419 -155.799721
9.398679 -10.123603 -155.798664
9.419594 -10.019943 -155.800030
9.642413 -9.943971 -155.796550
9.764280 -9.854156 -155.795493
9.987099 -9.778184 -155.792013
10.108966 -9.688368 -155.790956
10.230833 -9.598552 -155.789899
10.352700 -9.508737 -155.788841
10.373615 -9.405076 -155.790207
10.394530 -9.301416 -155.791573
10.415445 -9.197756 -155.792939
10.436360 -9.094096 -155.794305
10.457276 -8.990436 -155.795671
10.579143 -8.900620 -155.794614
10.701010 -8.810804 -155.793557
10.822877 -8.720988 -155.792500
10.944744 -8.631173 -155.791443
11.066611 -8.541357 -155.790386
11.087526 -8.437697 -155.791752
11.209393 -8.347881 -155.790695
11.230308 -8.244221 -155.792061
11.352175 -8.154405 -155.791004
11.373090 -8.050745 -155.792370
11.494957 -7.960929 -155.791313
11.515872 -7.857269 -155.792679
11.536788 -7.753608 -155.794045
11.557703 -7.649948 -155.795411
11.578618 -7.546288 -155.796777
11.700485 -7.456472 -155.795720
11.721400 -7.352812 -155.797086
11.742315 -7.249152 -155.798452
11.864182 -7.159336 -155.797395
11.885097 -7.055676 -155.798761
11.906012 -6.952016 -155.800127
11.926928 -6.848356 -155.801493
11.947843 -6.744695 -155.802859
12.069710 -6.654880 -155.801801
12.090625 -6.551219 -155.803168
12.111540 -6.447559 -155.804534
12.132455 -6.343899 -155.805900
12.153370 -6.240239 -155.807266
12.174285 -6.136579 -155.808632
12.195201 -6.032919 -155.809998
12.216116 -5.929258 -155.811364
12.237031 -5.825598 -155.812730
12.257946 -5.721938 -155.814096
12.278861 -5.618278 -155.815462
12.198824 -5.500774 -155.819251
12.219739 -5.397113 -155.820617
12.240655 -5.293453 -155.821983
12.261570 -5.189793 -155.823349
12.181533 -5.072289 -155.827138
12.202448 -4.968628 -155.828504
12.223363 -4.864968 -155.829870
12.143326 -4.747464 -155.833659
12.164242 -4.643804 -155.835025
12.185157 -4.540143 -155.836391
12.105120 -4.422639 -155.840180
12.126035 -4.318979 -155.841546
12.045998 -4.201474 -155.845335
12.066913 -4.097814 -155.846701
12.087828 -3.994154 -155.848068
12.108744 -3.890494 -155.849434
12.129659 -3.786834 -155.850800
12.150574 -3.683174 -155.852166
12.070537 -3.565669 -155.855955
12.091452 -3.462009 -155.857321
12.112367 -3.358349 -155.858687
12.032331 -3.240844 -155.862476
12.053246 -3.137184 -155.863842
12.074161 -3.033524 -155.865208
11.994124 -2.916019 -155.868997
12.015039 -2.812359 -155.870363
11.935002 -2.694855 -155.874152
11.955918 -2.591195 -155.875518
11.875881 -2.473690 -155.879307
11.896796 -2.370030 -155.880673
11.816759 -2.252525 -155.884463
11.837674 -2.148865 -155.885829
11.757637 -2.031361 -155.889618
11.778553 -1.927701 -155.890984
11.799468 -1.824041 -155.892350
11.719431 -1.706536 -155.896139
11.538442 -1.575187 -155.902351
11.458405 -1.457683 -155.906140
11.479321 -1.354023 -155.907506
11.500236 -1.250362 -155.908872
11.521151 -1.146702 -155.910238
11.441114 -1.029198 -155.914027
11.462029 -0.925538 -155.915393
11.482944 -0.821877 -155.916759
11.402908 -0.704373 -155.920549
11.423823 -0.600713 -155.921915
11.444738 -0.497053 -155.923281
11.364701 -0.379548 -155.927070
11.385616 -0.275888 -155.928436
11.204627 -0.144539 -155.934648
11.124591 -0.027035 -155.938437
11.044554 0.090470 -155.942226
11.065469 0.194130 -155.943592
11.086384 0.297790 -155.944958
11.107299 0.401450 -155.946324
11.128214 0.505110 -155.947690
11.048178 0.622615 -155.951480
11.069093 0.726275 -155.952846
11.090008 0.829935 -155.954212
11.110923 0.933595 -155.955578
11.030886 1.051100 -155.959367
11.051801 1.154760 -155.960733
10.971765 1.272265 -155.964522
10.891728 1.389769 -155.968311
10.811691 1.507274 -155.972100
10.731654 1.624778 -155.975889
10.752569 1.728438 -155.977255
10.773485 1.832098 -155.978621
10.693448 1.949603 -155.982410
10.714363 2.053263 -155.983776
10.634326 2.170767 -155.987566
10.453337 2.302116 -155.993778
10.373301 2.419621 -155.997567
10.394216 2.523281 -155.998933
10.415131 2.626941 -156.000299
10.436046 2.730601 -156.001665
10.356009 2.848106 -156.005454
10.376924 2.951766 -156.006820
10.397839 3.055426 -156.008186
10.317803 3.172931 -156.011975
10.237766 3.290435 -156.015765
10.157729 3.407939 -156.019554
10.077692 3.525444 -156.023343
9.997656 3.642948 -156.027132
9.917619 3.760453 -156.030921
9.837582 3.877957 -156.034710
9.656593 4.009306 -156.040923
9.576557 4.126811 -156.044712
9.597472 4.230471 -156.046078
9.618387 4.334131 -156.047444
9.538350 4.451636 -156.051233
9.559265 4.555296 -156.052599
9.479228 4.672800 -156.056388
9.399192 4.790305 -156.060177
9.420107 4.893965 -156.061543
9.239118 5.025314 -156.067755
11.355417 -8.468400 -155.830069
11.510398 -8.291197 -155.826588
11.665379 -8.113995 -155.823108
11.820361 -7.936792 -155.819628
11.880993 -7.798076 -155.818571
11.941625 -7.659359 -155.817514
11.907908 -7.559130 -155.818880
11.968540 -7.420413 -155.817823
11.934823 -7.320183 -155.819189
11.901106 -7.219953 -155.820555
11.961738 -7.081237 -155.819498
12.211068 -6.865548 -155.813594
12.366050 -6.688345 -155.810114
12.426682 -6.549629 -155.809057
12.487314 -6.410913 -155.808000
12.453597 -6.310683 -155.809366
12.514229 -6.171967 -155.808309
12.669210 -5.994764 -155.804828
12.729842 -5.856048 -155.803771
12.696125 -5.755818 -155.805137
12.756757 -5.617101 -155.804080
12.817389 -5.478385 -155.803023
12.783672 -5.378155 -155.804389
12.844305 -5.239439 -155.803332
12.810588 -5.139209 -155.804698
12.776871 -5.038979 -155.806064
12.743154 -4.938749 -155.807430
12.709437 -4.838519 -155.808796
12.675720 -4.738289 -155.810162
12.642003 -4.638059 -155.811528
12.702635 -4.499343 -155.810471
12.668918 -4.399113 -155.811837
12.635201 -4.298883 -155.813203
12.601484 -4.198653 -155.814569
12.567767 -4.098423 -155.815935
12.628399 -3.959707 -155.814878
12.594682 -3.859477 -155.816244
12.560965 -3.759247 -155.817610
12.621597 -3.620531 -155.816553
12.587880 -3.520301 -155.817919
12.554163 -3.420071 -155.819285
12.520446 -3.319841 -155.820651
12.486729 -3.219611 -155.822017
12.453012 -3.119381 -155.823383
12.419295 -3.019151 -155.824749
12.479927 -2.880435 -155.823692
12.446210 -2.780205 -155.825058
12.412493 -2.679975 -155.826424
12.378776 -2.579745 -155.827790
12.345059 -2.479515 -155.829156
12.311342 -2.379285 -155.830522
12.277625 -2.279055 -155.831888
12.243908 -2.178826 -155.833254
12.210191 -2.078596 -155.834620
12.270823 -1.939879 -155.833563
12.237106 -1.839649 -155.834929
12.203389 -1.739419 -155.836295
12.169672 -1.639190 -155.837661
12.135955 -1.538960 -155.839027
12.102238 -1.438730 -155.840393
12.068521 -1.338500 -155.841759
12.034804 -1.238270 -155.843125
12.001087 -1.138040 -155.844491
11.967370 -1.037810 -155.845857
11.933653 -0.937580 -155.847223
11.994285 -0.798864 -155.846166
11.960568 -0.698634 -155.847532
11.926851 -0.598404 -155.848898
11.987483 -0.459688 -155.847841
11.953766 -0.359458 -155.849207
11.920049 -0.259228 -155.850573
11.886332 -0.158998 -155.851939
11.852615 -0.058768 -155.853305
11.818898 0.041462 -155.854671
11.785181 0.141692 -155.856037
11.751464 0.241922 -155.857403
11.717747 0.342152 -155.858769
11.684030 0.442382 -155.860135
11.744662 0.581098 -155.859078
11.710945 0.681328 -155.860444
11.677228 0.781558 -155.861810
11.643511 0.881788 -155.863176
11.609794 0.982018 -155.864542
11.576077 1.082248 -155.865908
11.542360 1.182477 -155.867274
11.508644 1.282707 -155.868640
11.474927 1.382937 -155.870006
11.441210 1.483167 -155.871372
11.407493 1.583397 -155.872738
11.373776 1.683627 -155.874104
11.340059 1.783857 -155.875470
11.306342 1.884087 -155.876836
11.272625 1.984317 -155.878202
11.238908 2.084547 -155.879568
11.205191 2.184777 -155.880934
11.265823 2.323493 -155.879877
11.232106 2.423723 -155.881243
11.198389 2.523953 -155.882609
11.164672 2.624183 -155.883975
11.130955 2.724413 -155.885341
11.097238 2.824643 -155.886707
11.063521 2.924873 -155.888073
11.029804 3.025102 -155.889439
10.996087 3.125332 -155.890805
10.962370 3.225562 -155.892171
10.834304 3.287306 -155.895960
10.800587 3.387536 -155.897326
10.766870 3.487766 -155.898692
10.733153 3.587996 -155.900058
10.699436 3.688226 -155.901424
10.571369 3.749969 -155.905214
10.537652 3.850199 -155.906580
10.503935 3.950429 -155.907946
10.470218 4.050659 -155.909312
10.436501 4.150889 -155.910678
10.402784 4.251119 -155.912044
10.369067 4.351349 -155.913410
10.335350 4.451579 -155.914776
10.301633 4.551808 -155.916142
10.267916 4.652038 -155.917508
10.139850 4.713782 -155.921297
10.106133 4.814012 -155.922663
10.072416 4.914242 -155.924029
10.038699 5.014472 -155.925395
10.004982 5.114702 -155.926761
9.876916 5.176445 -155.930550
9.843199 5.276675 -155.931916
9.809482 5.376905 -155.933282
9.775765 5.477135 -155.934648
9.647699 5.538878 -155.938437
9.613982 5.639108 -155.939803
9.580265 5.739338 -155.941169
9.546548 5.839568 -155.942535
9.512831 5.939798 -155.943901
9.479114 6.040028 -155.945267
9.351048 6.101772 -155.949056
9.222982 6.163515 -155.952846
12.987467 -4.770712 -155.889102
12.970618 -4.620264 -155.888045
12.953769 -4.469816 -155.886988
12.936919 -4.319369 -155.885931
12.982536 -4.088416 -155.882451
13.028152 -3.857463 -155.878970
13.011303 -3.707015 -155.877913
12.994453 -3.556567 -155.876856
12.915139 -3.486624 -155.878222
12.898289 -3.336176 -155.877165
12.818975 -3.266233 -155.878531
12.802125 -3.115785 -155.877474
12.722810 -3.045842 -155.878840
12.705961 -2.895394 -155.877783
12.689112 -2.744946 -155.876726
12.672263 -2.594498 -155.875669
12.592948 -2.524555 -155.877035
12.576099 -2.374107 -155.875978
12.496784 -2.304164 -155.877344
12.417469 -2.234221 -155.878710
12.463085 -2.003268 -155.875229
12.446236 -1.852820 -155.874172
12.429387 -1.702372 -155.873115
12.350072 -1.632429 -155.874481
12.333223 -1.481981 -155.873424
12.253908 -1.412038 -155.874790
12.174593 -1.342095 -155.876156
12.095278 -1.272151 -155.877522
12.078429 -1.121703 -155.876465
12.248977 -0.729741 -155.868139
12.232127 -0.579293 -155.867081
12.215278 -0.428845 -155.866024
12.135963 -0.358902 -155.867390
12.119114 -0.208454 -155.866333
12.039799 -0.138511 -155.867699
12.022950 0.011937 -155.866642
12.006101 0.162385 -155.865585
12.051717 0.393338 -155.862105
12.034868 0.543786 -155.861048
12.018018 0.694234 -155.859991
11.938704 0.764177 -155.861357
11.921854 0.914625 -155.860299
11.842540 0.984568 -155.861665
11.763225 1.054511 -155.863032
11.683910 1.124454 -155.864398
11.667061 1.274902 -155.863340
11.587746 1.344845 -155.864706
11.570897 1.495293 -155.863649
11.554047 1.645741 -155.862592
11.474733 1.715684 -155.863958
11.457883 1.866132 -155.862901
11.378569 1.936075 -155.864267
11.361719 2.086523 -155.863210
11.407336 2.317476 -155.859730
11.390486 2.467924 -155.858673
11.373637 2.618372 -155.857616
11.294322 2.688315 -155.858982
11.215008 2.758258 -155.860348
11.198158 2.908706 -155.859291
11.118844 2.978649 -155.860657
11.039529 3.048593 -155.862023
10.897748 3.038031 -155.865812
10.818434 3.107974 -155.867178
10.847201 3.489375 -155.862640
10.892817 3.720327 -155.859160
10.875968 3.870775 -155.858103
10.859118 4.021223 -155.857046
10.779804 4.091167 -155.858412
10.700489 4.161110 -155.859778
10.683640 4.311558 -155.858721
10.604325 4.381501 -155.860087
10.525010 4.451444 -155.861453
10.508161 4.601892 -155.860396
10.428846 4.671835 -155.861762
10.411997 4.822283 -155.860705
10.332682 4.892226 -155.862071
10.315833 5.042674 -155.861014
10.298983 5.193122 -155.859956
10.282134 5.343570 -155.858899
10.202819 5.413513 -155.860265
10.185970 5.563961 -155.859208
10.106655 5.633904 -155.860574
10.027341 5.703847 -155.861940
9.948026 5.773791 -155.863306
9.868711 5.843734 -155.864672
9.851862 5.994182 -155.863615
9.772547 6.064125 -155.864981
9.693232 6.134068 -155.866347
9.676383 6.284516 -155.865290
9.597068 6.354459 -155.866656
9.517753 6.424402 -155.868022
9.438438 6.494345 -155.869388
9.359124 6.564289 -155.870754
9.279809 6.634232 -155.872120
9.200494 6.704175 -155.873486
9.121179 6.774118 -155.874852
9.041865 6.844061 -155.876218
8.962550 6.914004 -155.877584
8.883235 6.983948 -155.878950
8.866386 7.134396 -155.877893
8.787071 7.204339 -155.879259
8.707756 7.274282 -155.880625
8.628441 7.344225 -155.881991
8.486661 7.333663 -155.885780
8.407346 7.403607 -155.887146
8.328031 7.473550 -155.888512
8.248717 7.543493 -155.889878
8.169402 7.613436 -155.891244
8.090087 7.683379 -155.892610
8.010772 7.753322 -155.893976
7.931457 7.823265 -155.895343
7.852143 7.893209 -155.896709
7.772828 7.963152 -155.898075
7.631048 7.952590 -155.901864
7.551733 8.022533 -155.903230
7.472418 8.092476 -155.904596
7.393103 8.162420 -155.905962
7.313788 8.232363 -155.907328
7.234474 8.302306 -155.908694
7.155159 8.372249 -155.910060
7.013378 8.361687 -155.913849
6.934064 8.431631 -155.915215
6.854749 8.501574 -155.916581
6.712969 8.491012 -155.920370
6.633654 8.560955 -155.921736
6.554339 8.630899 -155.923102
6.475024 8.700842 -155.924468
6.333244 8.690280 -155.928257
6.253929 8.760223 -155.929623
6.049683 8.669157 -155.935836
5.907903 8.658595 -155.939625
5.703657 8.567529 -155.945837
5.499411 8.476462 -155.952049
5.420096 8.546406 -155.953415
5.278316 8.535844 -155.957204
5.199001 8.605787 -155.958570
5.119686 8.675730 -155.959936
4.977906 8.665169 -155.963726
4.898591 8.735112 -155.965092
4.569414 8.483036 -155.976150
4.427634 8.472474 -155.979939
4.285854 8.461913 -155.983728
4.206539 8.531856 -155.985094
4.064759 8.521294 -155.988884
9.127845 6.798468 -155.872285
9.038030 6.920335 -155.871228
8.934369 6.941250 -155.872594
8.830709 6.962165 -155.873960
8.740893 7.084032 -155.872903
8.637233 7.104947 -155.874269
8.533573 7.125862 -155.875635
8.485290 7.550585 -155.867308
8.395474 7.672452 -155.866251
8.305659 7.794319 -155.865194
8.215843 7.916186 -155.864137
8.112183 7.937101 -155.865503
8.022367 8.058969 -155.864446
7.932551 8.180836 -155.863389
7.828891 8.201751 -155.864755
7.739075 8.323618 -155.863697
7.635415 8.344533 -155.865063
7.545599 8.466400 -155.864006
7.441939 8.487315 -155.865372
7.338279 8.508230 -155.866738
7.248463 8.630097 -155.865681
7.144803 8.651012 -155.867047
7.041142 8.671927 -155.868413
6.937482 8.692843 -155.869779
6.833822 8.713758 -155.871145
6.730162 8.734673 -155.872511
6.626502 8.755588 -155.873877
6.522842 8.776503 -155.875243
6.419181 8.797418 -155.876609
6.315521 8.818333 -155.877975
6.225705 8.940200 -155.876918
6.122045 8.961116 -155.878284
6.018385 8.982031 -155.879650
5.914725 9.002946 -155.881016
5.811065 9.023861 -155.882382
5.707405 9.044776 -155.883748
5.603745 9.065691 -155.885114
5.500084 9.086606 -155.886480
5.396424 9.107522 -155.887846
5.292764 9.128437 -155.889212
5.189104 9.149352 -155.890578
5.085444 9.170267 -155.891945
4.981784 9.191182 -155.893311
4.864279 9.111145 -155.897100
4.760619 9.132060 -155.898466
4.656959 9.152976 -155.899832
4.553299 9.173891 -155.901198
4.449638 9.194806 -155.902564
4.345978 9.215721 -155.903930
4.242318 9.236636 -155.905296
4.138658 9.257551 -155.906662
4.034998 9.278466 -155.908028
3.931338 9.299381 -155.909394
3.827677 9.320297 -155.910760
3.724017 9.341212 -155.912126
3.606513 9.261175 -155.915915
3.502853 9.282090 -155.917281
3.399193 9.303005 -155.918647
3.281688 9.222968 -155.922436
3.178028 9.243884 -155.923802
3.074368 9.264799 -155.925168
2.956863 9.184762 -155.928957
2.839359 9.104725 -155.932746
2.735699 9.125640 -155.934112
2.618194 9.045603 -155.937902
2.514534 9.066519 -155.939268
2.410874 9.087434 -155.940634
2.307214 9.108349 -155.942000
2.189709 9.028312 -155.945789
2.086049 9.049227 -155.947155
1.885479 8.363479 -155.965483
1.767974 8.283442 -155.969272
1.650470 8.203405 -155.973061
1.532965 8.123369 -155.976850
1.429305 8.144284 -155.978216
1.311800 8.064247 -155.982005
1.208140 8.085162 -155.983371
1.090636 8.005125 -155.987160
0.986976 8.026040 -155.988526
0.869471 7.946004 -155.992316
0.765811 7.966919 -155.993682
0.648306 7.886882 -155.997471
0.544646 7.907797 -155.998837
0.427142 7.827760 -156.002626
0.309637 7.747724 -156.006415
0.178289 7.566735 -156.012627
0.046940 7.385746 -156.018840
-0.070565 7.305709 -156.022629
6.855867 8.881642 -155.905103
6.717150 8.942274 -155.904046
6.616920 8.908557 -155.905412
6.478204 8.969189 -155.904355
6.339488 9.029821 -155.903298
6.200771 9.090453 -155.902241
6.062055 9.151085 -155.901184
5.923339 9.211718 -155.900127
5.823109 9.178001 -155.901493
5.684393 9.238633 -155.900435
5.584163 9.204916 -155.901801
5.445446 9.265548 -155.900744
5.345217 9.231831 -155.902110
5.206500 9.292463 -155.901053
5.067784 9.353095 -155.899996
4.967554 9.319378 -155.901362
4.828838 9.380010 -155.900305
4.690121 9.440642 -155.899248
4.551405 9.501274 -155.898191
4.412689 9.561906 -155.897134
4.312459 9.528189 -155.898500
4.173743 9.588822 -155.897443
4.073513 9.555105 -155.898809
3.973283 9.521388 -155.900175
3.873053 9.487671 -155.901541
3.772823 9.453954 -155.902907
3.672593 9.420237 -155.904273
3.533877 9.480869 -155.903216
3.433647 9.447152 -155.904582
3.333417 9.413435 -155.905948
3.233187 9.379718 -155.907314
3.132957 9.346001 -155.908680
3.032727 9.312284 -155.910046
2.932497 9.278567 -155.911412
2.832267 9.244850 -155.912778
2.732037 9.211133 -155.914144
2.631807 9.177416 -155.915510
2.531577 9.143699 -155.916876
2.431348 9.109982 -155.918242
2.331118 9.076265 -155.919608
2.230888 9.042548 -155.920974
2.130658 9.008831 -155.922340
2.030428 8.975114 -155.923706
1.891712 9.035746 -155.922649
1.791482 9.002029 -155.924015
1.691252 8.968312 -155.925381
1.591022 8.934595 -155.926747
1.490792 8.900878 -155.928113
1.429048 8.772812 -155.931902
1.328818 8.739095 -155.933268
1.228588 8.705378 -155.934634
1.128359 8.671661 -155.936000
1.028129 8.637944 -155.937366
0.927899 8.604227 -155.938732
0.827669 8.570510 -155.940098
0.727439 8.536793 -155.941464
0.627209 8.503076 -155.942830
0.526979 8.469359 -155.944196
0.426749 8.435642 -155.945562
0.326519 8.401925 -155.946928
0.226289 8.368208 -155.948294
0.126059 8.334491 -155.949660
0.025829 8.300774 -155.951026
-0.074401 8.267057 -155.952392
-0.136144 8.138991 -155.956181
-0.236374 8.105274 -155.957547
-0.336604 8.071557 -155.958913
-0.436834 8.037840 -155.960279
-0.537064 8.004123 -155.961645
-0.637294 7.970406 -155.963011
-0.699037 7.842339 -155.966801
-0.799267 7.808622 -155.968167
-0.899497 7.774905 -155.969533
-0.999727 7.741188 -155.970899
-1.061471 7.613122 -155.974688
-1.161700 7.579405 -155.976054
-1.261930 7.545688 -155.977420
-1.323674 7.417622 -155.981209
-1.385417 7.289556 -155.984998
-1.485647 7.255839 -155.986364
-1.547391 7.127773 -155.990153
-1.609135 6.999707 -155.993942
-1.670878 6.871641 -155.997732
-1.617162 6.460527 -156.008790
0.510758 9.079254 -155.948328
0.279806 9.124871 -155.944848
0.209863 9.045556 -155.946214
0.059415 9.028707 -155.945157
-0.010528 8.949392 -155.946523
-0.080471 8.870077 -155.947889
-0.150415 8.790763 -155.949255
-0.220358 8.711448 -155.950621
-0.370806 8.694599 -155.949564
-0.440749 8.615284 -155.950930
-0.591197 8.598435 -155.949873
-0.661140 8.519120 -155.951239
-0.811588 8.502271 -155.950182
-0.881531 8.422957 -155.951548
-1.031979 8.406107 -155.950491
-1.101922 8.326793 -155.951857
-1.171865 8.247478 -155.953223
-1.241808 8.168163 -155.954589
-1.311751 8.088849 -155.955955
-1.381694 8.009534 -155.957321
-1.451637 7.930219 -155.958687
-1.602085 7.913370 -155.957630
-1.672028 7.834055 -155.958996
-1.741972 7.754741 -155.960362
-1.811915 7.675426 -155.961728
-1.881858 7.596111 -155.963094
-1.951801 7.516797 -155.964460
-2.021744 7.437482 -155.965826
-2.091687 7.358167 -155.967192
-2.161631 7.278853 -155.968558
-2.231574 7.199538 -155.969924
-2.301517 7.120223 -155.971290
-2.371460 7.040909 -155.972656
-2.441403 6.961594 -155.974022
-2.511346 6.882279 -155.975388
-2.581289 6.802965 -155.976754
-2.651233 6.723650 -155.978120
-2.721176 6.644335 -155.979486
-2.791119 6.565021 -155.980852
-2.861062 6.485706 -155.982218
-2.931005 6.406391 -155.983584
-3.000948 6.327076 -155.984950
-3.070892 6.247762 -155.986316
-3.140835 6.168447 -155.987682
-3.210778 6.089132 -155.989048
-3.280721 6.009818 -155.990414
-3.350664 5.930503 -155.991780
-3.420607 5.851188 -155.993146
-3.490551 5.771874 -155.994512
-3.560494 5.692559 -155.995878
-3.630437 5.613244 -155.997244
-3.700380 5.533930 -155.998610
-3.770323 5.454615 -155.999976
-3.840266 5.375300 -156.001342
-3.910209 5.295986 -156.002708
-3.980153 5.216671 -156.004074
-4.050096 5.137356 -156.005440
-4.120039 5.058041 -156.006806
-4.189982 4.978727 -156.008172
-4.259925 4.899412 -156.009538
-4.329868 4.820097 -156.010904
-4.319307 4.678317 -156.014693
-4.389250 4.599003 -156.016059
-4.459193 4.519688 -156.017425
-4.529136 4.440373 -156.018791
-4.599080 4.361058 -156.020157
-4.588518 4.219278 -156.023947
-4.658461 4.139964 -156.025313
-4.728404 4.060649 -156.026679
-4.717843 3.918869 -156.030468
-4.359158 5.277886 -155.992480
-4.380073 5.174226 -155.993846
-4.501940 5.084410 -155.992789
-4.522855 4.980750 -155.994155
-4.644722 4.890934 -155.993098
-4.665637 4.787274 -155.994464
-4.686552 4.683614 -155.995830
-4.707468 4.579953 -155.997196
-4.728383 4.476293 -155.998562
-4.749298 4.372633 -155.999928
-4.770213 4.268973 -156.001294
-4.791128 4.165313 -156.002660
-4.812043 4.061653 -156.004026
-4.832958 3.957993 -156.005392
-4.853874 3.854332 -156.006758
-4.874789 3.750672 -156.008124
-4.895704 3.647012 -156.009490
-5.017571 3.557196 -156.008433
-5.038486 3.453536 -156.009799
-5.059401 3.349876 -156.011165
-5.080316 3.246216 -156.012531
-5.101231 3.142556 -156.013897
-5.122146 3.038895 -156.015263
-5.042110 2.921391 -156.019052
-5.063025 2.817731 -156.020418
-5.083940 2.714071 -156.021784
-5.104855 2.610410 -156.023150
-5.024818 2.492906 -156.026939
-5.045733 2.389246 -156.028305
-5.066649 2.285586 -156.029671
-5.087564 2.181925 -156.031037
-5.108479 2.078265 -156.032403
-5.129394 1.974605 -156.033769
-5.150309 1.870945 -156.035135
-5.171224 1.767285 -156.036502
-5.192139 1.663625 -156.037868
-5.213054 1.559965 -156.039234
-5.133018 1.442460 -156.043023
-5.153933 1.338800 -156.044389
-5.073896 1.221295 -156.048178
-5.094811 1.117635 -156.049544
-5.115726 1.013975 -156.050910
-5.136641 0.910315 -156.052276
-5.157557 0.806655 -156.053642
-5.178472 0.702995 -156.055008
-5.199387 0.599334 -156.056374
-5.220302 0.495674 -156.057740
-5.241217 0.392014 -156.059106
-5.262132 0.288354 -156.060472
-5.283047 0.184694 -156.061838
-5.303963 0.081034 -156.063204
-5.324878 -0.022627 -156.064570
-5.244841 -0.140131 -156.068359
-5.265756 -0.243791 -156.069725
-5.286671 -0.347451 -156.071091
-5.307586 -0.451111 -156.072457
-5.328501 -0.554772 -156.073823
-5.349417 -0.658432 -156.075189
-5.269380 -0.775936 -156.078978
-5.290295 -0.879596 -156.080344
-5.311210 -0.983257 -156.081710
-5.332125 -1.086917 -156.083076
-5.353040 -1.190577 -156.084442
-5.373955 -1.294237 -156.085808
-5.293919 -1.411742 -156.089598
-5.314834 -1.515402 -156.090964
-5.335749 -1.619062 -156.092330
-5.356664 -1.722722 -156.093696
-5.377579 -1.826382 -156.095062
-5.398494 -1.930042 -156.096428
-5.419409 -2.033703 -156.097794
-5.339373 -2.151207 -156.101583
-5.360288 -2.254867 -156.102949
-5.280251 -2.372372 -156.106738
-4.897358 -2.531409 -156.117797
-6.103537 -0.445689 -156.013458
-6.164169 -0.584405 -156.012401
-6.130452 -0.684635 -156.013767
-6.096735 -0.784865 -156.015133
-6.063018 -0.885095 -156.016499
-6.123650 -1.023811 -156.015442
-6.089933 -1.124041 -156.016808
-6.056216 -1.224271 -156.018174
-6.022499 -1.324501 -156.019540
-5.988782 -1.424731 -156.020906
-5.955065 -1.524961 -156.022272
-5.921348 -1.625190 -156.023638
-5.887631 -1.725420 -156.025004
-5.853914 -1.825650 -156.026370
-5.914546 -1.964367 -156.025313
-5.880829 -2.064597 -156.026679
-5.847112 -2.164826 -156.028045
-5.813395 -2.265056 -156.029411
-5.779678 -2.365286 -156.030777
-5.745961 -2.465516 -156.032143
-5.712244 -2.565746 -156.033509
-5.678527 -2.665976 -156.034875
-5.644810 -2.766206 -156.036241
-5.611093 -2.866436 -156.037607
-5.577376 -2.966666 -156.038973
-5.543659 -3.066896 -156.040339
-5.509942 -3.167126 -156.041705
-5.476225 -3.267356 -156.043071
-5.442508 -3.367586 -156.044437
-5.408791 -3.467815 -156.045803
-5.375074 -3.568045 -156.047169
-5.341357 -3.668275 -156.048535
-5.213291 -3.730019 -156.052324
-5.179574 -3.830249 -156.053690
-5.145857 -3.930479 -156.055056
-5.112140 -4.030709 -156.056422
-5.078423 -4.130939 -156.057788
-5.044706 -4.231168 -156.059154
-5.010989 -4.331398 -156.060520
-4.977272 -4.431628 -156.061886
-4.943555 -4.531858 -156.063252
-4.909838 -4.632088 -156.064618
-4.876121 -4.732318 -156.065984
-4.842404 -4.832548 -156.067350
-4.714338 -4.894292 -156.071139
-4.680621 -4.994521 -156.072505
-4.646904 -5.094751 -156.073871
-4.613187 -5.194981 -156.075237
-4.485121 -5.256725 -156.079027
-4.451404 -5.356955 -156.080393
-4.417687 -5.457185 -156.081759
-4.289620 -5.518928 -156.085548
-4.161554 -5.580672 -156.089337
-4.127837 -5.680902 -156.090703
-4.094120 -5.781132 -156.092069
-4.060403 -5.881362 -156.093435
-4.026686 -5.981591 -156.094801
-3.992969 -6.081821 -156.096167
-3.959252 -6.182051 -156.097533
-3.831186 -6.243795 -156.101322
-3.797469 -6.344025 -156.102688
-3.669403 -6.405768 -156.106477
-3.635686 -6.505998 -156.107843
-3.601969 -6.606228 -156.109209
-3.568252 -6.706458 -156.110575
-3.440186 -6.768202 -156.114364
-3.406469 -6.868432 -156.115730
-3.278403 -6.930175 -156.119520
-3.244686 -7.030405 -156.120886
-3.210969 -7.130635 -156.122252
-3.082903 -7.192379 -156.126041
-3.049186 -7.292608 -156.127407
-3.015469 -7.392838 -156.128773
-4.430511 -5.893728 -156.005488
-4.413662 -6.044176 -156.004431
-4.334347 -6.114119 -156.005797
-4.317498 -6.264567 -156.004740
-4.238183 -6.334510 -156.006106
-4.221334 -6.484958 -156.005049
-4.142020 -6.554901 -156.006415
-4.062705 -6.624845 -156.007781
-3.983390 -6.694788 -156.009147
-3.904076 -6.764731 -156.010513
-3.824761 -6.834674 -156.011879
-3.745446 -6.904617 -156.013245
-3.728597 -7.055065 -156.012188
-3.649282 -7.125008 -156.013554
-3.632433 -7.275456 -156.012497
-3.553118 -7.345399 -156.013863
-3.473804 -7.415342 -156.015229
-3.456955 -7.565790 -156.014172
-3.377640 -7.635733 -156.015538
-3.298325 -7.705677 -156.016904
-3.219011 -7.775620 -156.018270
-3.202161 -7.926068 -156.017213
-3.122847 -7.996011 -156.018579
-3.043532 -8.065954 -156.019945
-3.026683 -8.216402 -156.018888
-2.947368 -8.286345 -156.020254
-2.868054 -8.356288 -156.021620
-2.788739 -8.426231 -156.022986
-2.709424 -8.496174 -156.024352
-2.630110 -8.566117 -156.025718
-2.550795 -8.636061 -156.027084
-2.471480 -8.706004 -156.028450
-2.392165 -8.775947 -156.029816
-2.312851 -8.845890 -156.031182
-2.233536 -8.915833 -156.032548
-2.216687 -9.066281 -156.031491
-2.137372 -9.136224 -156.032857
-2.058058 -9.206167 -156.034223
-1.978743 -9.276111 -156.035589
-1.899428 -9.346054 -156.036955
-1.820114 -9.415997 -156.038321
-1.740799 -9.485940 -156.039687
-1.661484 -9.555883 -156.041053
-1.582169 -9.625826 -156.042419
-1.502855 -9.695770 -156.043785
-1.423540 -9.765713 -156.045151
-1.344225 -9.835656 -156.046517
-1.202445 -9.825094 -156.050306
-1.123130 -9.895037 -156.051672
-1.043816 -9.964981 -156.053038
-0.964501 -10.034924 -156.054404
-0.885186 -10.104867 -156.055770
-0.805872 -10.174810 -156.057136
-0.726557 -10.244753 -156.058502
-0.647242 -10.314696 -156.059868
-0.567928 -10.384640 -156.061234
-0.426147 -10.374078 -156.065023
-0.346833 -10.444021 -156.066389
-0.205053 -10.433460 -156.070179
-0.125738 -10.503403 -156.071545
-0.046423 -10.573346 -156.072911
0.095357 -10.562784 -156.076700
0.174672 -10.632728 -156.078066
0.316452 -10.622166 -156.081855
0.395767 -10.692109 -156.083221
0.537547 -10.681548 -156.087010
0.616862 -10.751491 -156.088376
0.758642 -10.740929 -156.092165
0.837956 -10.810873 -156.093531
0.979737 -10.800311 -156.097320
1.121517 -10.789749 -156.101109
1.263297 -10.779188 -156.104899
-3.101712 -7.910594 -155.953937
-3.011896 -8.032461 -155.952880
-2.922080 -8.154328 -155.951823
-2.832264 -8.276195 -155.950765
-2.728604 -8.297110 -155.952131
-2.638788 -8.418977 -155.951074
-2.535128 -8.439892 -155.952440
-2.431468 -8.460807 -155.953806
-2.341652 -8.582674 -155.952749
-2.237992 -8.603589 -155.954115
-2.189709 -9.028312 -155.945789
-2.099893 -9.150179 -155.944732
-1.996233 -9.171094 -155.946098
-1.906417 -9.292961 -155.945041
-1.816601 -9.414828 -155.943984
-1.712941 -9.435743 -155.945350
-1.623125 -9.557610 -155.944292
-1.519465 -9.578526 -155.945658
-1.429649 -9.700393 -155.944601
-1.339834 -9.822260 -155.943544
-1.250018 -9.944127 -155.942487
-1.160202 -10.065994 -155.941430
-1.070386 -10.187861 -155.940373
-0.980570 -10.309728 -155.939316
-0.890754 -10.431595 -155.938259
-0.800939 -10.553462 -155.937202
-0.697278 -10.574377 -155.938568
-0.593618 -10.595292 -155.939934
-0.503803 -10.717159 -155.938876
-0.400142 -10.738074 -155.940243
-0.296482 -10.758990 -155.941609
-0.206666 -10.880857 -155.940551
-0.103006 -10.901772 -155.941917
0.000654 -10.922687 -155.943283
0.104314 -10.943602 -155.944649
0.194130 -11.065469 -155.943592
0.297790 -11.086384 -155.944958
0.401450 -11.107299 -155.946324
0.505110 -11.128214 -155.947690
0.608771 -11.149130 -155.949056
0.712431 -11.170045 -155.950422
0.816091 -11.190960 -155.951788
0.919751 -11.211875 -155.953154
1.023411 -11.232790 -155.954520
1.127071 -11.253705 -155.955886
1.230732 -11.274620 -155.957253
1.334392 -11.295535 -155.958619
1.438052 -11.316451 -155.959985
1.527868 -11.438318 -155.958927
1.631528 -11.459233 -155.960293
1.735188 -11.480148 -155.961659
1.838848 -11.501063 -155.963025
1.942508 -11.521978 -155.964392
2.046168 -11.542893 -155.965758
2.149829 -11.563808 -155.967124
2.253489 -11.584724 -155.968490
2.357149 -11.605639 -155.969856
2.460809 -11.626554 -155.971222
2.564469 -11.647469 -155.972588
2.668129 -11.668384 -155.973954
2.785634 -11.588347 -155.977743
2.889294 -11.609262 -155.979109
2.992954 -11.630178 -155.980475
3.096614 -11.651093 -155.981841
3.200275 -11.672008 -155.983207
3.303935 -11.692923 -155.984573
3.407595 -11.713838 -155.985939
3.511255 -11.734753 -155.987305
3.614915 -11.755668 -155.988671
3.718575 -11.776583 -155.990037
3.822236 -11.797499 -155.991403
3.925896 -11.818414 -155.992769
4.029556 -11.839329 -155.994135
4.147060 -11.759292 -155.997924
4.250720 -11.780207 -155.999290
4.368225 -11.700170 -156.003079
4.471885 -11.721086 -156.004445
4.575545 -11.742001 -156.005811
4.693050 -11.661964 -156.009600
4.796710 -11.682879 -156.010966
4.914214 -11.602842 -156.014756
5.100941 -11.018046 -156.030660
5.204601 -11.038961 -156.032026
5.308261 -11.059876 -156.033392
5.398077 -11.181743 -156.032335
5.515581 -11.101706 -156.036124
5.619241 -11.122622 -156.037490
5.736746 -11.042585 -156.041280
5.854250 -10.962548 -156.045069
5.957910 -10.983463 -156.046435
6.075415 -10.903426 -156.050224
6.179075 -10.924342 -156.051590
6.296580 -10.844305 -156.055379
6.414084 -10.764268 -156.059168
6.531589 -10.684231 -156.062957
6.649093 -10.604194 -156.066746
6.766598 -10.524158 -156.070536
6.884102 -10.444121 -156.074325
2.669870 -12.114965 -155.858069
2.808587 -12.175597 -155.857012
2.908817 -12.141880 -155.858378
3.009047 -12.108163 -155.859744
3.109276 -12.074446 -155.861110
3.209506 -12.040729 -155.862476
3.309736 -12.007012 -155.863842
3.409966 -11.973295 -155.865208
3.510196 -11.939578 -155.866574
3.648912 -12.000210 -155.865517
3.749142 -11.966493 -155.866883
3.849372 -11.932776 -155.868249
3.949602 -11.899059 -155.869615
4.049832 -11.865342 -155.870981
4.150062 -11.831625 -155.872347
4.250292 -11.797908 -155.873713
4.350522 -11.764191 -155.875079
4.450752 -11.730474 -155.876445
4.550982 -11.696757 -155.877811
4.651212 -11.663040 -155.879177
4.789928 -11.723672 -155.878120
4.890158 -11.689955 -155.879486
4.990388 -11.656238 -155.880852
5.090618 -11.622521 -155.882218
5.190848 -11.588804 -155.883584
5.291078 -11.555087 -155.884950
5.391307 -11.521370 -155.886316
5.491537 -11.487653 -155.887682
5.591767 -11.453936 -155.889048
5.691997 -11.420219 -155.890414
5.792227 -11.386502 -155.891780
5.892457 -11.352785 -155.893146
5.992687 -11.319068 -155.894512
6.092917 -11.285351 -155.895878
6.193147 -11.251634 -155.897244
6.293377 -11.217917 -155.898610
6.393607 -11.184200 -155.899976
6.493837 -11.150483 -155.901342
6.594067 -11.116766 -155.902708
6.694296 -11.083049 -155.904074
6.794526 -11.049332 -155.905440
6.894756 -11.015615 -155.906806
6.956500 -10.887549 -155.910595
7.056730 -10.853832 -155.911961
7.156960 -10.820115 -155.913327
7.257190 -10.786398 -155.914693
7.357420 -10.752681 -155.916059
7.457649 -10.718964 -155.917425
7.557879 -10.685247 -155.918791
7.658109 -10.651530 -155.920157
7.758339 -10.617813 -155.921523
7.858569 -10.584096 -155.922889
7.958799 -10.550379 -155.924256
8.020543 -10.422313 -155.928045
8.120773 -10.388596 -155.929411
8.221002 -10.354879 -155.930777
8.321232 -10.321162 -155.932143
8.421462 -10.287445 -155.933509
8.521692 -10.253728 -155.934875
8.621922 -10.220011 -155.936241
8.722152 -10.186294 -155.937607
8.822382 -10.152577 -155.938973
8.884126 -10.024511 -155.942762
8.984355 -9.990794 -155.944128
9.084585 -9.957077 -155.945494
9.146329 -9.829011 -155.949283
9.246559 -9.795294 -155.950649
9.346789 -9.761577 -155.952015
9.408532 -9.633510 -155.955804
9.508762 -9.599793 -155.957170
9.608992 -9.566076 -155.958536
9.670736 -9.438010 -155.962325
9.770966 -9.404293 -155.963691
9.794223 -9.181878 -155.969904
9.855966 -9.053812 -155.973693
9.917710 -8.925746 -155.977482
9.979453 -8.797680 -155.981271
10.079683 -8.763963 -155.982637
10.141427 -8.635897 -155.986426
10.203171 -8.507831 -155.990215
10.303400 -8.474114 -155.991581
10.365144 -8.346047 -155.995371
10.426888 -8.217981 -155.999160
10.488631 -8.089915 -156.002949
10.588861 -8.056198 -156.004315
10.650605 -7.928132 -156.008104
10.673862 -7.705717 -156.014316
10.697119 -7.483302 -156.020529
10.758862 -7.355236 -156.024318
10.820606 -7.227169 -156.028107
10.920836 -7.193452 -156.029473
10.982579 -7.065386 -156.033262
11.044323 -6.937320 -156.037051
11.106067 -6.809254 -156.040840
11.052351 -6.398141 -156.051899
10.998635 -5.987027 -156.062957
11.021893 -5.764612 -156.069170
