ply
format ascii 1.0
element vertex 1307
property float x
property float y
property float z
element face 0
property list uchar uint vertex_indices
end_header
3.042009 -11.969518 -154.837922
3.272962 -12.015135 -154.834441
3.423409 -11.998286 -154.833384
3.654362 -12.043902 -154.829904
3.724305 -11.964587 -154.831270
3.874753 -11.947738 -154.830213
4.105706 -11.993355 -154.826733
4.256153 -11.976505 -154.825676
4.406601 -11.959656 -154.824619
4.557049 -11.942807 -154.823561
4.788002 -11.988423 -154.820081
4.938449 -11.971574 -154.819024
5.088897 -11.954725 -154.817967
5.239345 -11.937876 -154.816910
5.389793 -11.921027 -154.815853
5.459736 -11.841712 -154.817219
5.529679 -11.762398 -154.818585
5.599622 -11.683083 -154.819951
5.750070 -11.666234 -154.818894
6.061527 -11.774316 -154.812990
6.211975 -11.757466 -154.811933
6.362423 -11.740617 -154.810876
6.432366 -11.661303 -154.812242
6.502309 -11.581988 -154.813608
6.652757 -11.565139 -154.812551
6.803205 -11.548290 -154.811494
6.953653 -11.531441 -154.810437
7.023596 -11.452126 -154.811803
7.174044 -11.435277 -154.810746
7.243987 -11.355962 -154.812112
7.313930 -11.276647 -154.813478
7.464378 -11.259798 -154.812421
7.534321 -11.180484 -154.813787
7.684769 -11.163634 -154.812730
7.835217 -11.146785 -154.811673
7.985665 -11.129936 -154.810615
8.055608 -11.050621 -154.811981
8.206056 -11.033772 -154.810924
8.275999 -10.954458 -154.812290
8.345942 -10.875143 -154.813656
8.496390 -10.858294 -154.812599
8.566333 -10.778979 -154.813965
8.636276 -10.699664 -154.815331
8.706219 -10.620350 -154.816697
8.776163 -10.541035 -154.818063
8.846106 -10.461720 -154.819429
8.996554 -10.444871 -154.818372
9.066497 -10.365556 -154.819738
9.136440 -10.286242 -154.821104
9.206383 -10.206927 -154.822470
9.276326 -10.127612 -154.823836
9.346269 -10.048298 -154.825202
9.416213 -9.968983 -154.826568
9.486156 -9.889668 -154.827934
9.636604 -9.872819 -154.826877
9.706547 -9.793505 -154.828243
9.776490 -9.714190 -154.829609
9.846433 -9.634875 -154.830975
9.916376 -9.555560 -154.832341
9.986319 -9.476246 -154.833707
10.056262 -9.396931 -154.835073
10.126206 -9.317616 -154.836439
10.276653 -9.300767 -154.835382
10.346597 -9.221453 -154.836748
10.416540 -9.142138 -154.838114
10.486483 -9.062823 -154.839480
10.556426 -8.983509 -154.840846
10.626369 -8.904194 -154.842212
10.696312 -8.824879 -154.843578
10.766256 -8.745564 -154.844944
10.836199 -8.666250 -154.846310
10.906142 -8.586935 -154.847676
10.976085 -8.507620 -154.849042
11.046028 -8.428306 -154.850408
11.115971 -8.348991 -154.851774
11.185915 -8.269676 -154.853140
11.175353 -8.127896 -154.856930
11.245296 -8.048581 -154.858296
11.315239 -7.969267 -154.859662
11.304678 -7.827487 -154.863451
11.374621 -7.748172 -154.864817
11.364059 -7.606392 -154.868606
11.434003 -7.527077 -154.869972
11.423441 -7.385297 -154.873761
11.493384 -7.305982 -154.875127
11.482823 -7.164202 -154.878916
11.472261 -7.022422 -154.882705
11.542204 -6.943107 -154.884071
11.612147 -6.863792 -154.885437
11.601586 -6.722012 -154.889227
11.671529 -6.642697 -154.890593
11.741472 -6.563383 -154.891959
11.730911 -6.421602 -154.895748
11.720349 -6.279822 -154.899537
11.790292 -6.200507 -154.900903
11.779731 -6.058727 -154.904692
11.849674 -5.979413 -154.906058
11.839112 -5.837632 -154.909847
11.828551 -5.695852 -154.913636
11.817989 -5.554072 -154.917425
11.807428 -5.412292 -154.921215
11.796866 -5.270511 -154.925004
11.866809 -5.191197 -154.926370
11.856248 -5.049416 -154.930159
11.845686 -4.907636 -154.933948
11.835125 -4.765856 -154.937737
11.824563 -4.624076 -154.941526
11.652992 -4.357364 -154.950162
11.642431 -4.215584 -154.953951
11.631869 -4.073804 -154.957740
11.621308 -3.932024 -154.961529
11.610746 -3.790244 -154.965318
11.600185 -3.648463 -154.969107
11.589623 -3.506683 -154.972897
6.620276 -11.553562 -154.833597
6.742143 -11.463746 -154.832540
6.864010 -11.373930 -154.831483
6.985877 -11.284114 -154.830426
7.208696 -11.208143 -154.826945
7.734370 -11.173704 -154.816196
7.856237 -11.083889 -154.815139
7.978104 -10.994073 -154.814082
8.099971 -10.904257 -154.813024
8.221839 -10.814441 -154.811967
8.343706 -10.724625 -154.810910
8.465573 -10.634809 -154.809853
8.486488 -10.531149 -154.811219
8.507403 -10.427489 -154.812585
8.629270 -10.337673 -154.811528
9.154945 -10.303235 -154.800778
9.276812 -10.213419 -154.799721
9.297727 -10.109759 -154.801087
9.318642 -10.006099 -154.802453
9.440509 -9.916283 -154.801396
9.461424 -9.812623 -154.802762
9.482339 -9.708962 -154.804128
10.108966 -9.688368 -154.790956
10.129881 -9.584708 -154.792322
10.251748 -9.494892 -154.791265
10.272663 -9.391232 -154.792631
10.394530 -9.301416 -154.791573
10.516397 -9.211600 -154.790516
10.638264 -9.121785 -154.789459
10.659179 -9.018124 -154.790825
10.781046 -8.928309 -154.789768
10.801962 -8.824648 -154.791134
10.822877 -8.720988 -154.792500
10.944744 -8.631173 -154.791443
10.965659 -8.527512 -154.792809
11.087526 -8.437697 -154.791752
11.209393 -8.347881 -154.790695
11.230308 -8.244221 -154.792061
11.352175 -8.154405 -154.791004
11.373090 -8.050745 -154.792370
11.494957 -7.960929 -154.791313
11.515872 -7.857269 -154.792679
11.536788 -7.753608 -154.794045
11.557703 -7.649948 -154.795411
11.578618 -7.546288 -154.796777
11.599533 -7.442628 -154.798143
11.721400 -7.352812 -154.797086
11.742315 -7.249152 -154.798452
11.763230 -7.145492 -154.799818
11.784145 -7.041832 -154.801184
11.805061 -6.938171 -154.802550
11.926928 -6.848356 -154.801493
11.947843 -6.744695 -154.802859
11.968758 -6.641035 -154.804225
11.989673 -6.537375 -154.805591
12.010588 -6.433715 -154.806957
12.031503 -6.330055 -154.808323
12.052418 -6.226395 -154.809689
12.073334 -6.122734 -154.811055
12.094249 -6.019074 -154.812421
12.115164 -5.915414 -154.813787
12.136079 -5.811754 -154.815153
12.156994 -5.708094 -154.816519
12.177909 -5.604434 -154.817885
12.198824 -5.500774 -154.819251
12.219739 -5.397113 -154.820617
12.139703 -5.279609 -154.824406
12.160618 -5.175949 -154.825772
12.181533 -5.072289 -154.827138
12.101496 -4.954784 -154.830927
12.122411 -4.851124 -154.832293
12.143326 -4.747464 -154.833659
12.063290 -4.629959 -154.837448
12.084205 -4.526299 -154.838814
12.105120 -4.422639 -154.840180
12.025083 -4.305134 -154.843969
12.045998 -4.201474 -154.845335
12.066913 -4.097814 -154.846701
11.986877 -3.980310 -154.850491
12.007792 -3.876650 -154.851857
12.028707 -3.772989 -154.853223
12.049622 -3.669329 -154.854589
11.969585 -3.551825 -154.858378
11.990500 -3.448165 -154.859744
12.011415 -3.344504 -154.861110
12.032331 -3.240844 -154.862476
11.952294 -3.123340 -154.866265
11.973209 -3.019680 -154.867631
11.994124 -2.916019 -154.868997
11.914087 -2.798515 -154.872786
11.935002 -2.694855 -154.874152
11.955918 -2.591195 -154.875518
11.875881 -2.473690 -154.879307
11.896796 -2.370030 -154.880673
11.816759 -2.252525 -154.884463
11.837674 -2.148865 -154.885829
11.757637 -2.031361 -154.889618
11.778553 -1.927701 -154.890984
11.698516 -1.810196 -154.894773
11.618479 -1.692692 -154.898562
11.538442 -1.575187 -154.902351
11.559357 -1.471527 -154.903717
11.479321 -1.354023 -154.907506
11.298332 -1.222674 -154.913719
11.319247 -1.119014 -154.915085
11.340162 -1.015353 -154.916451
11.361077 -0.911693 -154.917817
11.381992 -0.808033 -154.919183
11.402908 -0.704373 -154.920549
11.423823 -0.600713 -154.921915
11.343786 -0.483208 -154.925704
11.364701 -0.379548 -154.927070
11.284664 -0.262044 -154.930859
11.204627 -0.144539 -154.934648
11.023639 -0.013190 -154.940860
11.044554 0.090470 -154.942226
10.964517 0.207974 -154.946015
10.985432 0.311634 -154.947381
11.006347 0.415295 -154.948748
11.027263 0.518955 -154.950114
11.048178 0.622615 -154.951480
11.069093 0.726275 -154.952846
10.989056 0.843780 -154.956635
10.909019 0.961284 -154.960424
10.929934 1.064944 -154.961790
10.849898 1.182449 -154.965579
10.870813 1.286109 -154.966945
10.891728 1.389769 -154.968311
10.912643 1.493429 -154.969677
10.832606 1.610934 -154.973466
10.752569 1.728438 -154.977255
10.571581 1.859787 -154.983468
10.390592 1.991136 -154.989680
10.310555 2.108640 -154.993469
10.331470 2.212300 -154.994835
10.352385 2.315961 -154.996201
10.272349 2.433465 -154.999990
10.293264 2.537125 -155.001356
10.314179 2.640785 -155.002722
10.234142 2.758290 -155.006511
10.255057 2.861950 -155.007877
10.275972 2.965610 -155.009243
10.195936 3.083115 -155.013033
10.115899 3.200619 -155.016822
9.934910 3.331968 -155.023034
9.854873 3.449472 -155.026823
9.875789 3.553133 -155.028189
9.795752 3.670637 -155.031978
9.816667 3.774297 -155.033344
9.736630 3.891802 -155.037133
9.656593 4.009306 -155.040923
9.475605 4.140655 -155.047135
9.294616 4.272004 -155.053347
9.214579 4.389508 -155.057136
9.235494 4.493169 -155.058502
9.155457 4.610673 -155.062291
9.176373 4.714333 -155.063657
9.096336 4.831838 -155.067446
9.016299 4.949342 -155.071236
8.835310 5.080691 -155.077448
8.654322 5.212040 -155.083660
8.271429 5.371077 -155.094719
8.090440 5.502426 -155.100931
8.111356 5.606086 -155.102297
8.031319 5.723591 -155.106086
7.951282 5.841095 -155.109875
7.770293 5.972444 -155.116087
7.690257 6.089948 -155.119877
10.883671 -8.660832 -154.842184
11.510398 -8.291197 -154.826588
11.665379 -8.113995 -154.823108
11.914710 -7.898306 -154.817205
11.880993 -7.798076 -154.818571
11.941625 -7.659359 -154.817514
12.002257 -7.520643 -154.816457
12.062889 -7.381927 -154.815399
12.123521 -7.243211 -154.814342
12.184153 -7.104494 -154.813285
12.244785 -6.965778 -154.812228
12.211068 -6.865548 -154.813594
12.271700 -6.726832 -154.812537
12.426682 -6.549629 -154.809057
12.581663 -6.372426 -154.805577
12.642295 -6.233710 -154.804519
12.608578 -6.133480 -154.805886
12.669210 -5.994764 -154.804828
12.635493 -5.894534 -154.806194
12.696125 -5.755818 -154.805137
12.662408 -5.655588 -154.806503
12.628691 -5.555358 -154.807869
12.689323 -5.416642 -154.806812
12.655606 -5.316412 -154.808178
12.621889 -5.216182 -154.809544
12.588172 -5.115952 -154.810910
12.554455 -5.015722 -154.812276
12.615087 -4.877006 -154.811219
12.581370 -4.776776 -154.812585
12.642003 -4.638059 -154.811528
12.608286 -4.537829 -154.812894
12.574569 -4.437599 -154.814260
12.540852 -4.337370 -154.815626
12.601484 -4.198653 -154.814569
12.567767 -4.098423 -154.815935
12.534050 -3.998193 -154.817301
12.594682 -3.859477 -154.816244
12.560965 -3.759247 -154.817610
12.527248 -3.659017 -154.818976
12.493531 -3.558787 -154.820342
12.459814 -3.458557 -154.821708
12.426097 -3.358327 -154.823074
12.486729 -3.219611 -154.822017
12.453012 -3.119381 -154.823383
12.419295 -3.019151 -154.824749
12.385578 -2.918921 -154.826115
12.351861 -2.818691 -154.827481
12.318144 -2.718462 -154.828847
12.284427 -2.618232 -154.830213
12.250710 -2.518002 -154.831579
12.311342 -2.379285 -154.830522
12.277625 -2.279055 -154.831888
12.243908 -2.178826 -154.833254
12.115842 -2.117082 -154.837043
12.082125 -2.016852 -154.838409
12.142757 -1.878136 -154.837352
12.109040 -1.777906 -154.838718
12.075323 -1.677676 -154.840084
12.041606 -1.577446 -154.841450
12.102238 -1.438730 -154.840393
12.068521 -1.338500 -154.841759
12.034804 -1.238270 -154.843125
12.001087 -1.138040 -154.844491
11.967370 -1.037810 -154.845857
11.933653 -0.937580 -154.847223
11.899936 -0.837350 -154.848589
11.866219 -0.737120 -154.849955
11.832502 -0.636890 -154.851321
11.798785 -0.536660 -154.852687
11.859417 -0.397944 -154.851630
11.825700 -0.297714 -154.852996
11.791983 -0.197484 -154.854362
11.758266 -0.097254 -154.855728
11.724549 0.002976 -154.857094
11.690832 0.103205 -154.858460
11.657115 0.203435 -154.859826
11.623398 0.303665 -154.861192
11.589681 0.403895 -154.862558
11.650313 0.542612 -154.861501
11.616596 0.642841 -154.862867
11.582879 0.743071 -154.864233
11.549162 0.843301 -154.865599
11.515445 0.943531 -154.866965
11.481728 1.043761 -154.868331
11.542360 1.182477 -154.867274
11.508644 1.282707 -154.868640
11.474927 1.382937 -154.870006
11.441210 1.483167 -154.871372
11.407493 1.583397 -154.872738
11.373776 1.683627 -154.874104
11.340059 1.783857 -154.875470
11.306342 1.884087 -154.876836
11.272625 1.984317 -154.878202
11.238908 2.084547 -154.879568
11.205191 2.184777 -154.880934
11.171474 2.285007 -154.882300
11.137757 2.385237 -154.883666
11.104040 2.485466 -154.885032
11.070323 2.585696 -154.886398
11.036606 2.685926 -154.887764
11.002889 2.786156 -154.889130
10.969172 2.886386 -154.890496
10.935455 2.986616 -154.891862
10.901738 3.086846 -154.893228
10.868021 3.187076 -154.894594
10.834304 3.287306 -154.895960
10.800587 3.387536 -154.897326
10.766870 3.487766 -154.898692
10.638803 3.549509 -154.902481
10.605086 3.649739 -154.903848
10.571369 3.749969 -154.905214
10.443303 3.811713 -154.909003
10.409586 3.911943 -154.910369
10.375869 4.012172 -154.911735
10.342152 4.112402 -154.913101
10.308435 4.212632 -154.914467
10.274718 4.312862 -154.915833
10.241001 4.413092 -154.917199
10.207284 4.513322 -154.918565
10.173567 4.613552 -154.919931
10.045501 4.675296 -154.923720
10.011784 4.775525 -154.925086
9.978067 4.875755 -154.926452
9.944350 4.975985 -154.927818
9.816284 5.037729 -154.931607
9.782567 5.137959 -154.932973
9.748850 5.238189 -154.934339
9.715133 5.338419 -154.935705
9.681416 5.438649 -154.937071
9.647699 5.538878 -154.938437
9.519633 5.600622 -154.942226
9.485916 5.700852 -154.943592
9.452199 5.801082 -154.944958
9.418482 5.901312 -154.946324
9.290416 5.963055 -154.950114
9.162350 6.024799 -154.953903
9.128633 6.125029 -154.955269
9.000567 6.186772 -154.959058
8.778151 6.210030 -154.965270
8.744434 6.310259 -154.966636
8.616368 6.372003 -154.970425
8.488302 6.433747 -154.974214
8.454585 6.533976 -154.975580
8.326519 6.595720 -154.979370
8.292802 6.695950 -154.980736
8.259085 6.796180 -154.982102
8.131019 6.857923 -154.985891
8.097302 6.958153 -154.987257
7.969236 7.019897 -154.991046
7.935519 7.120127 -154.992412
7.807453 7.181870 -154.996201
7.585038 7.205128 -155.002413
7.456971 7.266871 -155.006202
7.328905 7.328615 -155.009992
7.200839 7.390358 -155.013781
7.167122 7.490588 -155.015147
7.039056 7.552332 -155.018936
6.910990 7.614075 -155.022725
6.877273 7.714305 -155.024091
6.749207 7.776049 -155.027880
12.857605 -4.249425 -154.887297
12.840755 -4.098977 -154.886240
12.761440 -4.029034 -154.887606
12.744591 -3.878586 -154.886549
12.727742 -3.728138 -154.885492
12.710893 -3.577690 -154.884434
12.694043 -3.427242 -154.883377
12.802125 -3.115785 -154.877474
12.785276 -2.965337 -154.876417
12.768427 -2.814889 -154.875360
12.689112 -2.744946 -154.876726
12.672263 -2.594498 -154.875669
12.592948 -2.524555 -154.877035
12.576099 -2.374107 -154.875978
12.559249 -2.223659 -154.874920
12.542400 -2.073211 -154.873863
12.525551 -1.922763 -154.872806
12.508702 -1.772315 -154.871749
12.491852 -1.621867 -154.870692
12.475003 -1.471419 -154.869635
12.458154 -1.320971 -154.868578
12.378839 -1.251028 -154.869944
12.361990 -1.100580 -154.868887
12.345141 -0.950132 -154.867830
12.328291 -0.799684 -154.866773
12.248977 -0.729741 -154.868139
12.232127 -0.579293 -154.867081
12.152812 -0.509350 -154.868447
12.073498 -0.439407 -154.869813
12.056648 -0.288959 -154.868756
12.039799 -0.138511 -154.867699
12.022950 0.011937 -154.866642
11.943635 0.081880 -154.868008
11.926786 0.232328 -154.866951
11.909937 0.382776 -154.865894
11.893087 0.533224 -154.864837
11.876238 0.683672 -154.863780
11.796923 0.753615 -154.865146
11.717609 0.823558 -154.866512
11.638294 0.893501 -154.867878
11.621444 1.043949 -154.866821
11.667061 1.274902 -154.863340
11.650212 1.425350 -154.862283
11.633362 1.575798 -154.861226
11.554047 1.645741 -154.862592
11.474733 1.715684 -154.863958
11.457883 1.866132 -154.862901
11.378569 1.936075 -154.864267
11.299254 2.006019 -154.865633
11.469801 2.397981 -154.857307
11.390486 2.467924 -154.858673
11.373637 2.618372 -154.857616
11.294322 2.688315 -154.858982
11.215008 2.758258 -154.860348
11.135693 2.828201 -154.861714
11.056378 2.898145 -154.863080
10.977063 2.968088 -154.864446
10.960214 3.118536 -154.863389
10.943365 3.268984 -154.862331
10.926515 3.419432 -154.861274
10.847201 3.489375 -154.862640
10.830351 3.639823 -154.861583
10.813502 3.790271 -154.860526
10.734187 3.860214 -154.861892
10.717338 4.010662 -154.860835
10.638023 4.080605 -154.862201
10.558709 4.150548 -154.863567
10.479394 4.220491 -154.864933
10.462544 4.370939 -154.863876
10.383230 4.440882 -154.865242
10.303915 4.510825 -154.866608
10.287066 4.661273 -154.865551
10.270216 4.811721 -154.864494
10.253367 4.962169 -154.863437
10.236518 5.112617 -154.862380
10.219669 5.263065 -154.861322
10.140354 5.333008 -154.862689
10.123505 5.483456 -154.861631
10.044190 5.553399 -154.862997
9.964875 5.623343 -154.864363
9.948026 5.773791 -154.863306
9.868711 5.843734 -154.864672
9.789396 5.913677 -154.866038
9.710081 5.983620 -154.867404
9.630767 6.053563 -154.868770
9.613917 6.204011 -154.867713
9.534603 6.273954 -154.869079
9.455288 6.343897 -154.870445
9.375973 6.413841 -154.871811
9.296658 6.483784 -154.873177
9.217343 6.553727 -154.874543
9.200494 6.704175 -154.873486
9.121179 6.774118 -154.874852
9.041865 6.844061 -154.876218
8.962550 6.914004 -154.877584
8.883235 6.983948 -154.878950
8.803920 7.053891 -154.880316
8.724605 7.123834 -154.881682
8.645291 7.193777 -154.883048
8.565976 7.263720 -154.884414
8.486661 7.333663 -154.885780
8.407346 7.403607 -154.887146
8.328031 7.473550 -154.888512
8.248717 7.543493 -154.889878
8.169402 7.613436 -154.891244
8.027621 7.602874 -154.895034
7.948307 7.672818 -154.896400
7.868992 7.742761 -154.897766
7.789677 7.812704 -154.899132
7.710362 7.882647 -154.900498
7.631048 7.952590 -154.901864
7.489267 7.942029 -154.905653
7.409952 8.011972 -154.907019
7.330638 8.081915 -154.908385
7.251323 8.151858 -154.909751
7.172008 8.221801 -154.911117
7.092693 8.291744 -154.912483
6.950913 8.281183 -154.916272
6.871598 8.351126 -154.917638
6.792283 8.421069 -154.919004
6.650503 8.410507 -154.922793
6.571188 8.480451 -154.924159
6.429408 8.469889 -154.927948
6.225162 8.378823 -154.934161
6.145847 8.448766 -154.935527
6.004067 8.438204 -154.939316
5.924752 8.508147 -154.940682
5.782972 8.497586 -154.944471
5.641191 8.487024 -154.948260
5.499411 8.476462 -154.952049
5.357631 8.465901 -154.955838
5.278316 8.535844 -154.957204
5.136536 8.525282 -154.960994
4.994755 8.514721 -154.964783
4.915441 8.584664 -154.966149
4.773660 8.574102 -154.969938
4.631880 8.563541 -154.973727
4.490100 8.552979 -154.977516
4.410785 8.622922 -154.978882
4.269004 8.612360 -154.982671
4.189690 8.682304 -154.984037
4.047909 8.671742 -154.987826
3.906129 8.661180 -154.991616
3.764349 8.650619 -154.995405
3.497637 8.479048 -155.004040
3.355857 8.468486 -155.007829
3.151611 8.377420 -155.014041
8.906681 6.739346 -154.877440
8.816865 6.861213 -154.876383
8.727049 6.983080 -154.875326
8.623389 7.003995 -154.876692
8.533573 7.125862 -154.875635
8.429913 7.146778 -154.877001
8.326253 7.167693 -154.878367
8.222593 7.188608 -154.879733
8.132777 7.310475 -154.878676
8.042961 7.432342 -154.877618
7.980834 7.756113 -154.871715
7.904862 7.978932 -154.868235
7.828891 8.201751 -154.864755
7.725231 8.222666 -154.866121
7.635415 8.344533 -154.865063
7.531755 8.365448 -154.866430
7.441939 8.487315 -154.865372
7.338279 8.508230 -154.866738
7.234618 8.529145 -154.868104
7.130958 8.550060 -154.869470
7.027298 8.570976 -154.870836
6.923638 8.591891 -154.872202
6.819978 8.612806 -154.873568
6.716318 8.633721 -154.874935
6.612657 8.654636 -154.876301
6.522842 8.776503 -154.875243
6.419181 8.797418 -154.876609
6.315521 8.818333 -154.877975
6.211861 8.839249 -154.879341
6.108201 8.860164 -154.880707
6.004541 8.881079 -154.882073
5.900881 8.901994 -154.883440
5.797221 8.922909 -154.884806
5.693560 8.943824 -154.886172
5.589900 8.964739 -154.887538
5.486240 8.985654 -154.888904
5.382580 9.006570 -154.890270
5.278920 9.027485 -154.891636
5.175260 9.048400 -154.893002
5.071599 9.069315 -154.894368
4.967939 9.090230 -154.895734
4.864279 9.111145 -154.897100
4.760619 9.132060 -154.898466
4.656959 9.152976 -154.899832
4.553299 9.173891 -154.901198
4.435794 9.093854 -154.904987
4.332134 9.114769 -154.906353
4.228474 9.135684 -154.907719
4.124814 9.156599 -154.909085
4.021153 9.177514 -154.910451
3.917493 9.198430 -154.911817
3.813833 9.219345 -154.913183
3.710173 9.240260 -154.914549
3.606513 9.261175 -154.915915
3.502853 9.282090 -154.917281
3.385348 9.202053 -154.921070
3.281688 9.222968 -154.922436
3.178028 9.243884 -154.923802
3.074368 9.264799 -154.925168
2.956863 9.184762 -154.928957
2.853203 9.205677 -154.930323
2.735699 9.125640 -154.934112
2.632038 9.146555 -154.935479
2.514534 9.066519 -154.939268
2.410874 9.087434 -154.940634
2.293369 9.007397 -154.944423
2.175865 8.927360 -154.948212
2.058360 8.847323 -154.952001
1.940856 8.767287 -154.955790
1.823351 8.687250 -154.959579
1.692003 8.506261 -154.965792
1.574498 8.426224 -154.969581
1.456994 8.346188 -154.973370
1.339489 8.266151 -154.977159
1.235829 8.287066 -154.978525
1.118324 8.207029 -154.982314
1.000820 8.126992 -154.986103
0.897160 8.147907 -154.987469
0.779655 8.067871 -154.991258
7.071556 8.632312 -154.911007
6.932839 8.692944 -154.909949
6.794123 8.753576 -154.908892
6.693893 8.719859 -154.910258
6.555177 8.780491 -154.909201
6.454947 8.746774 -154.910567
6.316231 8.807406 -154.909510
6.177514 8.868038 -154.908453
6.077284 8.834321 -154.909819
5.938568 8.894953 -154.908762
5.838338 8.861236 -154.910128
5.738108 8.827519 -154.911494
5.599392 8.888151 -154.910437
5.460676 8.948783 -154.909380
5.321959 9.009416 -154.908323
5.221729 8.975699 -154.909689
5.121500 8.941982 -154.911055
4.790351 9.474359 -154.897882
4.651635 9.534991 -154.896825
4.512919 9.595623 -154.895768
4.412689 9.561906 -154.897134
4.312459 9.528189 -154.898500
4.173743 9.588822 -154.897443
4.073513 9.555105 -154.898809
3.973283 9.521388 -154.900175
3.873053 9.487671 -154.901541
3.772823 9.453954 -154.902907
3.672593 9.420237 -154.904273
3.572363 9.386520 -154.905639
3.472133 9.352803 -154.907005
3.371903 9.319086 -154.908371
3.271673 9.285369 -154.909737
3.132957 9.346001 -154.908680
3.032727 9.312284 -154.910046
2.932497 9.278567 -154.911412
2.832267 9.244850 -154.912778
2.732037 9.211133 -154.914144
2.631807 9.177416 -154.915510
2.531577 9.143699 -154.916876
2.431348 9.109982 -154.918242
2.331118 9.076265 -154.919608
2.230888 9.042548 -154.920974
2.130658 9.008831 -154.922340
2.030428 8.975114 -154.923706
1.930198 8.941397 -154.925072
1.829968 8.907680 -154.926438
1.729738 8.873963 -154.927804
1.629508 8.840246 -154.929170
1.529278 8.806529 -154.930536
1.429048 8.772812 -154.931902
1.328818 8.739095 -154.933268
1.228588 8.705378 -154.934634
1.128359 8.671661 -154.936000
1.028129 8.637944 -154.937366
0.927899 8.604227 -154.938732
0.827669 8.570510 -154.940098
0.727439 8.536793 -154.941464
0.627209 8.503076 -154.942830
0.526979 8.469359 -154.944196
0.426749 8.435642 -154.945562
0.326519 8.401925 -154.946928
0.226289 8.368208 -154.948294
0.126059 8.334491 -154.949660
0.025829 8.300774 -154.951026
-0.074401 8.267057 -154.952392
-0.136144 8.138991 -154.956181
-0.236374 8.105274 -154.957547
-0.336604 8.071557 -154.958913
-0.436834 8.037840 -154.960279
-0.537064 8.004123 -154.961645
-0.598807 7.876056 -154.965435
-0.699037 7.842339 -154.966801
-0.799267 7.808622 -154.968167
-0.899497 7.774905 -154.969533
-0.961241 7.646839 -154.973322
-1.061471 7.613122 -154.974688
-1.161700 7.579405 -154.976054
-1.223444 7.451339 -154.979843
-1.323674 7.417622 -154.981209
-1.423904 7.383905 -154.982575
-1.524134 7.350188 -154.983941
-1.585877 7.222122 -154.987730
-1.686107 7.188405 -154.989096
-1.786337 7.154688 -154.990462
-1.848081 7.026622 -154.994251
-1.948311 6.992905 -154.995617
-2.048541 6.959188 -154.996983
-2.148771 6.925471 -154.998349
0.741711 9.033638 -154.951809
0.591263 9.016789 -154.950751
0.440815 8.999940 -154.949694
0.370872 8.920625 -154.951060
0.220424 8.903776 -154.950003
0.150481 8.824461 -154.951369
0.000033 8.807612 -154.950312
-0.150415 8.790763 -154.949255
-0.300862 8.773914 -154.948198
-0.451310 8.757064 -154.947141
-0.521253 8.677750 -154.948507
-0.591197 8.598435 -154.949873
-0.741644 8.581586 -154.948816
-0.811588 8.502271 -154.950182
-0.881531 8.422957 -154.951548
-1.031979 8.406107 -154.950491
-1.101922 8.326793 -154.951857
-1.171865 8.247478 -154.953223
-1.241808 8.168163 -154.954589
-1.392256 8.151314 -154.953532
-1.462199 8.072000 -154.954898
-1.532142 7.992685 -154.956264
-1.602085 7.913370 -154.957630
-1.672028 7.834055 -154.958996
-1.741972 7.754741 -154.960362
-1.811915 7.675426 -154.961728
-1.881858 7.596111 -154.963094
-1.951801 7.516797 -154.964460
-2.021744 7.437482 -154.965826
-2.091687 7.358167 -154.967192
-2.161631 7.278853 -154.968558
-2.231574 7.199538 -154.969924
-2.301517 7.120223 -154.971290
-2.371460 7.040909 -154.972656
-2.441403 6.961594 -154.974022
-2.511346 6.882279 -154.975388
-2.581289 6.802965 -154.976754
-2.651233 6.723650 -154.978120
-2.721176 6.644335 -154.979486
-2.791119 6.565021 -154.980852
-2.861062 6.485706 -154.982218
-2.931005 6.406391 -154.983584
-3.000948 6.327076 -154.984950
-3.070892 6.247762 -154.986316
-3.140835 6.168447 -154.987682
-3.210778 6.089132 -154.989048
-3.280721 6.009818 -154.990414
-3.350664 5.930503 -154.991780
-3.420607 5.851188 -154.993146
-3.490551 5.771874 -154.994512
-3.560494 5.692559 -154.995878
-3.630437 5.613244 -154.997244
-3.700380 5.533930 -154.998610
-3.770323 5.454615 -154.999976
-3.840266 5.375300 -155.001342
-3.910209 5.295986 -155.002708
-3.980153 5.216671 -155.004074
-4.050096 5.137356 -155.005440
-4.120039 5.058041 -155.006806
-4.189982 4.978727 -155.008172
-4.259925 4.899412 -155.009538
-4.329868 4.820097 -155.010904
-4.399812 4.740783 -155.012270
-4.469755 4.661468 -155.013636
-4.539698 4.582153 -155.015002
-4.529136 4.440373 -155.018791
-4.599080 4.361058 -155.020157
-4.669023 4.281744 -155.021523
-4.738966 4.202429 -155.022889
-4.728404 4.060649 -155.026679
-4.798347 3.981334 -155.028045
-4.787786 3.839554 -155.031834
-4.543770 4.877090 -154.995521
-4.665637 4.787274 -154.994464
-4.686552 4.683614 -154.995830
-4.707468 4.579953 -154.997196
-4.728383 4.476293 -154.998562
-4.850250 4.386477 -154.997505
-4.871165 4.282817 -154.998871
-4.892080 4.179157 -155.000237
-4.912995 4.075497 -155.001603
-4.933910 3.971837 -155.002969
-5.055777 3.882021 -155.001912
-5.076692 3.778361 -155.003278
-5.097608 3.674701 -155.004644
-5.118523 3.571041 -155.006010
-5.139438 3.467380 -155.007376
-5.160353 3.363720 -155.008742
-5.181268 3.260060 -155.010108
-5.202183 3.156400 -155.011474
-5.122146 3.038895 -155.015263
-5.143062 2.935235 -155.016629
-5.163977 2.831575 -155.017995
-5.184892 2.727915 -155.019361
-5.104855 2.610410 -155.023150
-5.125770 2.506750 -155.024516
-5.146685 2.403090 -155.025882
-5.167600 2.299430 -155.027248
-5.087564 2.181925 -155.031037
-5.108479 2.078265 -155.032403
-5.129394 1.974605 -155.033769
-5.150309 1.870945 -155.035135
-5.171224 1.767285 -155.036502
-5.192139 1.663625 -155.037868
-5.213054 1.559965 -155.039234
-5.233970 1.456304 -155.040600
-5.254885 1.352644 -155.041966
-5.275800 1.248984 -155.043332
-5.296715 1.145324 -155.044698
-5.216678 1.027819 -155.048487
-5.237593 0.924159 -155.049853
-5.258508 0.820499 -155.051219
-5.279424 0.716839 -155.052585
-5.300339 0.613179 -155.053951
-5.321254 0.509519 -155.055317
-5.342169 0.405858 -155.056683
-5.363084 0.302198 -155.058049
-5.383999 0.198538 -155.059415
-5.404914 0.094878 -155.060781
-5.425830 -0.008782 -155.062147
-5.345793 -0.126287 -155.065936
-5.366708 -0.229947 -155.067302
-5.387623 -0.333607 -155.068668
-5.408538 -0.437267 -155.070034
-5.429453 -0.540927 -155.071400
-5.450368 -0.644587 -155.072766
-5.471284 -0.748248 -155.074132
-5.492199 -0.851908 -155.075498
-5.513114 -0.955568 -155.076864
-5.433077 -1.073072 -155.080653
-5.453992 -1.176733 -155.082019
-5.474907 -1.280393 -155.083385
-5.394871 -1.397897 -155.087174
-5.415786 -1.501557 -155.088541
-5.335749 -1.619062 -155.092330
-5.356664 -1.722722 -155.093696
-5.276627 -1.840227 -155.097485
-4.893735 -1.999264 -155.108543
-4.813698 -2.116768 -155.112332
-4.834613 -2.220429 -155.113698
-4.855528 -2.324089 -155.115064
-4.876443 -2.427749 -155.116430
-4.897358 -2.531409 -155.117797
-4.918274 -2.635069 -155.119163
-4.838237 -2.752574 -155.122952
-4.859152 -2.856234 -155.124318
-4.779115 -2.973738 -155.128107
-5.685914 0.864502 -155.019183
-5.746546 0.725785 -155.018125
-5.712829 0.625555 -155.019492
-5.867810 0.448353 -155.016011
-5.928442 0.309636 -155.014954
-5.989074 0.170920 -155.013897
-5.955357 0.070690 -155.015263
-5.921640 -0.029540 -155.016629
-5.982272 -0.168256 -155.015572
-5.948555 -0.268486 -155.016938
-6.009187 -0.407202 -155.015881
-6.069820 -0.545918 -155.014824
-6.130452 -0.684635 -155.013767
-6.191084 -0.823351 -155.012710
-6.157367 -0.923581 -155.014076
-6.217999 -1.062297 -155.013018
-6.184282 -1.162527 -155.014384
-6.150565 -1.262757 -155.015751
-6.116848 -1.362987 -155.017117
-6.083131 -1.463217 -155.018483
-6.049414 -1.563447 -155.019849
-6.015697 -1.663677 -155.021215
-5.981980 -1.763907 -155.022581
-5.948263 -1.864137 -155.023947
-5.914546 -1.964367 -155.025313
-5.880829 -2.064597 -155.026679
-5.847112 -2.164826 -155.028045
-5.907744 -2.303543 -155.026988
-5.874027 -2.403773 -155.028354
-5.840310 -2.504003 -155.029720
-5.806593 -2.604233 -155.031086
-5.772876 -2.704462 -155.032452
-5.739159 -2.804692 -155.033818
-5.705442 -2.904922 -155.035184
-5.671725 -3.005152 -155.036550
-5.638008 -3.105382 -155.037916
-5.604291 -3.205612 -155.039282
-5.476225 -3.267356 -155.043071
-5.442508 -3.367586 -155.044437
-5.408791 -3.467815 -155.045803
-5.375074 -3.568045 -155.047169
-5.341357 -3.668275 -155.048535
-5.307640 -3.768505 -155.049901
-5.273923 -3.868735 -155.051267
-5.240206 -3.968965 -155.052633
-5.206489 -4.069195 -155.053999
-5.172772 -4.169425 -155.055365
-5.139055 -4.269655 -155.056731
-5.105338 -4.369885 -155.058097
-5.071621 -4.470115 -155.059463
-4.943555 -4.531858 -155.063252
-4.909838 -4.632088 -155.064618
-4.876121 -4.732318 -155.065984
-4.842404 -4.832548 -155.067350
-4.808687 -4.932778 -155.068716
-4.774970 -5.033008 -155.070082
-4.741253 -5.133238 -155.071448
-4.707536 -5.233468 -155.072814
-4.579470 -5.295211 -155.076603
-4.545753 -5.395441 -155.077969
-4.512036 -5.495671 -155.079335
-4.478319 -5.595901 -155.080701
-4.350253 -5.657645 -155.084491
-4.316536 -5.757874 -155.085857
-4.282819 -5.858104 -155.087223
-4.249102 -5.958334 -155.088589
-4.121035 -6.020078 -155.092378
-4.087318 -6.120308 -155.093744
-3.959252 -6.182051 -155.097533
-3.925535 -6.282281 -155.098899
-3.797469 -6.344025 -155.102688
-3.763752 -6.444255 -155.104054
-3.730035 -6.544485 -155.105420
-3.601969 -6.606228 -155.109209
-3.568252 -6.706458 -155.110575
-3.440186 -6.768202 -155.114364
-3.406469 -6.868432 -155.115730
-3.372752 -6.968661 -155.117096
-3.244686 -7.030405 -155.120886
-5.810503 -2.507359 -155.003278
-5.856119 -2.738311 -154.999798
-5.839270 -2.888759 -154.998740
-5.759956 -2.958702 -155.000107
-5.743106 -3.109150 -154.999049
-5.726257 -3.259598 -154.997992
-5.709408 -3.410046 -154.996935
-5.630093 -3.479989 -154.998301
-5.613244 -3.630437 -154.997244
-5.596395 -3.780885 -154.996187
-5.579546 -3.931333 -154.995130
-5.500231 -4.001276 -154.996496
-5.483382 -4.151724 -154.995439
-5.404067 -4.221667 -154.996805
-5.387218 -4.372115 -154.995748
-5.307904 -4.442058 -154.997114
-5.228589 -4.512001 -154.998480
-5.211740 -4.662449 -154.997423
-5.132425 -4.732392 -154.998789
-5.115576 -4.882840 -154.997732
-5.036261 -4.952783 -154.999098
-4.956947 -5.022726 -155.000464
-4.877632 -5.092669 -155.001830
-4.860783 -5.243117 -155.000772
-4.843934 -5.393565 -154.999715
-4.827085 -5.544013 -154.998658
-4.747770 -5.613956 -155.000024
-4.730921 -5.764404 -154.998967
-4.651606 -5.834347 -155.000333
-4.572291 -5.904290 -155.001699
-4.492977 -5.974233 -155.003065
-4.413662 -6.044176 -155.004431
-4.396813 -6.194624 -155.003374
-4.317498 -6.264567 -155.004740
-4.238183 -6.334510 -155.006106
-4.158869 -6.404454 -155.007472
-4.142020 -6.554901 -155.006415
-4.062705 -6.624845 -155.007781
-3.983390 -6.694788 -155.009147
-3.966541 -6.845236 -155.008090
-3.949692 -6.995683 -155.007033
-3.870377 -7.065627 -155.008399
-3.791063 -7.135570 -155.009765
-3.774213 -7.286018 -155.008708
-3.694899 -7.355961 -155.010074
-3.615584 -7.425904 -155.011440
-3.536269 -7.495847 -155.012806
-3.519420 -7.646295 -155.011749
-3.440106 -7.716238 -155.013115
-3.360791 -7.786181 -155.014481
-3.281476 -7.856124 -155.015847
-3.202161 -7.926068 -155.017213
-3.122847 -7.996011 -155.018579
-3.105998 -8.146459 -155.017522
-3.026683 -8.216402 -155.018888
-2.947368 -8.286345 -155.020254
-2.930519 -8.436793 -155.019197
-2.851204 -8.506736 -155.020563
-2.771890 -8.576679 -155.021929
-2.692575 -8.646622 -155.023295
-2.613260 -8.716565 -155.024661
-2.533946 -8.786508 -155.026027
-2.454631 -8.856452 -155.027393
-2.375316 -8.926395 -155.028759
-2.296002 -8.996338 -155.030125
-2.216687 -9.066281 -155.031491
-2.199838 -9.216729 -155.030434
-2.120523 -9.286672 -155.031800
-2.041208 -9.356615 -155.033166
-1.961894 -9.426558 -155.034532
-1.882579 -9.496502 -155.035898
-1.803264 -9.566445 -155.037264
-1.723950 -9.636388 -155.038630
-1.644635 -9.706331 -155.039996
-1.565320 -9.776274 -155.041362
-1.486006 -9.846217 -155.042728
-1.406691 -9.916161 -155.044094
-1.264911 -9.905599 -155.047883
-1.185596 -9.975542 -155.049249
-1.106281 -10.045485 -155.050615
-1.026967 -10.115428 -155.051981
-0.947652 -10.185372 -155.053347
-0.868337 -10.255315 -155.054713
-0.789023 -10.325258 -155.056079
-0.647242 -10.314696 -155.059868
-0.567928 -10.384640 -155.061234
-0.488613 -10.454583 -155.062600
-0.409298 -10.524526 -155.063966
-0.329984 -10.594469 -155.065332
-0.188203 -10.583908 -155.069121
-0.108889 -10.653851 -155.070487
-0.029574 -10.723794 -155.071853
0.112206 -10.713232 -155.075643
0.191521 -10.783175 -155.077009
0.270836 -10.853119 -155.078375
0.412616 -10.842557 -155.082164
0.491930 -10.912500 -155.083530
0.633711 -10.901939 -155.087319
0.775491 -10.891377 -155.091108
0.979737 -10.800311 -155.097320
1.121517 -10.789749 -155.101109
1.200832 -10.859693 -155.102475
1.342612 -10.849131 -155.106265
1.421927 -10.919074 -155.107631
1.501241 -10.989017 -155.108997
1.580556 -11.058961 -155.110363
1.722336 -11.048399 -155.114152
1.801651 -11.118342 -155.115518
1.943431 -11.107781 -155.119307
2.085211 -11.097219 -155.123096
2.289457 -11.006153 -155.129308
2.431237 -10.995591 -155.133097
2.573017 -10.985030 -155.136887
2.714798 -10.974468 -155.140676
2.856578 -10.963907 -155.144465
-3.087867 -7.809642 -154.956360
-2.998052 -7.931509 -154.955303
-2.894391 -7.952424 -154.956669
-2.804576 -8.074291 -154.955612
-2.700915 -8.095206 -154.956978
-2.611100 -8.217073 -154.955921
-2.507439 -8.237988 -154.957287
-2.459157 -8.662711 -154.948960
-2.369341 -8.784578 -154.947903
-2.279525 -8.906445 -154.946846
-2.175865 -8.927360 -154.948212
-2.086049 -9.049227 -154.947155
-1.982389 -9.070142 -154.948521
-1.892573 -9.192009 -154.947464
-1.788913 -9.212924 -154.948830
-1.699097 -9.334792 -154.947773
-1.609281 -9.456659 -154.946716
-1.533310 -9.679478 -154.943235
-1.457338 -9.902296 -154.939755
-1.381367 -10.125115 -154.936275
-1.291551 -10.246982 -154.935218
-1.187891 -10.267898 -154.936584
-1.098075 -10.389765 -154.935527
-0.994415 -10.410680 -154.936893
-0.904599 -10.532547 -154.935836
-0.800939 -10.553462 -154.937202
-0.711123 -10.675329 -154.936144
-0.607463 -10.696244 -154.937510
-0.503803 -10.717159 -154.938876
-0.400142 -10.738074 -154.940243
-0.310327 -10.859941 -154.939185
-0.206666 -10.880857 -154.940551
-0.103006 -10.901772 -154.941917
0.000654 -10.922687 -154.943283
0.090470 -11.044554 -154.942226
0.194130 -11.065469 -154.943592
0.297790 -11.086384 -154.944958
0.401450 -11.107299 -154.946324
0.491266 -11.229166 -154.945267
0.594926 -11.250081 -154.946633
0.698586 -11.270997 -154.947999
0.802247 -11.291912 -154.949365
0.905907 -11.312827 -154.950731
1.023411 -11.232790 -154.954520
1.127071 -11.253705 -154.955886
1.216887 -11.375572 -154.954829
1.320547 -11.396487 -154.956195
1.424208 -11.417403 -154.957561
1.527868 -11.438318 -154.958927
1.631528 -11.459233 -154.960293
1.735188 -11.480148 -154.961659
1.825004 -11.602015 -154.960602
1.928664 -11.622930 -154.961968
2.032324 -11.643845 -154.963334
2.135984 -11.664760 -154.964700
2.239644 -11.685675 -154.966066
2.343305 -11.706591 -154.967432
2.460809 -11.626554 -154.971222
2.564469 -11.647469 -154.972588
2.668129 -11.668384 -154.973954
2.771790 -11.689299 -154.975320
2.875450 -11.710214 -154.976686
2.979110 -11.731129 -154.978052
3.082770 -11.752045 -154.979418
3.186430 -11.772960 -154.980784
3.290090 -11.793875 -154.982150
3.393751 -11.814790 -154.983516
3.497411 -11.835705 -154.984882
3.601071 -11.856620 -154.986248
3.704731 -11.877535 -154.987614
3.808391 -11.898451 -154.988980
3.912051 -11.919366 -154.990346
4.029556 -11.839329 -154.994135
4.133216 -11.860244 -154.995501
4.236876 -11.881159 -154.996867
4.354381 -11.801122 -155.000656
4.458041 -11.822037 -155.002022
4.575545 -11.742001 -155.005811
4.720738 -11.460060 -155.014447
4.838243 -11.380023 -155.018236
4.941903 -11.400938 -155.019602
5.059408 -11.320902 -155.023391
5.163068 -11.341817 -155.024757
5.280572 -11.261780 -155.028546
5.398077 -11.181743 -155.032335
5.543270 -10.899803 -155.040971
5.646930 -10.920718 -155.042337
5.750590 -10.941633 -155.043703
5.868095 -10.861596 -155.047492
5.985599 -10.781559 -155.051281
6.103104 -10.701523 -155.055070
-0.636064 -10.437379 -154.889652
-0.497347 -10.498011 -154.888595
-0.358631 -10.558643 -154.887538
-0.219915 -10.619275 -154.886480
-0.081198 -10.679907 -154.885423
0.057518 -10.740539 -154.884366
0.196234 -10.801171 -154.883309
0.296464 -10.767454 -154.884675
0.435180 -10.828086 -154.883618
0.573897 -10.888719 -154.882561
0.712613 -10.949351 -154.881504
0.851329 -11.009983 -154.880447
0.990046 -11.070615 -154.879390
1.128762 -11.131247 -154.878332
1.267478 -11.191879 -154.877275
1.367708 -11.158162 -154.878641
1.467938 -11.124445 -154.880007
1.606654 -11.185077 -154.878950
1.706884 -11.151360 -154.880316
1.807114 -11.117643 -154.881682
2.099776 -11.555672 -154.870933
2.238492 -11.616304 -154.869876
2.377209 -11.676936 -154.868819
2.554411 -11.831917 -154.865338
2.770100 -12.081248 -154.859435
2.870330 -12.047531 -154.860801
3.009047 -12.108163 -154.859744
3.109276 -12.074446 -154.861110
3.209506 -12.040729 -154.862476
3.309736 -12.007012 -154.863842
3.448453 -12.067644 -154.862785
3.548683 -12.033927 -154.864151
3.648912 -12.000210 -154.865517
3.749142 -11.966493 -154.866883
3.849372 -11.932776 -154.868249
3.949602 -11.899059 -154.869615
4.049832 -11.865342 -154.870981
4.150062 -11.831625 -154.872347
4.288778 -11.892257 -154.871290
4.389008 -11.858540 -154.872656
4.489238 -11.824823 -154.874022
4.589468 -11.791106 -154.875388
4.689698 -11.757389 -154.876754
4.789928 -11.723672 -154.878120
4.890158 -11.689955 -154.879486
4.990388 -11.656238 -154.880852
5.090618 -11.622521 -154.882218
5.190848 -11.588804 -154.883584
5.291078 -11.555087 -154.884950
5.391307 -11.521370 -154.886316
5.491537 -11.487653 -154.887682
5.591767 -11.453936 -154.889048
5.691997 -11.420219 -154.890414
5.792227 -11.386502 -154.891780
5.892457 -11.352785 -154.893146
5.992687 -11.319068 -154.894512
6.092917 -11.285351 -154.895878
6.193147 -11.251634 -154.897244
6.293377 -11.217917 -154.898610
6.393607 -11.184200 -154.899976
6.493837 -11.150483 -154.901342
6.594067 -11.116766 -154.902708
6.694296 -11.083049 -154.904074
6.794526 -11.049332 -154.905440
6.894756 -11.015615 -154.906806
6.994986 -10.981898 -154.908172
7.095216 -10.948181 -154.909538
7.195446 -10.914464 -154.910904
7.295676 -10.880747 -154.912270
7.395906 -10.847030 -154.913636
7.496136 -10.813313 -154.915002
7.596366 -10.779596 -154.916368
7.658109 -10.651530 -154.920157
7.758339 -10.617813 -154.921523
7.858569 -10.584096 -154.922889
7.958799 -10.550379 -154.924256
8.059029 -10.516662 -154.925622
8.159259 -10.482945 -154.926988
8.259489 -10.449228 -154.928354
8.359719 -10.415511 -154.929720
8.459949 -10.381794 -154.931086
8.560179 -10.348077 -154.932452
8.621922 -10.220011 -154.936241
8.722152 -10.186294 -154.937607
8.822382 -10.152577 -154.938973
8.922612 -10.118860 -154.940339
9.022842 -10.085143 -154.941705
9.084585 -9.957077 -154.945494
9.184815 -9.923360 -154.946860
9.285045 -9.889643 -154.948226
9.385275 -9.855926 -154.949592
9.447019 -9.727860 -154.953381
9.547249 -9.694143 -154.954747
9.647479 -9.660426 -154.956113
9.709222 -9.532359 -154.959902
9.655507 -9.121246 -154.970961
9.717250 -8.993180 -154.974750
9.778994 -8.865114 -154.978539
9.879224 -8.831397 -154.979905
9.940967 -8.703331 -154.983694
10.041197 -8.669614 -154.985060
10.102941 -8.541548 -154.988849
10.203171 -8.507831 -154.990215
10.264914 -8.379764 -154.994005
10.365144 -8.346047 -154.995371
10.426888 -8.217981 -154.999160
10.488631 -8.089915 -155.002949
10.550375 -7.961849 -155.006738
10.612118 -7.833783 -155.010527
10.673862 -7.705717 -155.014316
10.735605 -7.577651 -155.018105
10.797349 -7.449585 -155.021895
10.705147 -6.944122 -155.035376
10.728404 -6.721707 -155.041588
10.713175 -6.404943 -155.050224
10.774918 -6.276876 -155.054013
10.836662 -6.148810 -155.057802
10.898405 -6.020744 -155.061591
10.921663 -5.798329 -155.067804
