ply
format ascii 1.0
element vertex 1260
property float x
property float y
property float z
element face 0
property list uchar uint vertex_indices
end_header
3.332343 -11.794040 -153.839597
3.885315 -12.089518 -153.826424
4.035762 -12.072669 -153.825367
4.186210 -12.055820 -153.824310
4.336658 -12.038971 -153.823253
4.487106 -12.022122 -153.822195
4.637554 -12.005273 -153.821138
4.788002 -11.988423 -153.820081
4.938449 -11.971574 -153.819024
5.088897 -11.954725 -153.817967
5.239345 -11.937876 -153.816910
5.389793 -11.921027 -153.815853
5.540241 -11.904178 -153.814796
5.690689 -11.887329 -153.813739
5.760632 -11.808014 -153.815105
5.911080 -11.791165 -153.814047
6.061527 -11.774316 -153.812990
6.131471 -11.695001 -153.814356
6.281918 -11.678152 -153.813299
6.351862 -11.598837 -153.814665
6.502309 -11.581988 -153.813608
6.572253 -11.502673 -153.814974
6.722700 -11.485824 -153.813917
6.873148 -11.468975 -153.812860
7.023596 -11.452126 -153.811803
7.093539 -11.372811 -153.813169
7.243987 -11.355962 -153.812112
7.313930 -11.276647 -153.813478
7.383873 -11.197333 -153.814844
7.534321 -11.180484 -153.813787
7.604264 -11.101169 -153.815153
7.754712 -11.084320 -153.814096
7.905160 -11.067471 -153.813039
7.975103 -10.988156 -153.814405
8.125551 -10.971307 -153.813347
8.195494 -10.891992 -153.814713
8.265437 -10.812677 -153.816079
8.415885 -10.795828 -153.815022
8.485828 -10.716513 -153.816388
8.555772 -10.637199 -153.817754
8.706219 -10.620350 -153.816697
8.776163 -10.541035 -153.818063
8.846106 -10.461720 -153.819429
8.916049 -10.382406 -153.820795
8.985992 -10.303091 -153.822161
9.055935 -10.223776 -153.823527
9.125878 -10.144462 -153.824893
9.276326 -10.127612 -153.823836
9.346269 -10.048298 -153.825202
9.416213 -9.968983 -153.826568
9.486156 -9.889668 -153.827934
9.636604 -9.872819 -153.826877
9.706547 -9.793505 -153.828243
9.776490 -9.714190 -153.829609
9.846433 -9.634875 -153.830975
9.916376 -9.555560 -153.832341
9.986319 -9.476246 -153.833707
10.056262 -9.396931 -153.835073
10.126206 -9.317616 -153.836439
10.196149 -9.238302 -153.837805
10.266092 -9.158987 -153.839171
10.336035 -9.079672 -153.840537
10.405978 -9.000358 -153.841903
10.556426 -8.983509 -153.840846
10.626369 -8.904194 -153.842212
10.696312 -8.824879 -153.843578
10.685751 -8.683099 -153.847367
10.755694 -8.603784 -153.848733
10.825637 -8.524470 -153.850099
10.895580 -8.445155 -153.851466
10.965524 -8.365840 -153.852832
10.954962 -8.224060 -153.856621
11.024905 -8.144745 -153.857987
11.094848 -8.065431 -153.859353
11.164791 -7.986116 -153.860719
11.154230 -7.844336 -153.864508
11.224173 -7.765021 -153.865874
11.294116 -7.685706 -153.867240
11.364059 -7.606392 -153.868606
11.434003 -7.527077 -153.869972
11.423441 -7.385297 -153.873761
11.412879 -7.243516 -153.877550
11.482823 -7.164202 -153.878916
11.552766 -7.084887 -153.880282
11.542204 -6.943107 -153.884071
11.612147 -6.863792 -153.885437
11.682091 -6.784477 -153.886803
11.671529 -6.642697 -153.890593
11.741472 -6.563383 -153.891959
11.730911 -6.421602 -153.895748
11.720349 -6.279822 -153.899537
11.790292 -6.200507 -153.900903
11.779731 -6.058727 -153.904692
11.688665 -5.854481 -153.910904
11.678103 -5.712701 -153.914693
11.667542 -5.570921 -153.918483
11.656980 -5.429141 -153.922272
11.726923 -5.349826 -153.923638
11.716362 -5.208046 -153.927427
11.625295 -5.003800 -153.933639
11.614734 -4.862020 -153.937428
11.604172 -4.720240 -153.941217
11.593611 -4.578459 -153.945007
11.663554 -4.499145 -153.946373
11.652992 -4.357364 -153.950162
11.642431 -4.215584 -153.953951
11.631869 -4.073804 -153.957740
11.621308 -3.932024 -153.961529
11.610746 -3.790244 -153.965318
11.600185 -3.648463 -153.969107
11.589623 -3.506683 -153.972897
11.579062 -3.364903 -153.976686
11.326986 -3.035726 -153.987744
11.235920 -2.831480 -153.993956
11.064349 -2.564769 -154.002592
11.134292 -2.485454 -154.003958
11.123731 -2.343674 -154.007747
11.113169 -2.201894 -154.011536
11.183112 -2.122579 -154.012902
7.957189 -11.097733 -153.812716
8.180008 -11.021761 -153.809235
8.200923 -10.918101 -153.810601
8.322790 -10.828285 -153.809544
8.343706 -10.724625 -153.810910
8.364621 -10.620965 -153.812276
8.385536 -10.517305 -153.813642
8.406451 -10.413645 -153.815008
8.831174 -10.365362 -153.806682
9.154945 -10.303235 -153.800778
9.276812 -10.213419 -153.799721
9.499631 -10.137447 -153.796241
9.621498 -10.047632 -153.795184
9.642413 -9.943971 -153.796550
9.764280 -9.854156 -153.795493
9.886147 -9.764340 -153.794436
9.907062 -9.660680 -153.795802
10.028929 -9.570864 -153.794745
10.049844 -9.467204 -153.796111
10.070759 -9.363543 -153.797477
10.192626 -9.273728 -153.796420
10.314493 -9.183912 -153.795363
10.537312 -9.107940 -153.791882
10.659179 -9.018124 -153.790825
10.781046 -8.928309 -153.789768
10.902913 -8.838493 -153.788711
10.923829 -8.734833 -153.790077
11.045696 -8.645017 -153.789020
11.066611 -8.541357 -153.790386
11.087526 -8.437697 -153.791752
11.108441 -8.334036 -153.793118
11.129356 -8.230376 -153.794484
11.251223 -8.140560 -153.793427
11.272138 -8.036900 -153.794793
11.394005 -7.947084 -153.793736
11.414921 -7.843424 -153.795102
11.435836 -7.739764 -153.796468
11.557703 -7.649948 -153.795411
11.578618 -7.546288 -153.796777
11.599533 -7.442628 -153.798143
11.620448 -7.338968 -153.799509
11.641363 -7.235308 -153.800875
11.662278 -7.131647 -153.802241
11.683194 -7.027987 -153.803607
11.805061 -6.938171 -153.802550
11.825976 -6.834511 -153.803916
11.846891 -6.730851 -153.805282
11.867806 -6.627191 -153.806648
11.888721 -6.523531 -153.808014
11.909636 -6.419871 -153.809380
11.930551 -6.316210 -153.810746
12.052418 -6.226395 -153.809689
12.073334 -6.122734 -153.811055
12.094249 -6.019074 -153.812421
12.115164 -5.915414 -153.813787
12.035127 -5.797910 -153.817576
12.056042 -5.694250 -153.818942
12.076957 -5.590589 -153.820308
12.097872 -5.486929 -153.821674
12.017836 -5.369425 -153.825463
12.038751 -5.265765 -153.826829
12.059666 -5.162104 -153.828195
12.080581 -5.058444 -153.829561
12.101496 -4.954784 -153.830927
12.122411 -4.851124 -153.832293
12.042374 -4.733619 -153.836082
12.063290 -4.629959 -153.837448
12.084205 -4.526299 -153.838814
12.004168 -4.408795 -153.842603
12.025083 -4.305134 -153.843969
11.945046 -4.187630 -153.847759
11.965961 -4.083970 -153.849125
11.986877 -3.980310 -153.850491
11.906840 -3.862805 -153.854280
11.927755 -3.759145 -153.855646
11.948670 -3.655485 -153.857012
11.868633 -3.537980 -153.860801
11.889548 -3.434320 -153.862167
11.809512 -3.316816 -153.865956
11.830427 -3.213156 -153.867322
11.851342 -3.109495 -153.868688
11.872257 -3.005835 -153.870054
11.792220 -2.888331 -153.873843
11.813135 -2.784671 -153.875209
11.733099 -2.667166 -153.878998
11.754014 -2.563506 -153.880364
11.673977 -2.446001 -153.884154
11.694892 -2.342341 -153.885520
11.614855 -2.224837 -153.889309
11.635770 -2.121177 -153.890675
11.656686 -2.017517 -153.892041
11.576649 -1.900012 -153.895830
11.597564 -1.796352 -153.897196
11.517527 -1.678847 -153.900985
11.538442 -1.575187 -153.902351
11.559357 -1.471527 -153.903717
11.580272 -1.367867 -153.905083
11.601188 -1.264207 -153.906449
11.521151 -1.146702 -153.910238
11.441114 -1.029198 -153.914027
11.361077 -0.911693 -153.917817
11.381992 -0.808033 -153.919183
11.301956 -0.690529 -153.922972
11.221919 -0.573024 -153.926761
11.242834 -0.469364 -153.928127
11.162797 -0.351859 -153.931916
11.183712 -0.248199 -153.933282
11.204627 -0.144539 -153.934648
11.124591 -0.027035 -153.938437
11.145506 0.076625 -153.939803
11.065469 0.194130 -153.943592
11.086384 0.297790 -153.944958
11.006347 0.415295 -153.948748
11.027263 0.518955 -153.950114
10.947226 0.636459 -153.953903
10.968141 0.740119 -153.955269
10.888104 0.857624 -153.959058
10.909019 0.961284 -153.960424
10.828982 1.078789 -153.964213
10.748946 1.196293 -153.968002
10.668909 1.313798 -153.971791
10.588872 1.431302 -153.975580
10.609787 1.534962 -153.976946
10.630702 1.638622 -153.978312
10.651617 1.742282 -153.979678
10.672533 1.845943 -153.981044
10.592496 1.963447 -153.984834
10.613411 2.067107 -153.986200
10.533374 2.184612 -153.989989
10.554289 2.288272 -153.991355
10.373301 2.419621 -153.997567
10.394216 2.523281 -153.998933
10.314179 2.640785 -154.002722
10.234142 2.758290 -154.006511
10.255057 2.861950 -154.007877
10.175021 2.979455 -154.011666
10.094984 3.096959 -154.015456
10.014947 3.214463 -154.019245
9.733006 3.359657 -154.027880
9.652970 3.477161 -154.031669
9.572933 3.594666 -154.035458
9.391944 3.726014 -154.041671
11.759728 -8.075508 -153.820685
11.820361 -7.936792 -153.819628
11.786644 -7.836562 -153.820994
11.847276 -7.697846 -153.819937
11.907908 -7.559130 -153.818880
11.874191 -7.458900 -153.820246
11.934823 -7.320183 -153.819189
11.995455 -7.181467 -153.818132
12.056087 -7.042751 -153.817074
12.116719 -6.904034 -153.816017
12.083002 -6.803804 -153.817383
12.143634 -6.665088 -153.816326
12.109917 -6.564858 -153.817692
12.170549 -6.426142 -153.816635
12.136832 -6.325912 -153.818001
12.291814 -6.148709 -153.814521
12.446795 -5.971507 -153.811041
12.507427 -5.832790 -153.809984
12.473710 -5.732560 -153.811350
12.534342 -5.593844 -153.810292
12.594974 -5.455128 -153.809235
12.561257 -5.354898 -153.810601
12.621889 -5.216182 -153.809544
12.588172 -5.115952 -153.810910
12.648804 -4.977235 -153.809853
12.615087 -4.877006 -153.811219
12.581370 -4.776776 -153.812585
12.547653 -4.676546 -153.813951
12.513936 -4.576316 -153.815317
12.574569 -4.437599 -153.814260
12.540852 -4.337370 -153.815626
12.507135 -4.237140 -153.816992
12.567767 -4.098423 -153.815935
12.534050 -3.998193 -153.817301
12.500333 -3.897963 -153.818667
12.466616 -3.797734 -153.820033
12.432899 -3.697504 -153.821399
12.493531 -3.558787 -153.820342
12.459814 -3.458557 -153.821708
12.426097 -3.358327 -153.823074
12.392380 -3.258098 -153.824440
12.358663 -3.157868 -153.825806
12.324946 -3.057638 -153.827172
12.291229 -2.957408 -153.828538
12.351861 -2.818691 -153.827481
12.318144 -2.718462 -153.828847
12.284427 -2.618232 -153.830213
12.250710 -2.518002 -153.831579
12.216993 -2.417772 -153.832945
12.183276 -2.317542 -153.834311
12.149559 -2.217312 -153.835677
12.115842 -2.117082 -153.837043
12.082125 -2.016852 -153.838409
12.048408 -1.916622 -153.839775
12.014691 -1.816392 -153.841141
12.075323 -1.677676 -153.840084
12.041606 -1.577446 -153.841450
12.007889 -1.477216 -153.842816
11.974172 -1.376986 -153.844182
11.940455 -1.276756 -153.845548
11.906738 -1.176526 -153.846914
11.967370 -1.037810 -153.845857
11.933653 -0.937580 -153.847223
11.899936 -0.837350 -153.848589
11.866219 -0.737120 -153.849955
11.832502 -0.636890 -153.851321
11.893134 -0.498174 -153.850264
11.859417 -0.397944 -153.851630
11.825700 -0.297714 -153.852996
11.697634 -0.235971 -153.856785
11.663917 -0.135741 -153.858151
11.630200 -0.035511 -153.859517
11.690832 0.103205 -153.858460
11.657115 0.203435 -153.859826
11.623398 0.303665 -153.861192
11.589681 0.403895 -153.862558
11.650313 0.542612 -153.861501
11.616596 0.642841 -153.862867
11.582879 0.743071 -153.864233
11.549162 0.843301 -153.865599
11.515445 0.943531 -153.866965
11.481728 1.043761 -153.868331
11.448011 1.143991 -153.869697
11.414294 1.244221 -153.871063
11.380577 1.344451 -153.872429
11.346860 1.444681 -153.873795
11.313143 1.544911 -153.875161
11.279426 1.645141 -153.876527
11.245709 1.745371 -153.877893
11.211992 1.845601 -153.879259
11.178275 1.945830 -153.880625
11.144558 2.046060 -153.881991
11.110841 2.146290 -153.883357
11.077124 2.246520 -153.884723
11.043407 2.346750 -153.886089
11.009690 2.446980 -153.887455
10.975973 2.547210 -153.888821
10.942256 2.647440 -153.890187
10.908539 2.747670 -153.891553
10.874822 2.847900 -153.892919
10.841105 2.948130 -153.894285
10.807388 3.048360 -153.895651
10.773671 3.148590 -153.897017
10.739954 3.248819 -153.898383
10.706237 3.349049 -153.899749
10.578171 3.410793 -153.903539
10.544454 3.511023 -153.904905
10.510737 3.611253 -153.906271
10.477020 3.711483 -153.907637
10.443303 3.811713 -153.909003
10.409586 3.911943 -153.910369
10.281520 3.973686 -153.914158
10.247803 4.073916 -153.915524
10.214086 4.174146 -153.916890
10.180369 4.274376 -153.918256
10.146652 4.374606 -153.919622
10.112935 4.474836 -153.920988
10.079218 4.575066 -153.922354
10.045501 4.675296 -153.923720
10.011784 4.775525 -153.925086
9.978067 4.875755 -153.926452
9.944350 4.975985 -153.927818
9.910633 5.076215 -153.929184
9.782567 5.137959 -153.932973
9.748850 5.238189 -153.934339
9.715133 5.338419 -153.935705
9.587067 5.400162 -153.939494
9.553350 5.500392 -153.940860
9.519633 5.600622 -153.942226
9.391567 5.662366 -153.946015
9.357850 5.762595 -153.947381
9.229784 5.824339 -153.951171
9.196067 5.924569 -153.952537
9.068001 5.986313 -153.956326
8.939935 6.048056 -153.960115
8.906218 6.148286 -153.961481
8.778151 6.210030 -153.965270
8.744434 6.310259 -153.966636
8.616368 6.372003 -153.970425
8.488302 6.433747 -153.974214
8.360236 6.495490 -153.978004
8.326519 6.595720 -153.979370
8.198453 6.657464 -153.983159
8.070387 6.719207 -153.986948
7.753622 6.703978 -153.995583
7.719905 6.804208 -153.996949
7.686188 6.904438 -153.998315
7.558122 6.966181 -154.002104
7.524405 7.066411 -154.003470
7.490688 7.166641 -154.004836
7.362622 7.228385 -154.008626
7.234556 7.290128 -154.012415
7.012141 7.313385 -154.018627
6.884075 7.375129 -154.022416
6.756009 7.436873 -154.026205
6.722292 7.537102 -154.027571
6.405527 7.521873 -154.036207
6.277461 7.583617 -154.039996
12.800070 -5.012227 -153.896372
12.783221 -4.861779 -153.895314
12.828837 -4.630826 -153.891834
12.811988 -4.480378 -153.890777
12.795139 -4.329930 -153.889720
12.778290 -4.179482 -153.888663
12.698975 -4.109539 -153.890029
12.682126 -3.959091 -153.888972
12.790207 -3.647634 -153.883068
12.773358 -3.497186 -153.882011
12.756509 -3.346738 -153.880954
12.677194 -3.276795 -153.882320
12.597879 -3.206851 -153.883686
12.581030 -3.056403 -153.882629
12.564181 -2.905955 -153.881572
12.547332 -2.755508 -153.880515
12.592948 -2.524555 -153.877035
12.576099 -2.374107 -153.875978
12.559249 -2.223659 -153.874920
12.542400 -2.073211 -153.873863
12.463085 -2.003268 -153.875229
12.446236 -1.852820 -153.874172
12.429387 -1.702372 -153.873115
12.412538 -1.551924 -153.872058
12.395688 -1.401476 -153.871001
12.378839 -1.251028 -153.869944
12.299524 -1.181085 -153.871310
12.282675 -1.030637 -153.870253
12.203360 -0.960694 -153.871619
12.124045 -0.890751 -153.872985
12.107196 -0.740303 -153.871928
12.090347 -0.589855 -153.870871
12.135963 -0.358902 -153.867390
12.056648 -0.288959 -153.868756
12.039799 -0.138511 -153.867699
11.960484 -0.068568 -153.869065
11.943635 0.081880 -153.868008
11.926786 0.232328 -153.866951
11.909937 0.382776 -153.865894
11.830622 0.452719 -153.867260
11.813773 0.603167 -153.866203
11.734458 0.673110 -153.867569
11.717609 0.823558 -153.866512
11.638294 0.893501 -153.867878
11.621444 1.043949 -153.866821
11.542130 1.113893 -153.868187
11.525280 1.264340 -153.867130
11.445966 1.334284 -153.868496
11.366651 1.404227 -153.869862
11.349802 1.554675 -153.868804
11.270487 1.624618 -153.870171
11.253638 1.775066 -153.869113
11.299254 2.006019 -153.865633
11.282405 2.156467 -153.864576
11.203090 2.226410 -153.865942
11.123775 2.296353 -153.867308
11.106926 2.446801 -153.866251
11.027611 2.516744 -153.867617
11.010762 2.667192 -153.866560
11.056378 2.898145 -153.863080
11.039529 3.048593 -153.862023
11.022679 3.199040 -153.860965
10.943365 3.268984 -153.862331
10.926515 3.419432 -153.861274
10.847201 3.489375 -153.862640
10.767886 3.559318 -153.864006
10.751037 3.709766 -153.862949
10.671722 3.779709 -153.864315
10.592407 3.849652 -153.865681
10.575558 4.000100 -153.864624
10.496243 4.070043 -153.865990
10.479394 4.220491 -153.864933
10.400079 4.290434 -153.866299
10.383230 4.440882 -153.865242
10.303915 4.510825 -153.866608
10.287066 4.661273 -153.865551
10.207751 4.731217 -153.866917
10.190902 4.881665 -153.865860
10.174052 5.032112 -153.864803
10.157203 5.182560 -153.863746
10.077888 5.252504 -153.865112
10.061039 5.402952 -153.864055
9.981724 5.472895 -153.865421
9.902409 5.542838 -153.866787
9.885560 5.693286 -153.865729
9.806245 5.763229 -153.867095
9.726931 5.833172 -153.868461
9.647616 5.903115 -153.869827
9.630767 6.053563 -153.868770
9.551452 6.123506 -153.870136
9.472137 6.193450 -153.871502
9.392822 6.263393 -153.872868
9.313507 6.333336 -153.874234
9.234193 6.403279 -153.875600
9.154878 6.473222 -153.876966
9.075563 6.543165 -153.878332
9.058714 6.693613 -153.877275
8.979399 6.763556 -153.878641
8.900084 6.833500 -153.880007
8.820769 6.903443 -153.881373
8.741455 6.973386 -153.882739
8.662140 7.043329 -153.884105
8.582825 7.113272 -153.885471
8.503510 7.183215 -153.886837
8.424195 7.253159 -153.888204
8.344881 7.323102 -153.889570
8.265566 7.393045 -153.890936
8.186251 7.462988 -153.892302
8.106936 7.532931 -153.893668
8.027621 7.602874 -153.895034
7.948307 7.672818 -153.896400
7.868992 7.742761 -153.897766
7.789677 7.812704 -153.899132
7.710362 7.882647 -153.900498
7.631048 7.952590 -153.901864
7.489267 7.942029 -153.905653
7.409952 8.011972 -153.907019
7.330638 8.081915 -153.908385
7.251323 8.151858 -153.909751
7.172008 8.221801 -153.911117
7.092693 8.291744 -153.912483
6.950913 8.281183 -153.916272
6.871598 8.351126 -153.917638
6.792283 8.421069 -153.919004
6.712969 8.491012 -153.920370
6.571188 8.480451 -153.924159
6.429408 8.469889 -153.927948
6.287628 8.459327 -153.931738
6.145847 8.448766 -153.935527
6.004067 8.438204 -153.939316
5.924752 8.508147 -153.940682
5.720506 8.417081 -153.946894
5.516260 8.326014 -153.953106
5.436946 8.395958 -153.954472
5.357631 8.465901 -153.955838
5.215850 8.455339 -153.959627
5.136536 8.525282 -153.960994
5.057221 8.595225 -153.962360
4.915441 8.584664 -153.966149
4.836126 8.654607 -153.967515
4.694345 8.644045 -153.971304
4.552565 8.633484 -153.975093
4.410785 8.622922 -153.978882
4.206539 8.531856 -153.985094
4.127224 8.601799 -153.986460
3.985444 8.591237 -153.990250
3.843663 8.580676 -153.994039
3.639418 8.489609 -154.000251
3.435172 8.398543 -154.006463
3.168460 8.226972 -154.015099
8.830709 6.962165 -153.873960
8.740893 7.084032 -153.872903
8.651078 7.205899 -153.871845
8.547417 7.226814 -153.873211
8.457602 7.348681 -153.872154
8.367786 7.470548 -153.871097
8.319503 7.895271 -153.862771
8.229687 8.017138 -153.861714
8.126027 8.038053 -153.863080
8.022367 8.058969 -153.864446
7.918707 8.079884 -153.865812
7.828891 8.201751 -153.864755
7.725231 8.222666 -153.866121
7.635415 8.344533 -153.865063
7.531755 8.365448 -153.866430
7.428094 8.386363 -153.867796
7.324434 8.407278 -153.869162
7.234618 8.529145 -153.868104
7.130958 8.550060 -153.869470
7.027298 8.570976 -153.870836
6.923638 8.591891 -153.872202
6.819978 8.612806 -153.873568
6.716318 8.633721 -153.874935
6.612657 8.654636 -153.876301
6.508997 8.675551 -153.877667
6.419181 8.797418 -153.876609
6.315521 8.818333 -153.877975
6.211861 8.839249 -153.879341
6.108201 8.860164 -153.880707
6.004541 8.881079 -153.882073
5.900881 8.901994 -153.883440
5.797221 8.922909 -153.884806
5.693560 8.943824 -153.886172
5.589900 8.964739 -153.887538
5.486240 8.985654 -153.888904
5.382580 9.006570 -153.890270
5.278920 9.027485 -153.891636
5.175260 9.048400 -153.893002
5.071599 9.069315 -153.894368
4.967939 9.090230 -153.895734
4.864279 9.111145 -153.897100
4.760619 9.132060 -153.898466
4.643114 9.052024 -153.902255
4.539454 9.072939 -153.903621
4.435794 9.093854 -153.904987
4.332134 9.114769 -153.906353
4.228474 9.135684 -153.907719
4.124814 9.156599 -153.909085
4.021153 9.177514 -153.910451
3.917493 9.198430 -153.911817
3.813833 9.219345 -153.913183
3.696329 9.139308 -153.916972
3.592669 9.160223 -153.918338
3.489008 9.181138 -153.919704
3.385348 9.202053 -153.921070
3.267844 9.122016 -153.924859
3.164184 9.142932 -153.926225
3.060523 9.163847 -153.927591
2.943019 9.083810 -153.931380
2.839359 9.104725 -153.932746
2.721854 9.024688 -153.936536
2.604350 8.944652 -153.940325
2.486845 8.864615 -153.944114
2.383185 8.885530 -153.945480
2.265681 8.805493 -153.949269
2.162020 8.826408 -153.950635
2.044516 8.746371 -153.954424
1.927011 8.666335 -153.958213
1.823351 8.687250 -153.959579
1.705847 8.607213 -153.963369
1.588342 8.527176 -153.967158
1.456994 8.346188 -153.973370
1.339489 8.266151 -153.977159
1.221985 8.186114 -153.980948
1.104480 8.106077 -153.984737
0.973131 7.925088 -153.990950
0.827938 7.643148 -153.999585
0.710434 7.563111 -154.003374
0.606773 7.584026 -154.004740
0.503113 7.604941 -154.006106
0.385609 7.524905 -154.009895
0.268104 7.444868 -154.013684
0.164444 7.465783 -154.015050
0.046940 7.385746 -154.018840
-0.070565 7.305709 -154.022629
-0.174225 7.326625 -154.023995
-0.291729 7.246588 -154.027784
-0.409234 7.166551 -154.031573
5.522419 9.076850 -153.905591
5.345217 9.231831 -153.902110
5.244987 9.198114 -153.903476
5.106270 9.258746 -153.902419
4.967554 9.319378 -153.901362
4.790351 9.474359 -153.897882
4.651635 9.534991 -153.896825
4.551405 9.501274 -153.898191
4.412689 9.561906 -153.897134
4.312459 9.528189 -153.898500
4.173743 9.588822 -153.897443
4.073513 9.555105 -153.898809
3.973283 9.521388 -153.900175
3.873053 9.487671 -153.901541
3.772823 9.453954 -153.902907
3.672593 9.420237 -153.904273
3.572363 9.386520 -153.905639
3.472133 9.352803 -153.907005
3.371903 9.319086 -153.908371
3.233187 9.379718 -153.907314
3.132957 9.346001 -153.908680
3.032727 9.312284 -153.910046
2.932497 9.278567 -153.911412
2.832267 9.244850 -153.912778
2.732037 9.211133 -153.914144
2.631807 9.177416 -153.915510
2.531577 9.143699 -153.916876
2.431348 9.109982 -153.918242
2.331118 9.076265 -153.919608
2.230888 9.042548 -153.920974
2.130658 9.008831 -153.922340
2.030428 8.975114 -153.923706
1.930198 8.941397 -153.925072
1.829968 8.907680 -153.926438
1.729738 8.873963 -153.927804
1.629508 8.840246 -153.929170
1.529278 8.806529 -153.930536
1.429048 8.772812 -153.931902
1.328818 8.739095 -153.933268
1.228588 8.705378 -153.934634
1.128359 8.671661 -153.936000
1.028129 8.637944 -153.937366
0.927899 8.604227 -153.938732
0.827669 8.570510 -153.940098
0.727439 8.536793 -153.941464
0.627209 8.503076 -153.942830
0.565465 8.375010 -153.946619
0.465235 8.341293 -153.947985
0.365006 8.307576 -153.949351
0.264776 8.273859 -153.950717
0.164546 8.240142 -153.952083
0.064316 8.206425 -153.953449
-0.035914 8.172708 -153.954815
-0.136144 8.138991 -153.956181
-0.236374 8.105274 -153.957547
-0.336604 8.071557 -153.958913
-0.436834 8.037840 -153.960279
-0.537064 8.004123 -153.961645
-0.598807 7.876056 -153.965435
-0.699037 7.842339 -153.966801
-0.799267 7.808622 -153.968167
-0.861011 7.680556 -153.971956
-0.961241 7.646839 -153.973322
-1.061471 7.613122 -153.974688
-1.161700 7.579405 -153.976054
-1.261930 7.545688 -153.977420
-1.323674 7.417622 -153.981209
-1.423904 7.383905 -153.982575
-1.524134 7.350188 -153.983941
-1.624364 7.316471 -153.985307
-1.724594 7.282754 -153.986673
-1.786337 7.154688 -153.990462
-1.886567 7.120971 -153.991828
-1.986797 7.087254 -153.993194
-2.048541 6.959188 -153.996983
-2.110284 6.831122 -154.000772
-2.172028 6.703056 -154.004562
-2.195285 6.480641 -154.010774
-2.257028 6.352574 -154.014563
-2.318772 6.224508 -154.018352
0.741711 9.033638 -153.951809
0.671768 8.954323 -153.953175
0.521320 8.937474 -153.952117
0.370872 8.920625 -153.951060
0.220424 8.903776 -153.950003
0.150481 8.824461 -153.951369
-0.080471 8.870077 -153.947889
-0.230919 8.853228 -153.946832
-0.381367 8.836379 -153.945775
-0.451310 8.757064 -153.947141
-0.521253 8.677750 -153.948507
-0.671701 8.660901 -153.947450
-0.741644 8.581586 -153.948816
-0.811588 8.502271 -153.950182
-0.881531 8.422957 -153.951548
-0.951474 8.343642 -153.952914
-1.101922 8.326793 -153.951857
-1.171865 8.247478 -153.953223
-1.241808 8.168163 -153.954589
-1.311751 8.088849 -153.955955
-1.381694 8.009534 -153.957321
-1.532142 7.992685 -153.956264
-1.602085 7.913370 -153.957630
-1.672028 7.834055 -153.958996
-1.741972 7.754741 -153.960362
-1.811915 7.675426 -153.961728
-1.881858 7.596111 -153.963094
-1.951801 7.516797 -153.964460
-2.021744 7.437482 -153.965826
-2.091687 7.358167 -153.967192
-2.161631 7.278853 -153.968558
-2.231574 7.199538 -153.969924
-2.301517 7.120223 -153.971290
-2.451965 7.103374 -153.970233
-2.521908 7.024059 -153.971599
-2.591851 6.944745 -153.972965
-2.661794 6.865430 -153.974331
-2.731737 6.786115 -153.975697
-2.801680 6.706801 -153.977063
-2.871624 6.627486 -153.978429
-2.941567 6.548171 -153.979795
-3.011510 6.468857 -153.981161
-3.081453 6.389542 -153.982527
-3.151396 6.310227 -153.983893
-3.221339 6.230913 -153.985259
-3.291283 6.151598 -153.986625
-3.361226 6.072283 -153.987991
-3.431169 5.992969 -153.989357
-3.501112 5.913654 -153.990723
-3.571055 5.834339 -153.992089
-3.640998 5.755025 -153.993455
-3.710942 5.675710 -153.994821
-3.780885 5.596395 -153.996187
-3.850828 5.517080 -153.997553
-3.840266 5.375300 -154.001342
-3.910209 5.295986 -154.002708
-3.980153 5.216671 -154.004074
-4.050096 5.137356 -154.005440
-4.120039 5.058041 -154.006806
-4.189982 4.978727 -154.008172
-4.259925 4.899412 -154.009538
-4.329868 4.820097 -154.010904
-4.399812 4.740783 -154.012270
-4.469755 4.661468 -154.013636
-4.539698 4.582153 -154.015002
-4.609641 4.502839 -154.016368
-4.679584 4.423524 -154.017734
-4.669023 4.281744 -154.021523
-4.738966 4.202429 -154.022889
-4.808909 4.123114 -154.024256
-4.798347 3.981334 -154.028045
-4.561062 5.305575 -153.987634
-4.581977 5.201914 -153.989000
-4.602892 5.098254 -153.990366
-4.623807 4.994594 -153.991732
-4.644722 4.890934 -153.993098
-4.665637 4.787274 -153.994464
-4.686552 4.683614 -153.995830
-4.808420 4.593798 -153.994773
-4.829335 4.490138 -153.996139
-4.850250 4.386477 -153.997505
-4.972117 4.296662 -153.996448
-4.993032 4.193001 -153.997814
-5.013947 4.089341 -153.999180
-5.135814 3.999526 -153.998123
-5.156729 3.895865 -153.999489
-5.177644 3.792205 -154.000855
-5.198560 3.688545 -154.002221
-5.219475 3.584885 -154.003587
-5.240390 3.481225 -154.004953
-5.261305 3.377565 -154.006319
-5.282220 3.273904 -154.007685
-5.303135 3.170244 -154.009051
-5.324050 3.066584 -154.010417
-5.344965 2.962924 -154.011783
-5.365881 2.859264 -154.013149
-5.285844 2.741759 -154.016938
-5.306759 2.638099 -154.018304
-5.327674 2.534439 -154.019670
-5.247637 2.416934 -154.023459
-5.268552 2.313274 -154.024825
-5.289468 2.209614 -154.026191
-5.310383 2.105954 -154.027557
-5.331298 2.002294 -154.028923
-5.352213 1.898634 -154.030289
-5.373128 1.794974 -154.031655
-5.394043 1.691313 -154.033021
-5.414958 1.587653 -154.034387
-5.435873 1.483993 -154.035753
-5.355837 1.366489 -154.039542
-5.376752 1.262828 -154.040908
-5.397667 1.159168 -154.042274
-5.418582 1.055508 -154.043640
-5.338545 0.938004 -154.047430
-5.359460 0.834343 -154.048796
-5.380376 0.730683 -154.050162
-5.401291 0.627023 -154.051528
-5.422206 0.523363 -154.052894
-5.443121 0.419703 -154.054260
-5.464036 0.316043 -154.055626
-5.484951 0.212382 -154.056992
-5.505866 0.108722 -154.058358
-5.425830 -0.008782 -154.062147
-5.446745 -0.112442 -154.063513
-5.467660 -0.216103 -154.064879
-5.488575 -0.319763 -154.066245
-5.509490 -0.423423 -154.067611
-5.530405 -0.527083 -154.068977
-5.551320 -0.630743 -154.070343
-5.572235 -0.734403 -154.071709
-5.593151 -0.838063 -154.073075
-5.513114 -0.955568 -154.076864
-5.534029 -1.059228 -154.078230
-5.453992 -1.176733 -154.082019
-5.474907 -1.280393 -154.083385
-5.840895 0.687299 -154.015702
-5.901527 0.548583 -154.014645
-5.962159 0.409866 -154.013588
-5.928442 0.309636 -154.014954
-5.989074 0.170920 -154.013897
-5.955357 0.070690 -154.015263
-6.015989 -0.068026 -154.014206
-6.076621 -0.206742 -154.013149
-6.042904 -0.306972 -154.014515
-6.103537 -0.445689 -154.013458
-6.164169 -0.584405 -154.012401
-6.130452 -0.684635 -154.013767
-6.191084 -0.823351 -154.012710
-6.157367 -0.923581 -154.014076
-6.123650 -1.023811 -154.015442
-6.184282 -1.162527 -154.014384
-6.150565 -1.262757 -154.015751
-6.116848 -1.362987 -154.017117
-6.083131 -1.463217 -154.018483
-6.049414 -1.563447 -154.019849
-6.015697 -1.663677 -154.021215
-5.981980 -1.763907 -154.022581
-5.948263 -1.864137 -154.023947
-5.914546 -1.964367 -154.025313
-5.880829 -2.064597 -154.026679
-5.847112 -2.164826 -154.028045
-5.907744 -2.303543 -154.026988
-5.874027 -2.403773 -154.028354
-5.840310 -2.504003 -154.029720
-5.806593 -2.604233 -154.031086
-5.772876 -2.704462 -154.032452
-5.739159 -2.804692 -154.033818
-5.705442 -2.904922 -154.035184
-5.671725 -3.005152 -154.036550
-5.638008 -3.105382 -154.037916
-5.509942 -3.167126 -154.041705
-5.476225 -3.267356 -154.043071
-5.442508 -3.367586 -154.044437
-5.408791 -3.467815 -154.045803
-5.375074 -3.568045 -154.047169
-5.341357 -3.668275 -154.048535
-5.307640 -3.768505 -154.049901
-5.273923 -3.868735 -154.051267
-5.240206 -3.968965 -154.052633
-5.206489 -4.069195 -154.053999
-5.172772 -4.169425 -154.055365
-5.139055 -4.269655 -154.056731
-5.105338 -4.369885 -154.058097
-5.071621 -4.470115 -154.059463
-4.943555 -4.531858 -154.063252
-4.909838 -4.632088 -154.064618
-4.876121 -4.732318 -154.065984
-4.842404 -4.832548 -154.067350
-4.808687 -4.932778 -154.068716
-4.774970 -5.033008 -154.070082
-4.741253 -5.133238 -154.071448
-4.707536 -5.233468 -154.072814
-4.579470 -5.295211 -154.076603
-4.545753 -5.395441 -154.077969
-4.512036 -5.495671 -154.079335
-4.478319 -5.595901 -154.080701
-4.444602 -5.696131 -154.082067
-4.316536 -5.757874 -154.085857
-4.282819 -5.858104 -154.087223
-4.249102 -5.958334 -154.088589
-4.215385 -6.058564 -154.089955
-4.181668 -6.158794 -154.091321
-4.053601 -6.220538 -154.095110
-3.925535 -6.282281 -154.098899
-3.891818 -6.382511 -154.100265
-3.763752 -6.444255 -154.104054
-3.730035 -6.544485 -154.105420
-3.696318 -6.644715 -154.106786
-3.662601 -6.744944 -154.108152
-3.628884 -6.845174 -154.109518
-3.595167 -6.945404 -154.110884
-3.467101 -7.007148 -154.114673
-3.339035 -7.068891 -154.118462
-3.305318 -7.169121 -154.119828
-3.177252 -7.230865 -154.123618
-3.049186 -7.292608 -154.127407
-3.015469 -7.392838 -154.128773
-2.887403 -7.454582 -154.132562
-2.853686 -7.554812 -154.133928
-2.819969 -7.655042 -154.135294
-2.786252 -7.755272 -154.136660
-2.658186 -7.817015 -154.140449
-2.624469 -7.917245 -154.141815
-2.496402 -7.978989 -154.145604
-2.462685 -8.079219 -154.146970
-2.145921 -8.063989 -154.155606
-5.245438 -4.361553 -153.999537
-5.228589 -4.512001 -153.998480
-5.211740 -4.662449 -153.997423
-5.194891 -4.812897 -153.996366
-5.178042 -4.963344 -153.995308
-5.098727 -5.033288 -153.996674
-5.019412 -5.103231 -153.998040
-5.002563 -5.253679 -153.996983
-4.923248 -5.323622 -153.998349
-4.843934 -5.393565 -153.999715
-4.764619 -5.463508 -154.001081
-4.747770 -5.613956 -154.000024
-4.668455 -5.683899 -154.001390
-4.589140 -5.753842 -154.002756
-4.509826 -5.823785 -154.004122
-4.492977 -5.974233 -154.003065
-4.413662 -6.044176 -154.004431
-4.396813 -6.194624 -154.003374
-4.317498 -6.264567 -154.004740
-4.300649 -6.415015 -154.003683
-4.221334 -6.484958 -154.005049
-4.142020 -6.554901 -154.006415
-4.062705 -6.624845 -154.007781
-4.045856 -6.775292 -154.006724
-3.966541 -6.845236 -154.008090
-3.887226 -6.915179 -154.009456
-3.870377 -7.065627 -154.008399
-3.791063 -7.135570 -154.009765
-3.711748 -7.205513 -154.011131
-3.632433 -7.275456 -154.012497
-3.615584 -7.425904 -154.011440
-3.536269 -7.495847 -154.012806
-3.456955 -7.565790 -154.014172
-3.377640 -7.635733 -154.015538
-3.360791 -7.786181 -154.014481
-3.281476 -7.856124 -154.015847
-3.264627 -8.006572 -154.014790
-3.185312 -8.076515 -154.016156
-3.105998 -8.146459 -154.017522
-3.026683 -8.216402 -154.018888
-3.009834 -8.366850 -154.017831
-2.930519 -8.436793 -154.019197
-2.851204 -8.506736 -154.020563
-2.771890 -8.576679 -154.021929
-2.692575 -8.646622 -154.023295
-2.613260 -8.716565 -154.024661
-2.533946 -8.786508 -154.026027
-2.454631 -8.856452 -154.027393
-2.375316 -8.926395 -154.028759
-2.358467 -9.076843 -154.027702
-2.279152 -9.146786 -154.029068
-2.199838 -9.216729 -154.030434
-2.120523 -9.286672 -154.031800
-2.041208 -9.356615 -154.033166
-1.961894 -9.426558 -154.034532
-1.882579 -9.496502 -154.035898
-1.803264 -9.566445 -154.037264
-1.723950 -9.636388 -154.038630
-1.644635 -9.706331 -154.039996
-1.565320 -9.776274 -154.041362
-1.486006 -9.846217 -154.042728
-1.406691 -9.916161 -154.044094
-1.264911 -9.905599 -154.047883
-1.185596 -9.975542 -154.049249
-1.106281 -10.045485 -154.050615
-1.026967 -10.115428 -154.051981
-0.947652 -10.185372 -154.053347
-0.868337 -10.255315 -154.054713
-0.789023 -10.325258 -154.056079
-0.709708 -10.395201 -154.057445
-0.630393 -10.465144 -154.058811
-0.551079 -10.535087 -154.060177
-0.409298 -10.524526 -154.063966
-0.329984 -10.594469 -154.065332
-0.250669 -10.664412 -154.066698
-0.171354 -10.734355 -154.068064
-0.092040 -10.804299 -154.069430
0.049741 -10.793737 -154.073219
0.129055 -10.863680 -154.074585
0.208370 -10.933623 -154.075951
0.350150 -10.923062 -154.079741
0.491930 -10.912500 -154.083530
0.633711 -10.901939 -154.087319
0.775491 -10.891377 -154.091108
0.854806 -10.961320 -154.092474
0.996586 -10.950759 -154.096263
1.075901 -11.020702 -154.097629
1.217681 -11.010140 -154.101418
-3.115556 -8.011545 -153.951514
-3.025740 -8.133412 -153.950457
-2.935924 -8.255280 -153.949399
-2.846109 -8.377147 -153.948342
-2.756293 -8.499014 -153.947285
-2.666477 -8.620881 -153.946228
-2.576661 -8.742748 -153.945171
-2.500690 -8.965567 -153.941691
-2.397029 -8.986482 -153.943057
-2.307214 -9.108349 -153.942000
-2.217398 -9.230216 -153.940943
-2.113738 -9.251131 -153.942309
-2.010077 -9.272046 -153.943675
-1.920262 -9.393913 -153.942617
-1.844290 -9.616732 -153.939137
-1.754474 -9.738599 -153.938080
-1.650814 -9.759514 -153.939446
-1.560998 -9.881381 -153.938389
-1.471182 -10.003248 -153.937332
-1.367522 -10.024164 -153.938698
-1.277706 -10.146031 -153.937641
-1.174046 -10.166946 -153.939007
-1.098075 -10.389765 -153.935527
-1.008259 -10.511632 -153.934470
-0.918443 -10.633499 -153.933412
-0.814783 -10.654414 -153.934778
-0.711123 -10.675329 -153.936144
-0.621307 -10.797196 -153.935087
-0.517647 -10.818111 -153.936453
-0.413987 -10.839026 -153.937819
-0.310327 -10.859941 -153.939185
-0.220511 -10.981809 -153.938128
-0.116851 -11.002724 -153.939494
-0.013190 -11.023639 -153.940860
0.090470 -11.044554 -153.942226
0.180286 -11.166421 -153.941169
0.283946 -11.187336 -153.942535
0.387606 -11.208251 -153.943901
0.491266 -11.229166 -153.945267
0.594926 -11.250081 -153.946633
0.698586 -11.270997 -153.947999
0.802247 -11.291912 -153.949365
0.905907 -11.312827 -153.950731
1.009567 -11.333742 -153.952097
1.113227 -11.354657 -153.953463
1.216887 -11.375572 -153.954829
1.320547 -11.396487 -153.956195
1.424208 -11.417403 -153.957561
1.527868 -11.438318 -153.958927
1.617684 -11.560185 -153.957870
1.721344 -11.581100 -153.959236
1.825004 -11.602015 -153.960602
1.928664 -11.622930 -153.961968
2.032324 -11.643845 -153.963334
2.135984 -11.664760 -153.964700
2.239644 -11.685675 -153.966066
2.343305 -11.706591 -153.967432
2.460809 -11.626554 -153.971222
2.564469 -11.647469 -153.972588
2.668129 -11.668384 -153.973954
2.771790 -11.689299 -153.975320
2.875450 -11.710214 -153.976686
2.979110 -11.731129 -153.978052
3.082770 -11.752045 -153.979418
3.186430 -11.772960 -153.980784
3.290090 -11.793875 -153.982150
3.393751 -11.814790 -153.983516
3.497411 -11.835705 -153.984882
3.601071 -11.856620 -153.986248
3.704731 -11.877535 -153.987614
3.808391 -11.898451 -153.988980
3.912051 -11.919366 -153.990346
4.029556 -11.839329 -153.994135
4.133216 -11.860244 -153.995501
4.236876 -11.881159 -153.996867
4.340536 -11.902074 -153.998233
4.458041 -11.822037 -154.002022
4.561701 -11.842953 -154.003388
4.665361 -11.863868 -154.004754
4.782866 -11.783831 -154.008543
4.886526 -11.804746 -154.009909
5.031719 -11.522805 -154.018545
5.149223 -11.442769 -154.022334
5.252884 -11.463684 -154.023700
5.370388 -11.383647 -154.027489
5.487893 -11.303610 -154.031278
5.605397 -11.223573 -154.035067
5.736746 -11.042585 -154.041280
5.854250 -10.962548 -154.045069
5.957910 -10.983463 -154.046435
6.075415 -10.903426 -154.050224
6.179075 -10.924342 -154.051590
6.296580 -10.844305 -154.055379
6.414084 -10.764268 -154.059168
-0.420375 -10.686709 -153.883748
-0.281658 -10.747341 -153.882691
-0.142942 -10.807973 -153.881634
-0.004226 -10.868605 -153.880577
0.096004 -10.834888 -153.881943
0.234721 -10.895520 -153.880886
0.373437 -10.956153 -153.879829
0.512153 -11.016785 -153.878772
0.650869 -11.077417 -153.877715
0.789586 -11.138049 -153.876658
0.928302 -11.198681 -153.875600
1.067018 -11.259313 -153.874543
1.205735 -11.319945 -153.873486
1.344451 -11.380577 -153.872429
1.483167 -11.441210 -153.871372
1.583397 -11.407493 -153.872738
1.722113 -11.468125 -153.871681
1.822343 -11.434408 -153.873047
1.961060 -11.495040 -153.871990
2.061290 -11.461323 -153.873356
2.161520 -11.427606 -153.874722
2.261749 -11.393889 -153.876088
2.361979 -11.360172 -153.877454
2.500696 -11.420804 -153.876397
2.677898 -11.575785 -153.872917
2.970560 -12.013814 -153.862167
3.109276 -12.074446 -153.861110
3.209506 -12.040729 -153.862476
3.309736 -12.007012 -153.863842
3.448453 -12.067644 -153.862785
3.548683 -12.033927 -153.864151
3.648912 -12.000210 -153.865517
3.749142 -11.966493 -153.866883
3.849372 -11.932776 -153.868249
3.988089 -11.993408 -153.867192
4.088318 -11.959691 -153.868558
4.188548 -11.925974 -153.869924
4.288778 -11.892257 -153.871290
4.389008 -11.858540 -153.872656
4.489238 -11.824823 -153.874022
4.589468 -11.791106 -153.875388
4.689698 -11.757389 -153.876754
4.789928 -11.723672 -153.878120
4.890158 -11.689955 -153.879486
4.990388 -11.656238 -153.880852
5.090618 -11.622521 -153.882218
5.190848 -11.588804 -153.883584
5.291078 -11.555087 -153.884950
5.391307 -11.521370 -153.886316
5.491537 -11.487653 -153.887682
5.630254 -11.548285 -153.886625
5.730484 -11.514568 -153.887991
5.830714 -11.480851 -153.889357
5.930943 -11.447134 -153.890723
6.031173 -11.413417 -153.892089
6.092917 -11.285351 -153.895878
6.193147 -11.251634 -153.897244
6.293377 -11.217917 -153.898610
6.393607 -11.184200 -153.899976
6.493837 -11.150483 -153.901342
6.594067 -11.116766 -153.902708
6.694296 -11.083049 -153.904074
6.794526 -11.049332 -153.905440
6.894756 -11.015615 -153.906806
6.994986 -10.981898 -153.908172
7.095216 -10.948181 -153.909538
7.195446 -10.914464 -153.910904
7.295676 -10.880747 -153.912270
7.395906 -10.847030 -153.913636
7.496136 -10.813313 -153.915002
7.557879 -10.685247 -153.918791
7.658109 -10.651530 -153.920157
7.758339 -10.617813 -153.921523
7.858569 -10.584096 -153.922889
7.958799 -10.550379 -153.924256
8.059029 -10.516662 -153.925622
8.159259 -10.482945 -153.926988
8.259489 -10.449228 -153.928354
8.359719 -10.415511 -153.929720
8.459949 -10.381794 -153.931086
8.560179 -10.348077 -153.932452
8.621922 -10.220011 -153.936241
8.722152 -10.186294 -153.937607
8.822382 -10.152577 -153.938973
8.922612 -10.118860 -153.940339
9.022842 -10.085143 -153.941705
9.084585 -9.957077 -153.945494
9.184815 -9.923360 -153.946860
9.285045 -9.889643 -153.948226
9.385275 -9.855926 -153.949592
9.447019 -9.727860 -153.953381
9.547249 -9.694143 -153.954747
9.493533 -9.283029 -153.965806
9.555277 -9.154963 -153.969595
9.655507 -9.121246 -153.970961
9.678764 -8.898831 -153.977173
9.740507 -8.770765 -153.980962
9.840737 -8.737048 -153.982328
9.902481 -8.608982 -153.986117
10.002711 -8.575265 -153.987483
10.064454 -8.447198 -153.991273
10.126198 -8.319132 -153.995062
10.187941 -8.191066 -153.998851
10.249685 -8.063000 -154.002640
10.311428 -7.934934 -154.006429
10.411658 -7.901217 -154.007795
10.434915 -7.678802 -154.014007
10.496659 -7.550736 -154.017797
10.558403 -7.422670 -154.021586
10.620146 -7.294603 -154.025375
10.643403 -7.072188 -154.031587
10.666660 -6.849773 -154.037799
10.728404 -6.721707 -154.041588
10.559229 -6.027546 -154.059916
10.582486 -5.805131 -154.066129
