ply
format ascii 1.0
element vertex 1161
property float x
property float y
property float z
element face 0
property list uchar uint vertex_indices
end_header
3.342905 -11.935820 -152.835807
3.493353 -11.918971 -152.834750
3.724305 -11.964587 -152.831270
3.874753 -11.947738 -152.830213
4.186210 -12.055820 -152.824310
4.336658 -12.038971 -152.823253
4.406601 -11.959656 -152.824619
4.557049 -11.942807 -152.823561
4.626992 -11.863492 -152.824927
4.777440 -11.846643 -152.823870
4.927888 -11.829794 -152.822813
5.078336 -11.812945 -152.821756
5.228784 -11.796096 -152.820699
5.459736 -11.841712 -152.817219
5.690689 -11.887329 -152.813739
5.760632 -11.808014 -152.815105
5.911080 -11.791165 -152.814047
5.981023 -11.711850 -152.815414
6.131471 -11.695001 -152.814356
6.201414 -11.615686 -152.815722
6.351862 -11.598837 -152.814665
6.502309 -11.581988 -152.813608
6.572253 -11.502673 -152.814974
6.722700 -11.485824 -152.813917
6.792644 -11.406509 -152.815283
6.943091 -11.389660 -152.814226
7.093539 -11.372811 -152.813169
7.163482 -11.293496 -152.814535
7.313930 -11.276647 -152.813478
7.383873 -11.197333 -152.814844
7.534321 -11.180484 -152.813787
7.604264 -11.101169 -152.815153
7.674208 -11.021854 -152.816519
7.824655 -11.005005 -152.815462
7.894599 -10.925690 -152.816828
7.964542 -10.846376 -152.818194
8.114990 -10.829526 -152.817137
8.184933 -10.750212 -152.818503
8.335381 -10.733363 -152.817445
8.405324 -10.654048 -152.818812
8.555772 -10.637199 -152.817754
8.625715 -10.557884 -152.819120
8.695658 -10.478569 -152.820486
8.846106 -10.461720 -152.819429
8.916049 -10.382406 -152.820795
8.985992 -10.303091 -152.822161
9.055935 -10.223776 -152.823527
9.125878 -10.144462 -152.824893
9.195822 -10.065147 -152.826259
9.265765 -9.985832 -152.827625
9.416213 -9.968983 -152.826568
9.486156 -9.889668 -152.827934
9.556099 -9.810354 -152.829300
9.626042 -9.731039 -152.830666
9.695985 -9.651724 -152.832032
9.765928 -9.572410 -152.833398
9.835871 -9.493095 -152.834764
9.905815 -9.413780 -152.836130
9.975758 -9.334466 -152.837496
10.045701 -9.255151 -152.838862
10.196149 -9.238302 -152.837805
10.266092 -9.158987 -152.839171
10.336035 -9.079672 -152.840537
10.405978 -9.000358 -152.841903
10.475921 -8.921043 -152.843269
10.545865 -8.841728 -152.844635
10.615808 -8.762414 -152.846001
10.685751 -8.683099 -152.847367
10.755694 -8.603784 -152.848733
10.825637 -8.524470 -152.850099
10.895580 -8.445155 -152.851466
10.885019 -8.303375 -152.855255
10.954962 -8.224060 -152.856621
11.024905 -8.144745 -152.857987
11.014344 -8.002965 -152.861776
11.084287 -7.923650 -152.863142
11.154230 -7.844336 -152.864508
11.224173 -7.765021 -152.865874
11.213612 -7.623241 -152.869663
11.283555 -7.543926 -152.871029
11.272993 -7.402146 -152.874818
11.342936 -7.322831 -152.876184
11.332375 -7.181051 -152.879973
11.402318 -7.101736 -152.881339
11.472261 -7.022422 -152.882705
11.542204 -6.943107 -152.884071
11.531643 -6.801327 -152.887861
11.601586 -6.722012 -152.889227
11.591024 -6.580232 -152.893016
11.580463 -6.438451 -152.896805
11.569901 -6.296671 -152.900594
11.639844 -6.217357 -152.901960
11.629283 -6.075576 -152.905749
11.699226 -5.996262 -152.907115
11.688665 -5.854481 -152.910904
11.678103 -5.712701 -152.914693
11.748046 -5.633387 -152.916059
11.737485 -5.491606 -152.919849
11.726923 -5.349826 -152.923638
11.796866 -5.270511 -152.925004
11.786305 -5.128731 -152.928793
11.775743 -4.986951 -152.932582
11.684677 -4.782705 -152.938794
11.593611 -4.578459 -152.945007
11.583049 -4.436679 -152.948796
11.572488 -4.294899 -152.952585
11.642431 -4.215584 -152.953951
11.631869 -4.073804 -152.957740
11.621308 -3.932024 -152.961529
11.449737 -3.665312 -152.970164
11.358671 -3.461067 -152.976377
11.187100 -3.194355 -152.985012
11.096034 -2.990110 -152.991224
11.165977 -2.910795 -152.992590
11.155415 -2.769015 -152.996380
11.144854 -2.627235 -153.000169
11.214797 -2.547920 -153.001535
11.204235 -2.406140 -153.005324
11.193674 -2.264359 -153.009113
11.183112 -2.122579 -153.012902
10.770027 -1.668471 -153.028807
10.598457 -1.401760 -153.037442
10.587895 -1.259980 -153.041231
10.577334 -1.118199 -153.045021
10.486267 -0.913954 -153.051233
10.475706 -0.772173 -153.055022
10.384640 -0.567928 -153.061234
10.374078 -0.426147 -153.065023
10.363517 -0.284367 -153.068812
10.191946 -0.017656 -153.077448
10.261889 0.061659 -153.078814
10.251327 0.203439 -153.082603
9.175860 -10.199575 -152.802145
9.297727 -10.109759 -152.801087
9.419594 -10.019943 -152.800030
9.541461 -9.930127 -152.798973
9.764280 -9.854156 -152.795493
9.886147 -9.764340 -152.794436
10.008014 -9.674524 -152.793379
10.028929 -9.570864 -152.794745
10.150796 -9.481048 -152.793688
10.272663 -9.391232 -152.792631
10.293578 -9.287572 -152.793997
10.415445 -9.197756 -152.792939
10.436360 -9.094096 -152.794305
10.558227 -9.004280 -152.793248
10.680095 -8.914464 -152.792191
10.701010 -8.810804 -152.793557
10.822877 -8.720988 -152.792500
10.843792 -8.617328 -152.793866
10.965659 -8.527512 -152.792809
10.986574 -8.423852 -152.794175
11.007489 -8.320192 -152.795541
11.129356 -8.230376 -152.794484
11.150271 -8.126716 -152.795850
11.272138 -8.036900 -152.794793
11.293053 -7.933240 -152.796159
11.414921 -7.843424 -152.795102
11.435836 -7.739764 -152.796468
11.456751 -7.636104 -152.797834
11.477666 -7.532444 -152.799200
11.498581 -7.428784 -152.800566
11.519496 -7.325123 -152.801932
11.540411 -7.221463 -152.803298
11.561326 -7.117803 -152.804664
11.683194 -7.027987 -152.803607
11.704109 -6.924327 -152.804973
11.725024 -6.820667 -152.806339
11.846891 -6.730851 -152.805282
11.867806 -6.627191 -152.806648
11.888721 -6.523531 -152.808014
11.909636 -6.419871 -152.809380
11.930551 -6.316210 -152.810746
11.951466 -6.212550 -152.812112
11.972382 -6.108890 -152.813478
11.993297 -6.005230 -152.814844
12.014212 -5.901570 -152.816210
12.035127 -5.797910 -152.817576
12.056042 -5.694250 -152.818942
12.076957 -5.590589 -152.820308
12.097872 -5.486929 -152.821674
12.017836 -5.369425 -152.825463
12.038751 -5.265765 -152.826829
11.958714 -5.148260 -152.830618
11.979629 -5.044600 -152.831984
12.000544 -4.940940 -152.833350
12.021459 -4.837280 -152.834716
12.042374 -4.733619 -152.836082
11.962338 -4.616115 -152.839871
11.983253 -4.512455 -152.841237
11.903216 -4.394950 -152.845027
11.924131 -4.291290 -152.846393
11.945046 -4.187630 -152.847759
11.965961 -4.083970 -152.849125
11.986877 -3.980310 -152.850491
11.906840 -3.862805 -152.854280
11.927755 -3.759145 -152.855646
11.847718 -3.641641 -152.859435
11.868633 -3.537980 -152.860801
11.889548 -3.434320 -152.862167
11.809512 -3.316816 -152.865956
11.830427 -3.213156 -152.867322
11.851342 -3.109495 -152.868688
11.771305 -2.991991 -152.872477
11.792220 -2.888331 -152.873843
11.813135 -2.784671 -152.875209
11.733099 -2.667166 -152.878998
11.653062 -2.549662 -152.882788
11.673977 -2.446001 -152.884154
11.593940 -2.328497 -152.887943
11.614855 -2.224837 -152.889309
11.635770 -2.121177 -152.890675
11.656686 -2.017517 -152.892041
11.576649 -1.900012 -152.895830
11.496612 -1.782508 -152.899619
11.517527 -1.678847 -152.900985
11.437490 -1.561343 -152.904774
11.458405 -1.457683 -152.906140
11.378369 -1.340178 -152.909929
11.399284 -1.236518 -152.911295
11.319247 -1.119014 -152.915085
11.340162 -1.015353 -152.916451
11.361077 -0.911693 -152.917817
11.281040 -0.794189 -152.921606
11.301956 -0.690529 -152.922972
11.221919 -0.573024 -152.926761
11.242834 -0.469364 -152.928127
11.162797 -0.351859 -152.931916
11.183712 -0.248199 -152.933282
11.103676 -0.130695 -152.937071
11.124591 -0.027035 -152.938437
11.044554 0.090470 -152.942226
11.065469 0.194130 -152.943592
11.086384 0.297790 -152.944958
11.006347 0.415295 -152.948748
11.027263 0.518955 -152.950114
10.947226 0.636459 -152.953903
10.968141 0.740119 -152.955269
10.888104 0.857624 -152.959058
10.808067 0.975128 -152.962847
10.828982 1.078789 -152.964213
10.748946 1.196293 -152.968002
10.668909 1.313798 -152.971791
10.689824 1.417458 -152.973157
10.609787 1.534962 -152.976946
10.630702 1.638622 -152.978312
10.651617 1.742282 -152.979678
10.672533 1.845943 -152.981044
10.592496 1.963447 -152.984834
10.613411 2.067107 -152.986200
10.634326 2.170767 -152.987566
10.554289 2.288272 -152.991355
10.474253 2.405776 -152.995144
10.394216 2.523281 -152.998933
10.415131 2.626941 -153.000299
10.335094 2.744446 -153.004088
10.255057 2.861950 -153.007877
10.175021 2.979455 -153.011666
9.893080 3.124648 -153.020302
9.813043 3.242152 -153.024091
9.833958 3.345812 -153.025457
9.753921 3.463317 -153.029246
9.673885 3.580821 -153.033035
9.694800 3.684481 -153.034401
9.614763 3.801986 -153.038190
9.534726 3.919490 -153.041980
9.151834 4.078528 -153.053038
9.172749 4.182188 -153.054404
9.092712 4.299693 -153.058193
9.113627 4.403353 -153.059559
10.978020 -8.622346 -152.839761
11.604747 -8.252711 -152.824165
11.665379 -8.113995 -152.823108
11.631662 -8.013765 -152.824474
11.597945 -7.913535 -152.825840
11.658577 -7.774819 -152.824783
11.624860 -7.674589 -152.826149
11.968540 -7.420413 -152.817823
12.029172 -7.281697 -152.816765
12.089804 -7.142981 -152.815708
12.150436 -7.004264 -152.814651
12.116719 -6.904034 -152.816017
12.177351 -6.765318 -152.814960
12.237983 -6.626602 -152.813903
12.204266 -6.526372 -152.815269
12.359248 -6.349169 -152.811789
12.419880 -6.210453 -152.810732
12.480512 -6.071737 -152.809675
12.446795 -5.971507 -152.811041
12.507427 -5.832790 -152.809984
12.473710 -5.732560 -152.811350
12.439993 -5.632331 -152.812716
12.500625 -5.493614 -152.811658
12.466908 -5.393384 -152.813024
12.527540 -5.254668 -152.811967
12.493823 -5.154438 -152.813333
12.554455 -5.015722 -152.812276
12.520738 -4.915492 -152.813642
12.487021 -4.815262 -152.815008
12.547653 -4.676546 -152.813951
12.513936 -4.576316 -152.815317
12.480219 -4.476086 -152.816683
12.446502 -4.375856 -152.818049
12.507135 -4.237140 -152.816992
12.473418 -4.136910 -152.818358
12.439701 -4.036680 -152.819724
12.500333 -3.897963 -152.818667
12.466616 -3.797734 -152.820033
12.432899 -3.697504 -152.821399
12.399182 -3.597274 -152.822765
12.365465 -3.497044 -152.824131
12.331748 -3.396814 -152.825497
12.392380 -3.258098 -152.824440
12.358663 -3.157868 -152.825806
12.324946 -3.057638 -152.827172
12.291229 -2.957408 -152.828538
12.351861 -2.818691 -152.827481
12.318144 -2.718462 -152.828847
12.284427 -2.618232 -152.830213
12.250710 -2.518002 -152.831579
12.216993 -2.417772 -152.832945
12.183276 -2.317542 -152.834311
12.149559 -2.217312 -152.835677
12.115842 -2.117082 -152.837043
12.082125 -2.016852 -152.838409
12.048408 -1.916622 -152.839775
12.014691 -1.816392 -152.841141
11.980974 -1.716162 -152.842507
12.041606 -1.577446 -152.841450
12.007889 -1.477216 -152.842816
11.974172 -1.376986 -152.844182
11.940455 -1.276756 -152.845548
11.906738 -1.176526 -152.846914
11.873021 -1.076296 -152.848280
11.839304 -0.976066 -152.849646
11.805587 -0.875837 -152.851012
11.771870 -0.775607 -152.852378
11.832502 -0.636890 -152.851321
11.798785 -0.536660 -152.852687
11.765068 -0.436431 -152.854053
11.731351 -0.336201 -152.855419
11.697634 -0.235971 -152.856785
11.663917 -0.135741 -152.858151
11.630200 -0.035511 -152.859517
11.596483 0.064719 -152.860883
11.562766 0.164949 -152.862249
11.623398 0.303665 -152.861192
11.589681 0.403895 -152.862558
11.555964 0.504125 -152.863924
11.522247 0.604355 -152.865290
11.488530 0.704585 -152.866656
11.454813 0.804815 -152.868022
11.421096 0.905045 -152.869388
11.387379 1.005275 -152.870754
11.353662 1.105505 -152.872120
11.319945 1.205735 -152.873486
11.286228 1.305965 -152.874852
11.346860 1.444681 -152.873795
11.313143 1.544911 -152.875161
11.279426 1.645141 -152.876527
11.245709 1.745371 -152.877893
11.211992 1.845601 -152.879259
11.178275 1.945830 -152.880625
11.144558 2.046060 -152.881991
11.110841 2.146290 -152.883357
11.077124 2.246520 -152.884723
11.043407 2.346750 -152.886089
11.009690 2.446980 -152.887455
10.975973 2.547210 -152.888821
10.942256 2.647440 -152.890187
10.908539 2.747670 -152.891553
10.874822 2.847900 -152.892919
10.841105 2.948130 -152.894285
10.807388 3.048360 -152.895651
10.679322 3.110103 -152.899441
10.645605 3.210333 -152.900807
10.611888 3.310563 -152.902173
10.578171 3.410793 -152.903539
10.544454 3.511023 -152.904905
10.510737 3.611253 -152.906271
10.382671 3.672996 -152.910060
10.348954 3.773226 -152.911426
10.315237 3.873456 -152.912792
10.281520 3.973686 -152.914158
10.247803 4.073916 -152.915524
10.214086 4.174146 -152.916890
10.180369 4.274376 -152.918256
10.146652 4.374606 -152.919622
10.112935 4.474836 -152.920988
10.079218 4.575066 -152.922354
10.045501 4.675296 -152.923720
10.011784 4.775525 -152.925086
9.883718 4.837269 -152.928875
9.850001 4.937499 -152.930241
9.816284 5.037729 -152.931607
9.782567 5.137959 -152.932973
9.748850 5.238189 -152.934339
9.715133 5.338419 -152.935705
9.587067 5.400162 -152.939494
9.553350 5.500392 -152.940860
9.519633 5.600622 -152.942226
9.391567 5.662366 -152.946015
9.263501 5.724109 -152.949805
9.135435 5.785853 -152.953594
9.101718 5.886083 -152.954960
8.973652 5.947826 -152.958749
8.939935 6.048056 -152.960115
8.906218 6.148286 -152.961481
8.778151 6.210030 -152.965270
8.650085 6.271773 -152.969059
8.427670 6.295030 -152.975271
8.393953 6.395260 -152.976638
8.265887 6.457004 -152.980427
8.232170 6.557234 -152.981793
8.104104 6.618977 -152.985582
8.070387 6.719207 -152.986948
8.036670 6.819437 -152.988314
7.908604 6.881181 -152.992103
7.874887 6.981411 -152.993469
7.746821 7.043154 -152.997258
7.713104 7.143384 -152.998624
7.585038 7.205128 -153.002413
7.456971 7.266871 -153.006202
7.045858 7.213155 -153.017261
7.012141 7.313385 -153.018627
6.884075 7.375129 -153.022416
6.756009 7.436873 -153.026205
11.231857 2.607810 -152.861405
11.215008 2.758258 -152.860348
11.198158 2.908706 -152.859291
11.181309 3.059154 -152.858233
11.101994 3.129097 -152.859599
11.085145 3.279545 -152.858542
11.005830 3.349488 -152.859908
10.926515 3.419432 -152.861274
10.847201 3.489375 -152.862640
10.767886 3.559318 -152.864006
10.688571 3.629261 -152.865372
10.671722 3.779709 -152.864315
10.592407 3.849652 -152.865681
10.513092 3.919595 -152.867047
10.496243 4.070043 -152.865990
10.416928 4.139986 -152.867356
10.400079 4.290434 -152.866299
10.320764 4.360378 -152.867665
10.303915 4.510825 -152.866608
10.287066 4.661273 -152.865551
10.270216 4.811721 -152.864494
10.190902 4.881665 -152.865860
10.174052 5.032112 -152.864803
10.094738 5.102056 -152.866169
10.077888 5.252504 -152.865112
10.061039 5.402952 -152.864055
9.981724 5.472895 -152.865421
9.902409 5.542838 -152.866787
9.823095 5.612781 -152.868153
9.743780 5.682724 -152.869519
9.726931 5.833172 -152.868461
9.647616 5.903115 -152.869827
9.568301 5.973058 -152.871194
9.488986 6.043002 -152.872560
9.409671 6.112945 -152.873926
9.330357 6.182888 -152.875292
9.251042 6.252831 -152.876658
9.234193 6.403279 -152.875600
9.154878 6.473222 -152.876966
9.075563 6.543165 -152.878332
8.996248 6.613109 -152.879699
8.916933 6.683052 -152.881065
8.900084 6.833500 -152.880007
8.820769 6.903443 -152.881373
8.741455 6.973386 -152.882739
8.662140 7.043329 -152.884105
8.582825 7.113272 -152.885471
8.503510 7.183215 -152.886837
8.424195 7.253159 -152.888204
8.344881 7.323102 -152.889570
8.265566 7.393045 -152.890936
8.123786 7.382483 -152.894725
8.044471 7.452426 -152.896091
7.965156 7.522370 -152.897457
7.885841 7.592313 -152.898823
7.806526 7.662256 -152.900189
7.664746 7.651694 -152.903978
7.585431 7.721637 -152.905344
7.506116 7.791581 -152.906710
7.426802 7.861524 -152.908076
7.347487 7.931467 -152.909442
7.268172 8.001410 -152.910808
7.188857 8.071353 -152.912174
7.109542 8.141296 -152.913540
7.030228 8.211240 -152.914906
6.950913 8.281183 -152.916272
6.871598 8.351126 -152.917638
6.729818 8.340564 -152.921427
6.650503 8.410507 -152.922793
6.508723 8.399946 -152.926582
6.366942 8.389384 -152.930371
6.287628 8.459327 -152.931738
6.145847 8.448766 -152.935527
6.066532 8.518709 -152.936893
5.987218 8.588652 -152.938259
5.907903 8.658595 -152.939625
5.828588 8.728538 -152.940991
5.686808 8.717977 -152.944780
5.357631 8.465901 -152.955838
5.215850 8.455339 -152.959627
5.074070 8.444777 -152.963417
4.994755 8.514721 -152.964783
4.852975 8.504159 -152.968572
4.711195 8.493597 -152.972361
8.353941 7.369597 -152.873520
8.277970 7.592415 -152.870040
8.201998 7.815234 -152.866560
8.112183 7.937101 -152.865503
8.008522 7.958017 -152.866869
7.904862 7.978932 -152.868235
7.801202 7.999847 -152.869601
7.725231 8.222666 -152.866121
7.621570 8.243581 -152.867487
7.531755 8.365448 -152.866430
7.428094 8.386363 -152.867796
7.324434 8.407278 -152.869162
7.220774 8.428193 -152.870528
7.117114 8.449109 -152.871894
7.013454 8.470024 -152.873260
6.923638 8.591891 -152.872202
6.819978 8.612806 -152.873568
6.716318 8.633721 -152.874935
6.612657 8.654636 -152.876301
6.508997 8.675551 -152.877667
6.419181 8.797418 -152.876609
6.315521 8.818333 -152.877975
6.211861 8.839249 -152.879341
6.108201 8.860164 -152.880707
6.004541 8.881079 -152.882073
5.900881 8.901994 -152.883440
5.797221 8.922909 -152.884806
5.693560 8.943824 -152.886172
5.589900 8.964739 -152.887538
5.486240 8.985654 -152.888904
5.382580 9.006570 -152.890270
5.278920 9.027485 -152.891636
5.175260 9.048400 -152.893002
5.071599 9.069315 -152.894368
4.954095 8.989278 -152.898157
4.850435 9.010193 -152.899523
4.746775 9.031108 -152.900889
4.643114 9.052024 -152.902255
4.539454 9.072939 -152.903621
4.435794 9.093854 -152.904987
4.332134 9.114769 -152.906353
4.228474 9.135684 -152.907719
4.124814 9.156599 -152.909085
4.021153 9.177514 -152.910451
3.903649 9.097478 -152.914240
3.799989 9.118393 -152.915606
3.696329 9.139308 -152.916972
3.578824 9.059271 -152.920761
3.475164 9.080186 -152.922127
3.357660 9.000149 -152.925916
3.240155 8.920113 -152.929706
3.122651 8.840076 -152.933495
3.018990 8.860991 -152.934861
2.901486 8.780954 -152.938650
2.797826 8.801869 -152.940016
2.680321 8.721833 -152.943805
2.576661 8.742748 -152.945171
2.473001 8.763663 -152.946537
2.355496 8.683626 -152.950326
2.251836 8.704541 -152.951692
2.134332 8.624504 -152.955481
2.016827 8.544468 -152.959270
1.899323 8.464431 -152.963060
1.781818 8.384394 -152.966849
1.650470 8.203405 -152.973061
1.546809 8.224320 -152.974427
1.429305 8.144284 -152.978216
1.325645 8.165199 -152.979582
1.208140 8.085162 -152.983371
1.104480 8.106077 -152.984737
0.986976 8.026040 -152.988526
0.869471 7.946004 -152.992316
0.751967 7.865967 -152.996105
0.620618 7.684978 -153.002317
0.503113 7.604941 -153.006106
0.385609 7.524905 -153.009895
5.560906 8.982500 -152.908014
5.345217 9.231831 -152.902110
5.244987 9.198114 -152.903476
5.106270 9.258746 -152.902419
5.006040 9.225029 -152.903785
4.867324 9.285661 -152.902728
4.767094 9.251944 -152.904094
4.666864 9.218227 -152.905460
4.528148 9.278859 -152.904403
4.427918 9.245142 -152.905769
4.289202 9.305774 -152.904712
4.188972 9.272057 -152.906078
4.088742 9.238340 -152.907444
3.950026 9.298972 -152.906387
3.849796 9.265255 -152.907753
3.711079 9.325887 -152.906696
3.610849 9.292170 -152.908062
3.472133 9.352803 -152.907005
3.371903 9.319086 -152.908371
3.271673 9.285369 -152.909737
3.171443 9.251652 -152.911103
3.032727 9.312284 -152.910046
2.932497 9.278567 -152.911412
2.832267 9.244850 -152.912778
2.732037 9.211133 -152.914144
2.631807 9.177416 -152.915510
2.531577 9.143699 -152.916876
2.431348 9.109982 -152.918242
2.331118 9.076265 -152.919608
2.230888 9.042548 -152.920974
2.130658 9.008831 -152.922340
2.030428 8.975114 -152.923706
1.930198 8.941397 -152.925072
1.829968 8.907680 -152.926438
1.729738 8.873963 -152.927804
1.629508 8.840246 -152.929170
1.529278 8.806529 -152.930536
1.429048 8.772812 -152.931902
1.328818 8.739095 -152.933268
1.228588 8.705378 -152.934634
1.128359 8.671661 -152.936000
1.028129 8.637944 -152.937366
0.966385 8.509878 -152.941155
0.866155 8.476161 -152.942521
0.765925 8.442444 -152.943887
0.665695 8.408727 -152.945253
0.565465 8.375010 -152.946619
0.465235 8.341293 -152.947985
0.365006 8.307576 -152.949351
0.264776 8.273859 -152.950717
0.164546 8.240142 -152.952083
0.064316 8.206425 -152.953449
-0.035914 8.172708 -152.954815
-0.136144 8.138991 -152.956181
-0.236374 8.105274 -152.957547
-0.336604 8.071557 -152.958913
-0.436834 8.037840 -152.960279
-0.537064 8.004123 -152.961645
-0.598807 7.876056 -152.965435
-0.699037 7.842339 -152.966801
-0.799267 7.808622 -152.968167
-0.899497 7.774905 -152.969533
-0.999727 7.741188 -152.970899
-1.099957 7.707471 -152.972265
-1.161700 7.579405 -152.976054
-1.261930 7.545688 -152.977420
-1.362160 7.511971 -152.978786
-1.462390 7.478254 -152.980152
-1.562620 7.444537 -152.981518
-1.662850 7.410820 -152.982884
-1.763080 7.377103 -152.984250
-1.824824 7.249037 -152.988039
-1.925053 7.215320 -152.989405
-1.986797 7.087254 -152.993194
-2.087027 7.053537 -152.994560
-2.148771 6.925471 -152.998349
-2.210514 6.797405 -153.002138
-2.233771 6.574990 -153.008351
-2.295515 6.446924 -153.012140
0.601825 8.875008 -152.954541
0.290367 8.983090 -152.948637
0.139920 8.966241 -152.947580
-0.010528 8.949392 -152.946523
-0.160976 8.932543 -152.945466
-0.230919 8.853228 -152.946832
-0.381367 8.836379 -152.945775
-0.451310 8.757064 -152.947141
-0.521253 8.677750 -152.948507
-0.591197 8.598435 -152.949873
-0.661140 8.519120 -152.951239
-0.811588 8.502271 -152.950182
-0.881531 8.422957 -152.951548
-0.951474 8.343642 -152.952914
-1.101922 8.326793 -152.951857
-1.171865 8.247478 -152.953223
-1.241808 8.168163 -152.954589
-1.311751 8.088849 -152.955955
-1.462199 8.072000 -152.954898
-1.532142 7.992685 -152.956264
-1.602085 7.913370 -152.957630
-1.672028 7.834055 -152.958996
-1.741972 7.754741 -152.960362
-1.811915 7.675426 -152.961728
-1.881858 7.596111 -152.963094
-1.951801 7.516797 -152.964460
-2.021744 7.437482 -152.965826
-2.172192 7.420633 -152.964769
-2.242135 7.341318 -152.966135
-2.312078 7.262004 -152.967501
-2.382022 7.182689 -152.968867
-2.451965 7.103374 -152.970233
-2.521908 7.024059 -152.971599
-2.591851 6.944745 -152.972965
-2.661794 6.865430 -152.974331
-2.731737 6.786115 -152.975697
-2.801680 6.706801 -152.977063
-2.871624 6.627486 -152.978429
-2.941567 6.548171 -152.979795
-3.011510 6.468857 -152.981161
-3.081453 6.389542 -152.982527
-3.151396 6.310227 -152.983893
-3.221339 6.230913 -152.985259
-3.291283 6.151598 -152.986625
-3.361226 6.072283 -152.987991
-3.431169 5.992969 -152.989357
-3.501112 5.913654 -152.990723
-3.571055 5.834339 -152.992089
-3.640998 5.755025 -152.993455
-3.710942 5.675710 -152.994821
-3.780885 5.596395 -152.996187
-3.850828 5.517080 -152.997553
-3.920771 5.437766 -152.998919
-3.990714 5.358451 -153.000285
-4.060657 5.279136 -153.001651
-4.130600 5.199822 -153.003017
-4.120039 5.058041 -153.006806
-4.189982 4.978727 -153.008172
-4.259925 4.899412 -153.009538
-4.329868 4.820097 -153.010904
-4.399812 4.740783 -153.012270
-4.469755 4.661468 -153.013636
-4.539698 4.582153 -153.015002
-4.609641 4.502839 -153.016368
-4.679584 4.423524 -153.017734
-4.749527 4.344209 -153.019100
-4.819471 4.264895 -153.020466
-4.808909 4.123114 -153.024256
-4.878852 4.043800 -153.025622
-4.626777 3.714623 -153.036680
-4.696720 3.635308 -153.038046
-4.686158 3.493528 -153.041835
-4.675597 3.351748 -153.045624
-4.519231 5.512895 -152.984902
-4.641098 5.423079 -152.983845
-4.662014 5.319419 -152.985211
-4.783881 5.229603 -152.984154
-4.804796 5.125943 -152.985520
-4.825711 5.022283 -152.986886
-4.846626 4.918623 -152.988252
-4.867541 4.814962 -152.989618
-4.888456 4.711302 -152.990984
-4.909371 4.607642 -152.992350
-4.930287 4.503982 -152.993716
-5.052154 4.414166 -152.992659
-5.073069 4.310506 -152.994025
-5.093984 4.206846 -152.995391
-5.114899 4.103186 -152.996757
-5.236766 4.013370 -152.995700
-5.257681 3.909710 -152.997066
-5.278596 3.806050 -152.998432
-5.299511 3.702389 -152.999798
-5.320427 3.598729 -153.001164
-5.341342 3.495069 -153.002530
-5.362257 3.391409 -153.003896
-5.383172 3.287749 -153.005262
-5.404087 3.184089 -153.006628
-5.425002 3.080428 -153.007994
-5.344965 2.962924 -153.011783
-5.365881 2.859264 -153.013149
-5.386796 2.755604 -153.014515
-5.407711 2.651943 -153.015881
-5.327674 2.534439 -153.019670
-5.348589 2.430779 -153.021036
-5.369504 2.327119 -153.022402
-5.390419 2.223458 -153.023768
-5.310383 2.105954 -153.027557
-5.331298 2.002294 -153.028923
-5.352213 1.898634 -153.030289
-5.373128 1.794974 -153.031655
-5.394043 1.691313 -153.033021
-5.414958 1.587653 -153.034387
-5.435873 1.483993 -153.035753
-5.456789 1.380333 -153.037119
-5.477704 1.276673 -153.038485
-5.498619 1.173013 -153.039851
-5.418582 1.055508 -153.043640
-5.439497 0.951848 -153.045007
-5.359460 0.834343 -153.048796
-5.380376 0.730683 -153.050162
-5.502243 0.640867 -153.049105
-5.523158 0.537207 -153.050471
-5.544073 0.433547 -153.051837
-5.564988 0.329887 -153.053203
-5.484951 0.212382 -153.056992
-5.505866 0.108722 -153.058358
-5.526781 0.005062 -153.059724
-5.547697 -0.098598 -153.061090
-5.467660 -0.216103 -153.064879
-5.488575 -0.319763 -153.066245
-5.408538 -0.437267 -153.070034
-5.328501 -0.554772 -153.073823
-6.036103 -0.646148 -153.016190
-6.191084 -0.823351 -153.012710
-6.157367 -0.923581 -153.014076
-6.123650 -1.023811 -153.015442
-6.089933 -1.124041 -153.016808
-6.056216 -1.224271 -153.018174
-6.116848 -1.362987 -153.017117
-6.083131 -1.463217 -153.018483
-6.049414 -1.563447 -153.019849
-6.110046 -1.702163 -153.018791
-6.076329 -1.802393 -153.020157
-6.042612 -1.902623 -153.021523
-6.008895 -2.002853 -153.022889
-5.975178 -2.103083 -153.024256
-5.941461 -2.203313 -153.025622
-5.907744 -2.303543 -153.026988
-5.874027 -2.403773 -153.028354
-5.840310 -2.504003 -153.029720
-5.806593 -2.604233 -153.031086
-5.772876 -2.704462 -153.032452
-5.739159 -2.804692 -153.033818
-5.705442 -2.904922 -153.035184
-5.671725 -3.005152 -153.036550
-5.638008 -3.105382 -153.037916
-5.604291 -3.205612 -153.039282
-5.570574 -3.305842 -153.040648
-5.536857 -3.406072 -153.042014
-5.503140 -3.506302 -153.043380
-5.469423 -3.606532 -153.044746
-5.435706 -3.706762 -153.046112
-5.307640 -3.768505 -153.049901
-5.273923 -3.868735 -153.051267
-5.240206 -3.968965 -153.052633
-5.206489 -4.069195 -153.053999
-5.172772 -4.169425 -153.055365
-5.139055 -4.269655 -153.056731
-5.105338 -4.369885 -153.058097
-5.071621 -4.470115 -153.059463
-5.037904 -4.570345 -153.060829
-5.004187 -4.670575 -153.062195
-4.970470 -4.770804 -153.063561
-4.936753 -4.871034 -153.064927
-4.808687 -4.932778 -153.068716
-4.774970 -5.033008 -153.070082
-4.741253 -5.133238 -153.071448
-4.707536 -5.233468 -153.072814
-4.673819 -5.333698 -153.074180
-4.545753 -5.395441 -153.077969
-4.512036 -5.495671 -153.079335
-4.478319 -5.595901 -153.080701
-4.444602 -5.696131 -153.082067
-4.316536 -5.757874 -153.085857
-4.282819 -5.858104 -153.087223
-4.249102 -5.958334 -153.088589
-4.121035 -6.020078 -153.092378
-4.087318 -6.120308 -153.093744
-4.053601 -6.220538 -153.095110
-4.019884 -6.320768 -153.096476
-3.986167 -6.420998 -153.097842
-3.952450 -6.521227 -153.099208
-3.918733 -6.621457 -153.100574
-3.885016 -6.721687 -153.101940
-3.756950 -6.783431 -153.105729
-3.723233 -6.883661 -153.107095
-3.595167 -6.945404 -153.110884
-3.561450 -7.045634 -153.112250
-3.433384 -7.107378 -153.116039
-3.210969 -7.130635 -153.122252
-3.082903 -7.192379 -153.126041
-3.049186 -7.292608 -153.127407
-2.921120 -7.354352 -153.131196
-2.887403 -7.454582 -153.132562
-2.759337 -7.516325 -153.136351
-5.466533 -4.302171 -152.994382
-5.387218 -4.372115 -152.995748
-5.370369 -4.522562 -152.994691
-5.291055 -4.592506 -152.996057
-5.211740 -4.662449 -152.997423
-5.194891 -4.812897 -152.996366
-5.115576 -4.882840 -152.997732
-5.036261 -4.952783 -152.999098
-5.019412 -5.103231 -152.998040
-4.940097 -5.173174 -152.999406
-4.860783 -5.243117 -153.000772
-4.781468 -5.313060 -153.002138
-4.702153 -5.383003 -153.003504
-4.685304 -5.533451 -153.002447
-4.605990 -5.603394 -153.003813
-4.526675 -5.673337 -153.005179
-4.509826 -5.823785 -153.004122
-4.368046 -5.813224 -153.007911
-4.288731 -5.883167 -153.009277
-4.209416 -5.953110 -153.010643
-4.317498 -6.264567 -153.004740
-4.300649 -6.415015 -153.003683
-4.283800 -6.565463 -153.002626
-4.204485 -6.635406 -153.003992
-4.187636 -6.785854 -153.002935
-4.108321 -6.855797 -153.004301
-4.029007 -6.925740 -153.005667
-4.012157 -7.076188 -153.004610
-3.932843 -7.146131 -153.005976
-3.853528 -7.216074 -153.007342
-3.774213 -7.286018 -153.008708
-3.757364 -7.436465 -153.007651
-3.678050 -7.506409 -153.009017
-3.598735 -7.576352 -153.010383
-3.519420 -7.646295 -153.011749
-3.440106 -7.716238 -153.013115
-3.423256 -7.866686 -153.012058
-3.343942 -7.936629 -153.013424
-3.264627 -8.006572 -153.014790
-3.185312 -8.076515 -153.016156
-3.105998 -8.146459 -153.017522
-3.089148 -8.296906 -153.016465
-3.009834 -8.366850 -153.017831
-2.930519 -8.436793 -153.019197
-2.851204 -8.506736 -153.020563
-2.834355 -8.657184 -153.019506
-2.755041 -8.727127 -153.020872
-2.675726 -8.797070 -153.022238
-2.596411 -8.867013 -153.023604
-2.517097 -8.936956 -153.024970
-2.437782 -9.006899 -153.026336
-2.358467 -9.076843 -153.027702
-2.279152 -9.146786 -153.029068
-2.199838 -9.216729 -153.030434
-2.182989 -9.367177 -153.029377
-2.103674 -9.437120 -153.030743
-2.024359 -9.507063 -153.032109
-1.945045 -9.577006 -153.033475
-1.865730 -9.646949 -153.034841
-1.723950 -9.636388 -153.038630
-1.644635 -9.706331 -153.039996
-1.565320 -9.776274 -153.041362
-1.486006 -9.846217 -153.042728
-1.406691 -9.916161 -153.044094
-1.327376 -9.986104 -153.045460
-1.248062 -10.056047 -153.046826
-1.168747 -10.125990 -153.048192
-1.026967 -10.115428 -153.051981
-0.947652 -10.185372 -153.053347
-0.868337 -10.255315 -153.054713
-0.789023 -10.325258 -153.056079
-0.709708 -10.395201 -153.057445
-0.630393 -10.465144 -153.058811
-0.488613 -10.454583 -153.062600
-0.409298 -10.524526 -153.063966
-0.329984 -10.594469 -153.065332
-0.188203 -10.583908 -153.069121
-0.108889 -10.653851 -153.070487
-0.029574 -10.723794 -153.071853
0.112206 -10.713232 -153.075643
0.191521 -10.783175 -153.077009
0.270836 -10.853119 -153.078375
0.412616 -10.842557 -153.082164
0.491930 -10.912500 -153.083530
0.696176 -10.821434 -153.089742
-2.859953 -8.478098 -152.945919
-2.770137 -8.599966 -152.944862
-2.680321 -8.721833 -152.943805
-2.590505 -8.843700 -152.942748
-2.500690 -8.965567 -152.941691
-2.410874 -9.087434 -152.940634
-2.307214 -9.108349 -152.942000
-2.217398 -9.230216 -152.940943
-2.113738 -9.251131 -152.942309
-2.023922 -9.372998 -152.941251
-1.934106 -9.494865 -152.940194
-1.844290 -9.616732 -152.939137
-1.740630 -9.637647 -152.940503
-1.650814 -9.759514 -152.939446
-1.560998 -9.881381 -152.938389
-1.457338 -9.902296 -152.939755
-1.353678 -9.923212 -152.941121
-1.263862 -10.045079 -152.940064
-1.160202 -10.065994 -152.941430
-1.056542 -10.086909 -152.942796
-0.952882 -10.107824 -152.944162
-0.904599 -10.532547 -152.935836
-0.814783 -10.654414 -152.934778
-0.711123 -10.675329 -152.936144
-0.621307 -10.797196 -152.935087
-0.517647 -10.818111 -152.936453
-0.427831 -10.939978 -152.935396
-0.324171 -10.960893 -152.936762
-0.220511 -10.981809 -152.938128
-0.116851 -11.002724 -152.939494
-0.027035 -11.124591 -152.938437
0.076625 -11.145506 -152.939803
0.180286 -11.166421 -152.941169
0.283946 -11.187336 -152.942535
0.387606 -11.208251 -152.943901
0.491266 -11.229166 -152.945267
0.594926 -11.250081 -152.946633
0.698586 -11.270997 -152.947999
0.802247 -11.291912 -152.949365
0.905907 -11.312827 -152.950731
1.009567 -11.333742 -152.952097
1.113227 -11.354657 -152.953463
1.216887 -11.375572 -152.954829
1.320547 -11.396487 -152.956195
1.424208 -11.417403 -152.957561
1.527868 -11.438318 -152.958927
1.617684 -11.560185 -152.957870
1.721344 -11.581100 -152.959236
1.825004 -11.602015 -152.960602
1.928664 -11.622930 -152.961968
2.032324 -11.643845 -152.963334
2.135984 -11.664760 -152.964700
2.239644 -11.685675 -152.966066
2.343305 -11.706591 -152.967432
2.460809 -11.626554 -152.971222
2.564469 -11.647469 -152.972588
2.668129 -11.668384 -152.973954
2.771790 -11.689299 -152.975320
2.875450 -11.710214 -152.976686
2.979110 -11.731129 -152.978052
3.082770 -11.752045 -152.979418
3.186430 -11.772960 -152.980784
3.290090 -11.793875 -152.982150
3.393751 -11.814790 -152.983516
3.497411 -11.835705 -152.984882
3.601071 -11.856620 -152.986248
3.704731 -11.877535 -152.987614
3.808391 -11.898451 -152.988980
3.912051 -11.919366 -152.990346
4.015712 -11.940281 -152.991712
4.133216 -11.860244 -152.995501
4.236876 -11.881159 -152.996867
4.340536 -11.902074 -152.998233
4.444196 -11.922989 -152.999599
4.561701 -11.842953 -153.003388
4.679205 -11.762916 -153.007177
4.782866 -11.783831 -153.008543
4.900370 -11.703794 -153.012332
5.031719 -11.522805 -153.018545
5.190756 -11.139913 -153.029603
5.294417 -11.160828 -153.030969
5.411921 -11.080791 -153.034758
5.515581 -11.101706 -153.036124
5.619241 -11.122622 -153.037490
5.736746 -11.042585 -153.041280
5.840406 -11.063500 -153.042646
5.957910 -10.983463 -153.046435
6.075415 -10.903426 -153.050224
6.206764 -10.722438 -153.056436
6.324268 -10.642401 -153.060225
6.441773 -10.562364 -153.064014
6.545433 -10.583279 -153.065380
6.662937 -10.503242 -153.069170
-0.042712 -10.774256 -152.883000
0.096004 -10.834888 -152.881943
0.234721 -10.895520 -152.880886
0.373437 -10.956153 -152.879829
0.512153 -11.016785 -152.878772
0.650869 -11.077417 -152.877715
0.751099 -11.043700 -152.879081
0.889816 -11.104332 -152.878024
1.028532 -11.164964 -152.876966
1.167248 -11.225596 -152.875909
1.305965 -11.286228 -152.874852
1.444681 -11.346860 -152.873795
1.583397 -11.407493 -152.872738
1.722113 -11.468125 -152.871681
1.822343 -11.434408 -152.873047
1.961060 -11.495040 -152.871990
2.099776 -11.555672 -152.870933
2.200006 -11.521955 -152.872299
2.608127 -12.243031 -152.854280
2.708357 -12.209314 -152.855646
2.808587 -12.175597 -152.857012
2.908817 -12.141880 -152.858378
3.009047 -12.108163 -152.859744
3.147763 -12.168795 -152.858687
3.247993 -12.135078 -152.860053
3.348223 -12.101361 -152.861419
3.448453 -12.067644 -152.862785
3.548683 -12.033927 -152.864151
3.648912 -12.000210 -152.865517
3.787629 -12.060842 -152.864460
3.887859 -12.027125 -152.865826
3.988089 -11.993408 -152.867192
4.088318 -11.959691 -152.868558
4.188548 -11.925974 -152.869924
4.288778 -11.892257 -152.871290
4.389008 -11.858540 -152.872656
4.489238 -11.824823 -152.874022
4.589468 -11.791106 -152.875388
4.689698 -11.757389 -152.876754
4.789928 -11.723672 -152.878120
4.890158 -11.689955 -152.879486
4.990388 -11.656238 -152.880852
5.090618 -11.622521 -152.882218
5.190848 -11.588804 -152.883584
5.291078 -11.555087 -152.884950
5.391307 -11.521370 -152.886316
5.491537 -11.487653 -152.887682
5.591767 -11.453936 -152.889048
5.691997 -11.420219 -152.890414
5.792227 -11.386502 -152.891780
5.892457 -11.352785 -152.893146
5.992687 -11.319068 -152.894512
6.092917 -11.285351 -152.895878
6.193147 -11.251634 -152.897244
6.293377 -11.217917 -152.898610
6.393607 -11.184200 -152.899976
6.493837 -11.150483 -152.901342
6.594067 -11.116766 -152.902708
6.694296 -11.083049 -152.904074
6.794526 -11.049332 -152.905440
6.894756 -11.015615 -152.906806
6.994986 -10.981898 -152.908172
7.095216 -10.948181 -152.909538
7.195446 -10.914464 -152.910904
7.295676 -10.880747 -152.912270
7.395906 -10.847030 -152.913636
7.457649 -10.718964 -152.917425
7.557879 -10.685247 -152.918791
7.658109 -10.651530 -152.920157
7.758339 -10.617813 -152.921523
7.858569 -10.584096 -152.922889
7.958799 -10.550379 -152.924256
8.059029 -10.516662 -152.925622
8.159259 -10.482945 -152.926988
8.259489 -10.449228 -152.928354
8.359719 -10.415511 -152.929720
8.459949 -10.381794 -152.931086
8.560179 -10.348077 -152.932452
8.621922 -10.220011 -152.936241
8.722152 -10.186294 -152.937607
8.822382 -10.152577 -152.938973
8.922612 -10.118860 -152.940339
9.022842 -10.085143 -152.941705
9.084585 -9.957077 -152.945494
9.184815 -9.923360 -152.946860
9.285045 -9.889643 -152.948226
9.385275 -9.855926 -152.949592
9.485505 -9.822209 -152.950958
9.585735 -9.788492 -152.952324
9.455047 -9.188680 -152.968229
9.516790 -9.060614 -152.972018
9.617020 -9.026897 -152.973384
9.678764 -8.898831 -152.977173
9.740507 -8.770765 -152.980962
9.840737 -8.737048 -152.982328
9.902481 -8.608982 -152.986117
9.964224 -8.480915 -152.989907
10.064454 -8.447198 -152.991273
10.126198 -8.319132 -152.995062
10.187941 -8.191066 -152.998851
10.249685 -8.063000 -153.002640
10.272942 -7.840585 -153.008852
10.334686 -7.712519 -153.012641
10.396429 -7.584453 -153.016430
10.458173 -7.456387 -153.020220
10.519916 -7.328320 -153.024009
10.543173 -7.105905 -153.030221
10.604917 -6.977839 -153.034010
10.628174 -6.755424 -153.040222
10.689918 -6.627358 -153.044012
10.751661 -6.499292 -153.047801
10.774918 -6.276876 -153.054013
