ply
format ascii 1.0
element vertex 1207
property float x
property float y
property float z
element face 0
property list uchar uint vertex_indices
end_header
1.957190 -11.662122 -151.856689
2.107637 -11.645272 -151.855632
2.258085 -11.628423 -151.854575
2.328028 -11.549109 -151.855941
2.800495 -11.782122 -151.845191
3.192457 -11.952669 -151.836865
3.342905 -11.935820 -151.835807
3.493353 -11.918971 -151.834750
3.804810 -12.027053 -151.828847
3.955258 -12.010204 -151.827790
4.105706 -11.993355 -151.826733
4.336658 -12.038971 -151.823253
4.567611 -12.084587 -151.819772
4.718058 -12.067738 -151.818715
4.868506 -12.050889 -151.817658
5.018954 -12.034040 -151.816601
5.169402 -12.017191 -151.815544
5.239345 -11.937876 -151.816910
5.389793 -11.921027 -151.815853
5.540241 -11.904178 -151.814796
5.610184 -11.824863 -151.816162
5.760632 -11.808014 -151.815105
5.830575 -11.728699 -151.816471
5.900518 -11.649385 -151.817837
6.050966 -11.632535 -151.816780
6.120909 -11.553221 -151.818146
6.271357 -11.536372 -151.817088
6.421805 -11.519522 -151.816031
6.572253 -11.502673 -151.814974
6.722700 -11.485824 -151.813917
6.873148 -11.468975 -151.812860
6.943091 -11.389660 -151.814226
7.093539 -11.372811 -151.813169
7.243987 -11.355962 -151.812112
7.313930 -11.276647 -151.813478
7.464378 -11.259798 -151.812421
7.534321 -11.180484 -151.813787
7.684769 -11.163634 -151.812730
7.754712 -11.084320 -151.814096
7.824655 -11.005005 -151.815462
7.975103 -10.988156 -151.814405
8.045046 -10.908841 -151.815771
8.114990 -10.829526 -151.817137
8.184933 -10.750212 -151.818503
8.335381 -10.733363 -151.817445
8.405324 -10.654048 -151.818812
8.475267 -10.574733 -151.820178
8.545210 -10.495419 -151.821544
8.695658 -10.478569 -151.820486
8.765601 -10.399255 -151.821852
8.835544 -10.319940 -151.823218
8.905487 -10.240625 -151.824584
9.055935 -10.223776 -151.823527
9.125878 -10.144462 -151.824893
9.195822 -10.065147 -151.826259
9.265765 -9.985832 -151.827625
9.335708 -9.906517 -151.828991
9.486156 -9.889668 -151.827934
9.556099 -9.810354 -151.829300
9.626042 -9.731039 -151.830666
9.695985 -9.651724 -151.832032
9.765928 -9.572410 -151.833398
9.835871 -9.493095 -151.834764
9.905815 -9.413780 -151.836130
9.975758 -9.334466 -151.837496
10.045701 -9.255151 -151.838862
10.115644 -9.175836 -151.840228
10.185587 -9.096521 -151.841594
10.255530 -9.017207 -151.842960
10.325474 -8.937892 -151.844327
10.395417 -8.858577 -151.845693
10.465360 -8.779263 -151.847059
10.535303 -8.699948 -151.848425
10.605246 -8.620633 -151.849791
10.675189 -8.541319 -151.851157
10.664628 -8.399538 -151.854946
10.734571 -8.320224 -151.856312
10.804514 -8.240909 -151.857678
10.874457 -8.161594 -151.859044
10.944400 -8.082280 -151.860410
11.014344 -8.002965 -151.861776
11.084287 -7.923650 -151.863142
11.073725 -7.781870 -151.866931
11.143668 -7.702555 -151.868297
11.213612 -7.623241 -151.869663
11.283555 -7.543926 -151.871029
11.272993 -7.402146 -151.874818
11.262432 -7.260366 -151.878607
11.251870 -7.118585 -151.882396
11.241309 -6.976805 -151.886186
11.311252 -6.897490 -151.887552
11.300690 -6.755710 -151.891341
11.290129 -6.613930 -151.895130
11.360072 -6.534615 -151.896496
11.349510 -6.392835 -151.900285
11.419453 -6.313520 -151.901651
11.408892 -6.171740 -151.905440
11.478835 -6.092426 -151.906806
11.468274 -5.950645 -151.910595
11.538217 -5.871331 -151.911961
11.527655 -5.729550 -151.915751
11.597598 -5.650236 -151.917117
11.587037 -5.508455 -151.920906
11.576475 -5.366675 -151.924695
11.646418 -5.287361 -151.926061
11.555352 -5.083115 -151.932273
11.544791 -4.941335 -151.936062
11.534229 -4.799554 -151.939851
11.523668 -4.657774 -151.943640
11.593611 -4.578459 -151.945007
11.583049 -4.436679 -151.948796
11.491983 -4.232433 -151.955008
11.481422 -4.090653 -151.958797
11.390355 -3.886407 -151.965009
11.379794 -3.744627 -151.968798
11.369232 -3.602847 -151.972588
11.278166 -3.398601 -151.978800
11.187100 -3.194355 -151.985012
11.096034 -2.990110 -151.991224
11.004968 -2.785864 -151.997437
11.074911 -2.706549 -151.998803
11.064349 -2.564769 -152.002592
10.973283 -2.360523 -152.008804
10.962721 -2.218743 -152.012593
10.952160 -2.076963 -152.016382
10.861094 -1.872717 -152.022595
10.689523 -1.606006 -152.031230
10.598457 -1.401760 -152.037442
10.587895 -1.259980 -152.041231
10.577334 -1.118199 -152.045021
10.486267 -0.913954 -152.051233
10.475706 -0.772173 -152.055022
10.465144 -0.630393 -152.058811
10.454583 -0.488613 -152.062600
9.175860 -10.199575 -151.802145
9.297727 -10.109759 -151.801087
9.419594 -10.019943 -151.800030
9.541461 -9.930127 -151.798973
9.663328 -9.840311 -151.797916
9.785195 -9.750495 -151.796859
9.907062 -9.660680 -151.795802
9.927977 -9.557019 -151.797168
9.948892 -9.453359 -151.798534
10.070759 -9.363543 -151.797477
10.192626 -9.273728 -151.796420
10.314493 -9.183912 -151.795363
10.436360 -9.094096 -151.794305
10.558227 -9.004280 -151.793248
10.680095 -8.914464 -151.792191
10.701010 -8.810804 -151.793557
10.822877 -8.720988 -151.792500
10.843792 -8.617328 -151.793866
10.864707 -8.513668 -151.795232
10.986574 -8.423852 -151.794175
11.007489 -8.320192 -151.795541
11.028404 -8.216532 -151.796907
11.150271 -8.126716 -151.795850
11.171186 -8.023056 -151.797216
11.293053 -7.933240 -151.796159
11.313969 -7.829580 -151.797525
11.334884 -7.725920 -151.798891
11.456751 -7.636104 -151.797834
11.477666 -7.532444 -151.799200
11.498581 -7.428784 -151.800566
11.519496 -7.325123 -151.801932
11.540411 -7.221463 -151.803298
11.561326 -7.117803 -151.804664
11.582242 -7.014143 -151.806030
11.704109 -6.924327 -151.804973
11.725024 -6.820667 -151.806339
11.745939 -6.717007 -151.807705
11.766854 -6.613347 -151.809071
11.888721 -6.523531 -151.808014
11.909636 -6.419871 -151.809380
11.930551 -6.316210 -151.810746
11.951466 -6.212550 -151.812112
11.972382 -6.108890 -151.813478
11.993297 -6.005230 -151.814844
12.014212 -5.901570 -151.816210
12.035127 -5.797910 -151.817576
11.955090 -5.680405 -151.821365
11.976005 -5.576745 -151.822731
11.996920 -5.473085 -151.824097
11.916884 -5.355580 -151.827886
11.937799 -5.251920 -151.829252
11.958714 -5.148260 -151.830618
11.878677 -5.030756 -151.834407
11.899592 -4.927095 -151.835773
11.920507 -4.823435 -151.837139
11.941423 -4.719775 -151.838505
11.962338 -4.616115 -151.839871
11.983253 -4.512455 -151.841237
11.903216 -4.394950 -151.845027
11.924131 -4.291290 -151.846393
11.945046 -4.187630 -151.847759
11.865010 -4.070125 -151.851548
11.885925 -3.966465 -151.852914
11.805888 -3.848961 -151.856703
11.826803 -3.745301 -151.858069
11.746766 -3.627796 -151.861858
11.767681 -3.524136 -151.863224
11.687645 -3.406632 -151.867013
11.708560 -3.302971 -151.868379
11.628523 -3.185467 -151.872168
11.649438 -3.081807 -151.873534
11.569401 -2.964302 -151.877324
11.489364 -2.846798 -151.881113
11.510280 -2.743138 -151.882479
11.531195 -2.639477 -151.883845
11.552110 -2.535817 -151.885211
11.472073 -2.418313 -151.889000
11.492988 -2.314653 -151.890366
11.513903 -2.210992 -151.891732
11.433867 -2.093488 -151.895521
11.454782 -1.989828 -151.896887
11.475697 -1.886168 -151.898253
11.395660 -1.768663 -151.902042
11.416575 -1.665003 -151.903408
11.437490 -1.561343 -151.904774
11.458405 -1.457683 -151.906140
11.378369 -1.340178 -151.909929
11.399284 -1.236518 -151.911295
11.319247 -1.119014 -151.915085
11.239210 -1.001509 -151.918874
11.260125 -0.897849 -151.920240
11.180089 -0.780344 -151.924029
11.201004 -0.676684 -151.925395
11.221919 -0.573024 -151.926761
11.141882 -0.455520 -151.930550
11.162797 -0.351859 -151.931916
11.082760 -0.234355 -151.935705
11.002724 -0.116851 -151.939494
10.922687 0.000654 -151.943283
10.943602 0.104314 -151.944649
10.863565 0.221819 -151.948439
10.884480 0.325479 -151.949805
10.905395 0.429139 -151.951171
10.825359 0.546643 -151.954960
10.745322 0.664148 -151.958749
10.665285 0.781652 -151.962538
10.585248 0.899157 -151.966327
10.606163 1.002817 -151.967693
10.526127 1.120322 -151.971482
10.547042 1.223982 -151.972848
10.467005 1.341486 -151.976638
10.386968 1.458991 -151.980427
10.306931 1.576495 -151.984216
10.327847 1.680155 -151.985582
10.348762 1.783815 -151.986948
10.369677 1.887476 -151.988314
10.289640 2.004980 -151.992103
10.310555 2.108640 -151.993469
10.230518 2.226145 -151.997258
10.251434 2.329805 -151.998624
10.070445 2.461154 -152.004836
9.990408 2.578658 -152.008626
9.910371 2.696163 -152.012415
9.931286 2.799823 -152.013781
9.952202 2.903483 -152.015147
9.872165 3.020987 -152.018936
9.893080 3.124648 -152.020302
9.813043 3.242152 -152.024091
9.833958 3.345812 -152.025457
9.753921 3.463317 -152.029246
9.673885 3.580821 -152.033035
9.593848 3.698326 -152.036824
9.311907 3.843519 -152.045460
9.231871 3.961023 -152.049249
9.252786 4.064684 -152.050615
9.273701 4.168344 -152.051981
9.294616 4.272004 -152.053347
9.315531 4.375664 -152.054713
9.235494 4.493169 -152.058502
9.256409 4.596829 -152.059868
9.176373 4.714333 -152.063657
9.096336 4.831838 -152.067446
11.597945 -7.913535 -151.825840
11.752927 -7.736332 -151.822360
11.719210 -7.636102 -151.823726
11.779842 -7.497386 -151.822669
11.840474 -7.358670 -151.821612
11.901106 -7.219953 -151.820555
12.056087 -7.042751 -151.817074
12.022370 -6.942521 -151.818440
12.083002 -6.803804 -151.817383
12.049285 -6.703575 -151.818749
12.015568 -6.603345 -151.820115
12.076200 -6.464628 -151.819058
12.136832 -6.325912 -151.818001
12.197465 -6.187196 -151.816944
12.163748 -6.086966 -151.818310
12.224380 -5.948250 -151.817253
12.190663 -5.848020 -151.818619
12.251295 -5.709303 -151.817562
12.217578 -5.609073 -151.818928
12.278210 -5.470357 -151.817871
12.338842 -5.331641 -151.816814
12.305125 -5.231411 -151.818180
12.365757 -5.092695 -151.817123
12.332040 -4.992465 -151.818489
12.392672 -4.853748 -151.817431
12.453304 -4.715032 -151.816374
12.419587 -4.614802 -151.817740
12.385870 -4.514572 -151.819106
12.446502 -4.375856 -151.818049
12.412785 -4.275626 -151.819415
12.379068 -4.175396 -151.820781
12.345351 -4.075166 -151.822147
12.311634 -3.974936 -151.823513
12.372267 -3.836220 -151.822456
12.338550 -3.735990 -151.823822
12.304833 -3.635760 -151.825188
12.271116 -3.535530 -151.826554
12.331748 -3.396814 -151.825497
12.298031 -3.296584 -151.826863
12.264314 -3.196354 -151.828229
12.324946 -3.057638 -151.827172
12.291229 -2.957408 -151.828538
12.257512 -2.857178 -151.829904
12.129446 -2.795434 -151.833693
12.095729 -2.695204 -151.835059
12.062012 -2.594974 -151.836425
12.028295 -2.494745 -151.837791
11.994578 -2.394515 -151.839157
12.055210 -2.255798 -151.838100
12.021493 -2.155568 -151.839466
11.987776 -2.055338 -151.840832
11.954059 -1.955109 -151.842198
11.920342 -1.854879 -151.843564
11.886625 -1.754649 -151.844930
11.947257 -1.615932 -151.843873
11.913540 -1.515702 -151.845239
11.879823 -1.415473 -151.846605
11.846106 -1.315243 -151.847971
11.812389 -1.215013 -151.849337
11.778672 -1.114783 -151.850703
11.744955 -1.014553 -151.852069
11.805587 -0.875837 -151.851012
11.771870 -0.775607 -151.852378
11.738153 -0.675377 -151.853744
11.704436 -0.575147 -151.855110
11.670719 -0.474917 -151.856476
11.637002 -0.374687 -151.857842
11.603285 -0.274457 -151.859208
11.569568 -0.174227 -151.860574
11.535851 -0.073997 -151.861940
11.502134 0.026233 -151.863306
11.468417 0.126463 -151.864672
11.529049 0.265179 -151.863615
11.495332 0.365409 -151.864981
11.461615 0.465639 -151.866347
11.427898 0.565869 -151.867713
11.394181 0.666099 -151.869079
11.360464 0.766329 -151.870445
11.326747 0.866558 -151.871811
11.293030 0.966788 -151.873177
11.353662 1.105505 -151.872120
11.319945 1.205735 -151.873486
11.286228 1.305965 -151.874852
11.252511 1.406194 -151.876218
11.218794 1.506424 -151.877584
11.185077 1.606654 -151.878950
11.151360 1.706884 -151.880316
11.117643 1.807114 -151.881682
11.083926 1.907344 -151.883048
11.050209 2.007574 -151.884414
11.016492 2.107804 -151.885780
10.982775 2.208034 -151.887146
11.043407 2.346750 -151.886089
11.009690 2.446980 -151.887455
10.975973 2.547210 -151.888821
10.942256 2.647440 -151.890187
10.908539 2.747670 -151.891553
10.874822 2.847900 -151.892919
10.841105 2.948130 -151.894285
10.713039 3.009873 -151.898075
10.679322 3.110103 -151.899441
10.645605 3.210333 -151.900807
10.611888 3.310563 -151.902173
10.483822 3.372307 -151.905962
10.450105 3.472536 -151.907328
10.416388 3.572766 -151.908694
10.382671 3.672996 -151.910060
10.254605 3.734740 -151.913849
10.220888 3.834970 -151.915215
10.187171 3.935200 -151.916581
10.153454 4.035430 -151.917947
10.119737 4.135660 -151.919313
10.086020 4.235889 -151.920679
10.052303 4.336119 -151.922045
10.018586 4.436349 -151.923411
9.984869 4.536579 -151.924777
9.951152 4.636809 -151.926143
9.917435 4.737039 -151.927509
9.789369 4.798783 -151.931298
9.755652 4.899013 -151.932664
9.721935 4.999242 -151.934030
9.593869 5.060986 -151.937819
9.560152 5.161216 -151.939185
9.526435 5.261446 -151.940551
9.492718 5.361676 -151.941917
9.459001 5.461906 -151.943283
9.425284 5.562136 -151.944649
9.297218 5.623879 -151.948439
9.263501 5.724109 -151.949805
9.135435 5.785853 -151.953594
8.913019 5.809110 -151.959806
8.879302 5.909340 -151.961172
8.751236 5.971083 -151.964961
8.623170 6.032827 -151.968750
8.589453 6.133057 -151.970116
8.461387 6.194800 -151.973905
8.427670 6.295030 -151.975271
8.299604 6.356774 -151.979061
8.265887 6.457004 -151.980427
8.137821 6.518747 -151.984216
8.104104 6.618977 -151.985582
7.976038 6.680721 -151.989371
7.942321 6.780951 -151.990737
7.814255 6.842694 -151.994526
7.686188 6.904438 -151.998315
7.558122 6.966181 -152.002104
7.430056 7.027925 -152.005894
7.301990 7.089668 -152.009683
7.173924 7.151412 -152.013472
7.045858 7.213155 -152.017261
6.917792 7.274899 -152.021050
6.789726 7.336643 -152.024839
6.756009 7.436873 -152.026205
6.627943 7.498616 -152.029994
6.499876 7.560360 -152.033784
6.371810 7.622103 -152.037573
6.243744 7.683847 -152.041362
6.210027 7.784077 -152.042728
6.081961 7.845820 -152.046517
12.619660 -4.039596 -151.891395
12.602811 -3.889148 -151.890338
12.585962 -3.738700 -151.889281
12.569112 -3.588252 -151.888224
12.489798 -3.518309 -151.889590
12.472948 -3.367861 -151.888532
12.456099 -3.217413 -151.887475
12.439250 -3.066965 -151.886418
12.672263 -2.594498 -151.875669
12.655413 -2.444050 -151.874612
12.638564 -2.293602 -151.873554
12.559249 -2.223659 -151.874920
12.542400 -2.073211 -151.873863
12.525551 -1.922763 -151.872806
12.446236 -1.852820 -151.874172
12.429387 -1.702372 -151.873115
12.350072 -1.632429 -151.874481
12.333223 -1.481981 -151.873424
12.316374 -1.331533 -151.872367
12.237059 -1.261590 -151.873733
12.220210 -1.111142 -151.872676
12.140895 -1.041199 -151.874042
12.061580 -0.971255 -151.875408
12.044731 -0.820808 -151.874351
12.090347 -0.589855 -151.870871
12.073498 -0.439407 -151.869813
11.994183 -0.369464 -151.871179
11.977334 -0.219016 -151.870122
11.898019 -0.149073 -151.871488
11.881170 0.001375 -151.870431
11.864320 0.151823 -151.869374
11.785006 0.221766 -151.870740
11.768156 0.372214 -151.869683
11.751307 0.522662 -151.868626
11.671992 0.592606 -151.869992
11.655143 0.743053 -151.868935
11.638294 0.893501 -151.867878
11.558979 0.963445 -151.869244
11.542130 1.113893 -151.868187
11.525280 1.264340 -151.867130
11.445966 1.334284 -151.868496
11.429116 1.484732 -151.867438
11.349802 1.554675 -151.868804
11.270487 1.624618 -151.870171
11.253638 1.775066 -151.869113
11.174323 1.845009 -151.870479
11.095008 1.914952 -151.871845
11.078159 2.065400 -151.870788
11.061309 2.215848 -151.869731
10.981995 2.285791 -151.871097
10.902680 2.355734 -151.872463
10.885831 2.506182 -151.871406
10.806516 2.576125 -151.872772
10.977063 2.968088 -151.864446
10.960214 3.118536 -151.863389
10.943365 3.268984 -151.862331
10.864050 3.338927 -151.863697
10.784735 3.408870 -151.865063
10.705420 3.478813 -151.866430
10.626106 3.548756 -151.867796
10.546791 3.618699 -151.869162
10.529941 3.769147 -151.868104
10.513092 3.919595 -151.867047
10.433777 3.989539 -151.868413
10.416928 4.139986 -151.867356
10.400079 4.290434 -151.866299
10.320764 4.360378 -151.867665
10.303915 4.510825 -151.866608
10.287066 4.661273 -151.865551
10.207751 4.731217 -151.866917
10.190902 4.881665 -151.865860
10.111587 4.951608 -151.867226
10.032272 5.021551 -151.868592
10.015423 5.171999 -151.867535
9.998573 5.322447 -151.866478
9.919259 5.392390 -151.867844
9.902409 5.542838 -151.866787
9.823095 5.612781 -151.868153
9.743780 5.682724 -151.869519
9.664465 5.752667 -151.870885
9.585150 5.822610 -151.872251
9.505835 5.892554 -151.873617
9.488986 6.043002 -151.872560
9.409671 6.112945 -151.873926
9.330357 6.182888 -151.875292
9.251042 6.252831 -151.876658
9.171727 6.322774 -151.878024
9.154878 6.473222 -151.876966
9.075563 6.543165 -151.878332
8.996248 6.613109 -151.879699
8.916933 6.683052 -151.881065
8.837619 6.752995 -151.882431
8.758304 6.822938 -151.883797
8.741455 6.973386 -151.882739
8.662140 7.043329 -151.884105
8.582825 7.113272 -151.885471
8.503510 7.183215 -151.886837
8.424195 7.253159 -151.888204
8.344881 7.323102 -151.889570
8.265566 7.393045 -151.890936
8.123786 7.382483 -151.894725
8.044471 7.452426 -151.896091
7.965156 7.522370 -151.897457
7.885841 7.592313 -151.898823
7.806526 7.662256 -151.900189
7.727212 7.732199 -151.901555
7.647897 7.802142 -151.902921
7.568582 7.872085 -151.904287
7.426802 7.861524 -151.908076
7.347487 7.931467 -151.909442
7.268172 8.001410 -151.910808
7.188857 8.071353 -151.912174
7.109542 8.141296 -151.913540
7.030228 8.211240 -151.914906
6.888447 8.200678 -151.918695
6.809133 8.270621 -151.920061
6.729818 8.340564 -151.921427
6.588037 8.330003 -151.925216
6.508723 8.399946 -151.926582
6.366942 8.389384 -151.930371
6.287628 8.459327 -151.931738
6.208313 8.529270 -151.933104
6.128998 8.599214 -151.934470
6.049683 8.669157 -151.935836
5.907903 8.658595 -151.939625
5.766123 8.648034 -151.943414
5.312014 8.234948 -151.959319
5.170234 8.224386 -151.963108
5.090919 8.294330 -151.964474
4.949139 8.283768 -151.968263
4.807359 8.273206 -151.972052
4.728044 8.343149 -151.973418
4.586264 8.332588 -151.977207
4.506949 8.402531 -151.978573
4.365168 8.391969 -151.982362
4.223388 8.381408 -151.986151
4.081608 8.370846 -151.989941
3.939827 8.360284 -151.993730
3.798047 8.349723 -151.997519
3.593801 8.258656 -152.003731
8.547417 7.226814 -151.873211
8.443757 7.247729 -151.874577
8.353941 7.369597 -151.873520
8.264126 7.491464 -151.872463
8.160465 7.512379 -151.873829
8.070650 7.634246 -151.872772
7.966989 7.655161 -151.874138
7.863329 7.676076 -151.875504
7.759669 7.696991 -151.876870
7.669853 7.818858 -151.875813
7.580037 7.940725 -151.874756
7.490222 8.062592 -151.873699
7.400406 8.184459 -151.872642
7.296746 8.205374 -151.874008
7.206930 8.327241 -151.872951
7.103270 8.348157 -151.874317
7.013454 8.470024 -151.873260
6.909794 8.490939 -151.874626
6.806133 8.511854 -151.875992
6.702473 8.532769 -151.877358
6.598813 8.553684 -151.878724
6.495153 8.574599 -151.880090
6.405337 8.696466 -151.879033
6.301677 8.717382 -151.880399
6.198017 8.738297 -151.881765
6.094357 8.759212 -151.883131
6.004541 8.881079 -151.882073
5.900881 8.901994 -151.883440
5.797221 8.922909 -151.884806
5.693560 8.943824 -151.886172
5.589900 8.964739 -151.887538
5.486240 8.985654 -151.888904
5.382580 9.006570 -151.890270
5.278920 9.027485 -151.891636
5.175260 9.048400 -151.893002
5.071599 9.069315 -151.894368
4.954095 8.989278 -151.898157
4.850435 9.010193 -151.899523
4.746775 9.031108 -151.900889
4.629270 8.951072 -151.904678
4.525610 8.971987 -151.906044
4.421950 8.992902 -151.907410
4.318290 9.013817 -151.908776
4.214629 9.034732 -151.910142
4.097125 8.954695 -151.913931
3.993465 8.975611 -151.915297
3.889805 8.996526 -151.916663
3.786144 9.017441 -151.918029
3.668640 8.937404 -151.921818
3.564980 8.958319 -151.923184
3.461320 8.979234 -151.924550
3.357660 9.000149 -151.925916
3.253999 9.021065 -151.927282
3.150339 9.041980 -151.928648
3.032835 8.961943 -151.932438
2.929175 8.982858 -151.933804
2.811670 8.902821 -151.937593
2.694166 8.822784 -151.941382
2.576661 8.742748 -151.945171
2.459157 8.662711 -151.948960
2.355496 8.683626 -151.950326
2.237992 8.603589 -151.954115
2.134332 8.624504 -151.955481
2.016827 8.544468 -151.959270
1.885479 8.363479 -151.965483
5.106270 9.258746 -151.902419
4.967554 9.319378 -151.901362
4.867324 9.285661 -151.902728
4.767094 9.251944 -151.904094
4.666864 9.218227 -151.905460
4.566634 9.184510 -151.906826
4.427918 9.245142 -151.905769
4.289202 9.305774 -151.904712
4.150485 9.366406 -151.903655
4.011769 9.427038 -151.902598
3.911539 9.393321 -151.903964
3.811309 9.359604 -151.905330
3.672593 9.420237 -151.904273
3.572363 9.386520 -151.905639
3.472133 9.352803 -151.907005
3.371903 9.319086 -151.908371
3.271673 9.285369 -151.909737
3.171443 9.251652 -151.911103
3.071213 9.217935 -151.912469
2.970984 9.184218 -151.913835
2.870754 9.150501 -151.915201
2.732037 9.211133 -151.914144
2.631807 9.177416 -151.915510
2.531577 9.143699 -151.916876
2.431348 9.109982 -151.918242
2.331118 9.076265 -151.919608
2.230888 9.042548 -151.920974
2.130658 9.008831 -151.922340
2.030428 8.975114 -151.923706
1.930198 8.941397 -151.925072
1.829968 8.907680 -151.926438
1.729738 8.873963 -151.927804
1.629508 8.840246 -151.929170
1.529278 8.806529 -151.930536
1.429048 8.772812 -151.931902
1.328818 8.739095 -151.933268
1.228588 8.705378 -151.934634
1.128359 8.671661 -151.936000
1.028129 8.637944 -151.937366
0.927899 8.604227 -151.938732
0.866155 8.476161 -151.942521
0.765925 8.442444 -151.943887
0.665695 8.408727 -151.945253
0.565465 8.375010 -151.946619
0.465235 8.341293 -151.947985
0.365006 8.307576 -151.949351
0.264776 8.273859 -151.950717
0.164546 8.240142 -151.952083
0.064316 8.206425 -151.953449
-0.035914 8.172708 -151.954815
-0.136144 8.138991 -151.956181
-0.236374 8.105274 -151.957547
-0.336604 8.071557 -151.958913
-0.436834 8.037840 -151.960279
-0.537064 8.004123 -151.961645
-0.637294 7.970406 -151.963011
-0.737524 7.936689 -151.964377
-0.799267 7.808622 -151.968167
-0.899497 7.774905 -151.969533
-0.999727 7.741188 -151.970899
-1.099957 7.707471 -151.972265
-1.200187 7.673754 -151.973631
-1.261930 7.545688 -151.977420
-1.362160 7.511971 -151.978786
-1.462390 7.478254 -151.980152
-1.562620 7.444537 -151.981518
-1.624364 7.316471 -151.985307
-1.724594 7.282754 -151.986673
-1.824824 7.249037 -151.988039
-1.886567 7.120971 -151.991828
-1.986797 7.087254 -151.993194
-2.087027 7.053537 -151.994560
-2.148771 6.925471 -151.998349
-2.249000 6.891754 -151.999715
-2.310744 6.763688 -152.003504
-2.410974 6.729971 -152.004871
-2.434231 6.507556 -152.011083
-2.495975 6.379490 -152.014872
-2.519232 6.157074 -152.021084
-2.619462 6.123357 -152.022450
-2.681205 5.995291 -152.026239
-2.742949 5.867225 -152.030028
-0.220358 8.711448 -151.950621
-0.290301 8.632133 -151.951987
-0.360244 8.552819 -151.953353
-0.510692 8.535970 -151.952296
-0.580635 8.456655 -151.953662
-0.731083 8.439806 -151.952605
-0.801026 8.360491 -151.953971
-0.951474 8.343642 -151.952914
-1.021417 8.264327 -151.954280
-1.171865 8.247478 -151.953223
-1.241808 8.168163 -151.954589
-1.392256 8.151314 -151.953532
-1.462199 8.072000 -151.954898
-1.532142 7.992685 -151.956264
-1.602085 7.913370 -151.957630
-1.752533 7.896521 -151.956573
-1.822476 7.817206 -151.957939
-1.892419 7.737892 -151.959305
-1.962363 7.658577 -151.960671
-2.032306 7.579262 -151.962037
-2.102249 7.499948 -151.963403
-2.172192 7.420633 -151.964769
-2.242135 7.341318 -151.966135
-2.312078 7.262004 -151.967501
-2.382022 7.182689 -151.968867
-2.451965 7.103374 -151.970233
-2.521908 7.024059 -151.971599
-2.591851 6.944745 -151.972965
-2.661794 6.865430 -151.974331
-2.731737 6.786115 -151.975697
-2.801680 6.706801 -151.977063
-2.871624 6.627486 -151.978429
-2.941567 6.548171 -151.979795
-3.092015 6.531322 -151.978738
-3.161958 6.452008 -151.980104
-3.231901 6.372693 -151.981470
-3.301844 6.293378 -151.982836
-3.371787 6.214063 -151.984202
-3.441730 6.134749 -151.985568
-3.511674 6.055434 -151.986934
-3.581617 5.976119 -151.988300
-3.651560 5.896805 -151.989666
-3.721503 5.817490 -151.991032
-3.791446 5.738175 -151.992398
-3.861389 5.658861 -151.993764
-3.931333 5.579546 -151.995130
-4.001276 5.500231 -151.996496
-4.071219 5.420917 -151.997862
-4.060657 5.279136 -152.001651
-4.130600 5.199822 -152.003017
-4.200544 5.120507 -152.004383
-4.270487 5.041192 -152.005749
-4.340430 4.961878 -152.007115
-4.410373 4.882563 -152.008481
-4.480316 4.803248 -152.009847
-4.469755 4.661468 -152.013636
-4.539698 4.582153 -152.015002
-4.609641 4.502839 -152.016368
-4.679584 4.423524 -152.017734
-4.749527 4.344209 -152.019100
-4.819471 4.264895 -152.020466
-4.808909 4.123114 -152.024256
-4.878852 4.043800 -152.025622
-4.868291 3.902019 -152.029411
-4.857729 3.760239 -152.033200
-4.847168 3.618459 -152.036989
-4.836606 3.476679 -152.040778
-4.906549 3.397364 -152.042144
-4.895988 3.255584 -152.045933
-4.885426 3.113804 -152.049722
-4.955369 3.034489 -152.051088
-4.864303 2.830243 -152.057301
-4.853742 2.688463 -152.061090
-4.846626 4.918623 -151.988252
-4.968493 4.828807 -151.987195
-4.989408 4.725147 -151.988561
-5.010323 4.621486 -151.989927
-5.031238 4.517826 -151.991293
-5.052154 4.414166 -151.992659
-5.073069 4.310506 -151.994025
-5.194936 4.220690 -151.992968
-5.215851 4.117030 -151.994334
-5.236766 4.013370 -151.995700
-5.257681 3.909710 -151.997066
-5.379548 3.819894 -151.996008
-5.400463 3.716234 -151.997374
-5.421378 3.612574 -151.998740
-5.442294 3.508913 -152.000107
-5.463209 3.405253 -152.001473
-5.484124 3.301593 -152.002839
-5.505039 3.197933 -152.004205
-5.525954 3.094273 -152.005571
-5.546869 2.990613 -152.006937
-5.567784 2.886952 -152.008303
-5.487748 2.769448 -152.012092
-5.508663 2.665788 -152.013458
-5.529578 2.562128 -152.014824
-5.550493 2.458467 -152.016190
-5.470456 2.340963 -152.019979
-5.491371 2.237303 -152.021345
-5.512286 2.133643 -152.022711
-5.533202 2.029982 -152.024077
-5.554117 1.926322 -152.025443
-5.474080 1.808818 -152.029232
-5.494995 1.705158 -152.030598
-5.515910 1.601498 -152.031964
-5.536825 1.497837 -152.033330
-5.557740 1.394177 -152.034696
-5.578656 1.290517 -152.036062
-5.599571 1.186857 -152.037428
-5.620486 1.083197 -152.038794
-5.641401 0.979537 -152.040160
-5.561364 0.862032 -152.043949
-5.582279 0.758372 -152.045315
-5.603194 0.654712 -152.046681
-5.624110 0.551052 -152.048047
-5.645025 0.447391 -152.049413
-5.665940 0.343731 -152.050779
-5.686855 0.240071 -152.052146
-5.606818 0.122567 -152.055935
-5.627733 0.018906 -152.057301
-5.648649 -0.084754 -152.058667
-5.568612 -0.202258 -152.062456
-5.589527 -0.305918 -152.063822
-5.509490 -0.423423 -152.067611
-5.429453 -0.540927 -152.071400
-5.450368 -0.644587 -152.072766
-5.471284 -0.748248 -152.074132
-5.492199 -0.851908 -152.075498
-5.513114 -0.955568 -152.076864
-5.534029 -1.059228 -152.078230
-5.554944 -1.162888 -152.079596
-5.575859 -1.266548 -152.080962
-5.596774 -1.370209 -152.082328
-5.516738 -1.487713 -152.086117
-6.083423 0.132434 -152.011474
-6.238405 -0.044769 -152.007994
-6.299037 -0.183485 -152.006937
-6.359669 -0.322201 -152.005879
-6.420301 -0.460918 -152.004822
-6.386584 -0.561148 -152.006188
-6.352867 -0.661378 -152.007554
-6.319150 -0.761608 -152.008920
-6.379782 -0.900324 -152.007863
-6.346065 -1.000554 -152.009229
-6.312348 -1.100784 -152.010595
-6.278631 -1.201014 -152.011961
-6.244914 -1.301244 -152.013327
-6.211197 -1.401473 -152.014693
-6.177480 -1.501703 -152.016059
-6.143763 -1.601933 -152.017425
-6.110046 -1.702163 -152.018791
-6.076329 -1.802393 -152.020157
-6.042612 -1.902623 -152.021523
-6.008895 -2.002853 -152.022889
-5.975178 -2.103083 -152.024256
-5.941461 -2.203313 -152.025622
-5.907744 -2.303543 -152.026988
-5.968376 -2.442259 -152.025930
-5.934659 -2.542489 -152.027296
-5.900942 -2.642719 -152.028662
-5.772876 -2.704462 -152.032452
-5.739159 -2.804692 -152.033818
-5.705442 -2.904922 -152.035184
-5.671725 -3.005152 -152.036550
-5.638008 -3.105382 -152.037916
-5.604291 -3.205612 -152.039282
-5.570574 -3.305842 -152.040648
-5.536857 -3.406072 -152.042014
-5.503140 -3.506302 -152.043380
-5.469423 -3.606532 -152.044746
-5.435706 -3.706762 -152.046112
-5.401989 -3.806992 -152.047478
-5.368272 -3.907222 -152.048844
-5.334555 -4.007451 -152.050210
-5.300838 -4.107681 -152.051576
-5.267121 -4.207911 -152.052942
-5.139055 -4.269655 -152.056731
-5.105338 -4.369885 -152.058097
-5.071621 -4.470115 -152.059463
-5.037904 -4.570345 -152.060829
-5.004187 -4.670575 -152.062195
-4.970470 -4.770804 -152.063561
-4.936753 -4.871034 -152.064927
-4.903036 -4.971264 -152.066293
-4.774970 -5.033008 -152.070082
-4.741253 -5.133238 -152.071448
-4.707536 -5.233468 -152.072814
-4.673819 -5.333698 -152.074180
-4.640102 -5.433928 -152.075546
-4.606385 -5.534157 -152.076912
-4.478319 -5.595901 -152.080701
-4.444602 -5.696131 -152.082067
-4.410885 -5.796361 -152.083433
-4.377168 -5.896591 -152.084800
-4.343451 -5.996821 -152.086166
-4.309734 -6.097051 -152.087532
-4.181668 -6.158794 -152.091321
-4.147951 -6.259024 -152.092687
-4.114234 -6.359254 -152.094053
-4.080517 -6.459484 -152.095419
-3.952450 -6.521227 -152.099208
-3.918733 -6.621457 -152.100574
-3.790667 -6.683201 -152.104363
-3.662601 -6.744944 -152.108152
-3.534535 -6.806688 -152.111941
-3.406469 -6.868432 -152.115730
-3.372752 -6.968661 -152.117096
-3.339035 -7.068891 -152.118462
-3.210969 -7.130635 -152.122252
-3.177252 -7.230865 -152.123618
-3.143535 -7.331095 -152.124984
-3.109818 -7.431325 -152.126350
-3.076101 -7.531555 -152.127716
-2.948035 -7.593298 -152.131505
-2.914318 -7.693528 -152.132871
-2.880601 -7.793758 -152.134237
-2.752535 -7.855502 -152.138026
-2.624469 -7.917245 -152.141815
-4.300649 -6.415015 -152.003683
-4.283800 -6.565463 -152.002626
-4.204485 -6.635406 -152.003992
-4.187636 -6.785854 -152.002935
-4.108321 -6.855797 -152.004301
-4.091472 -7.006245 -152.003244
-4.012157 -7.076188 -152.004610
-3.995308 -7.226636 -152.003553
-3.915994 -7.296579 -152.004919
-3.836679 -7.366522 -152.006285
-3.757364 -7.436465 -152.007651
-3.678050 -7.506409 -152.009017
-3.598735 -7.576352 -152.010383
-3.581886 -7.726800 -152.009326
-3.502571 -7.796743 -152.010692
-3.423256 -7.866686 -152.012058
-3.343942 -7.936629 -152.013424
-3.327093 -8.087077 -152.012367
-3.247778 -8.157020 -152.013733
-3.230929 -8.307468 -152.012675
-3.151614 -8.377411 -152.014041
-3.072299 -8.447354 -152.015407
-2.992985 -8.517297 -152.016774
-2.913670 -8.587241 -152.018140
-2.834355 -8.657184 -152.019506
-2.755041 -8.727127 -152.020872
-2.675726 -8.797070 -152.022238
-2.596411 -8.867013 -152.023604
-2.517097 -8.936956 -152.024970
-2.500247 -9.087404 -152.023912
-2.420933 -9.157347 -152.025279
-2.341618 -9.227290 -152.026645
-2.262303 -9.297234 -152.028011
-2.182989 -9.367177 -152.029377
-2.103674 -9.437120 -152.030743
-2.024359 -9.507063 -152.032109
-1.945045 -9.577006 -152.033475
-1.865730 -9.646949 -152.034841
-1.786415 -9.716893 -152.036207
-1.707101 -9.786836 -152.037573
-1.565320 -9.776274 -152.041362
-1.486006 -9.846217 -152.042728
-1.406691 -9.916161 -152.044094
-1.327376 -9.986104 -152.045460
-1.248062 -10.056047 -152.046826
-1.168747 -10.125990 -152.048192
-1.089432 -10.195933 -152.049558
-1.010118 -10.265876 -152.050924
-0.930803 -10.335819 -152.052290
-0.851488 -10.405763 -152.053656
-0.709708 -10.395201 -152.057445
-0.630393 -10.465144 -152.058811
-0.551079 -10.535087 -152.060177
-0.471764 -10.605031 -152.061543
-0.392449 -10.674974 -152.062909
-0.250669 -10.664412 -152.066698
-0.171354 -10.734355 -152.068064
-0.029574 -10.723794 -152.071853
0.049741 -10.793737 -152.073219
0.129055 -10.863680 -152.074585
0.270836 -10.853119 -152.078375
0.475081 -10.762052 -152.084587
0.616862 -10.751491 -152.088376
0.696176 -10.821434 -152.089742
0.775491 -10.891377 -152.091108
0.917271 -10.880816 -152.094897
1.183982 -10.709245 -152.103533
1.325763 -10.698683 -152.107322
1.405077 -10.768626 -152.108688
1.484392 -10.838570 -152.110054
1.626172 -10.828008 -152.113843
1.705487 -10.897951 -152.115209
1.784802 -10.967894 -152.116575
1.926582 -10.957333 -152.120364
-2.694166 -8.822784 -151.941382
-2.604350 -8.944652 -151.940325
-2.514534 -9.066519 -151.939268
-2.410874 -9.087434 -151.940634
-2.321058 -9.209301 -151.939577
-2.231242 -9.331168 -151.938519
-2.127582 -9.352083 -151.939885
-2.037766 -9.473950 -151.938828
-1.934106 -9.494865 -151.940194
-1.844290 -9.616732 -151.939137
-1.740630 -9.637647 -151.940503
-1.636970 -9.658562 -151.941869
-1.547154 -9.780429 -151.940812
-1.471182 -10.003248 -151.937332
-1.409055 -10.327019 -151.931429
-1.319239 -10.448886 -151.930371
-1.215579 -10.469801 -151.931738
-1.111919 -10.490717 -151.933104
-1.022103 -10.612584 -151.932046
-0.918443 -10.633499 -151.933412
-0.814783 -10.654414 -151.934778
-0.724967 -10.776281 -151.933721
-0.621307 -10.797196 -151.935087
-0.531491 -10.919063 -151.934030
-0.427831 -10.939978 -151.935396
-0.324171 -10.960893 -151.936762
-0.220511 -10.981809 -151.938128
-0.130695 -11.103676 -151.937071
-0.027035 -11.124591 -151.938437
0.076625 -11.145506 -151.939803
0.180286 -11.166421 -151.941169
0.283946 -11.187336 -151.942535
0.387606 -11.208251 -151.943901
0.491266 -11.229166 -151.945267
0.594926 -11.250081 -151.946633
0.698586 -11.270997 -151.947999
0.802247 -11.291912 -151.949365
0.905907 -11.312827 -151.950731
1.009567 -11.333742 -151.952097
1.113227 -11.354657 -151.953463
1.216887 -11.375572 -151.954829
1.306703 -11.497439 -151.953772
1.410363 -11.518354 -151.955138
1.514023 -11.539270 -151.956504
1.617684 -11.560185 -151.957870
1.721344 -11.581100 -151.959236
1.825004 -11.602015 -151.960602
1.928664 -11.622930 -151.961968
2.032324 -11.643845 -151.963334
2.135984 -11.664760 -151.964700
2.239644 -11.685675 -151.966066
2.343305 -11.706591 -151.967432
2.446965 -11.727506 -151.968798
2.564469 -11.647469 -151.972588
2.668129 -11.668384 -151.973954
2.771790 -11.689299 -151.975320
2.875450 -11.710214 -151.976686
2.979110 -11.731129 -151.978052
3.082770 -11.752045 -151.979418
3.186430 -11.772960 -151.980784
3.290090 -11.793875 -151.982150
3.393751 -11.814790 -151.983516
3.497411 -11.835705 -151.984882
3.601071 -11.856620 -151.986248
3.704731 -11.877535 -151.987614
3.808391 -11.898451 -151.988980
3.912051 -11.919366 -151.990346
4.015712 -11.940281 -151.991712
4.133216 -11.860244 -151.995501
4.236876 -11.881159 -151.996867
4.340536 -11.902074 -151.998233
4.444196 -11.922989 -151.999599
4.561701 -11.842953 -152.003388
4.665361 -11.863868 -152.004754
4.769021 -11.884783 -152.006120
4.872681 -11.905698 -152.007486
-0.674550 -10.343030 -151.892075
-0.420375 -10.686709 -151.883748
-0.243172 -10.841690 -151.880268
-0.104456 -10.902322 -151.879211
0.034261 -10.962954 -151.878154
0.172977 -11.023587 -151.877097
0.311693 -11.084219 -151.876040
0.411923 -11.050502 -151.877406
0.550640 -11.111134 -151.876349
0.689356 -11.171766 -151.875292
0.828072 -11.232398 -151.874234
0.928302 -11.198681 -151.875600
1.067018 -11.259313 -151.874543
1.205735 -11.319945 -151.873486
1.382937 -11.474927 -151.870006
1.521654 -11.535559 -151.868949
1.660370 -11.596191 -151.867892
1.760600 -11.562474 -151.869258
1.899316 -11.623106 -151.868201
1.999546 -11.589389 -151.869567
2.138262 -11.650021 -151.868510
2.238492 -11.616304 -151.869876
2.569640 -12.148682 -151.856703
2.708357 -12.209314 -151.855646
2.808587 -12.175597 -151.857012
2.908817 -12.141880 -151.858378
3.009047 -12.108163 -151.859744
3.109276 -12.074446 -151.861110
3.209506 -12.040729 -151.862476
3.309736 -12.007012 -151.863842
3.448453 -12.067644 -151.862785
3.548683 -12.033927 -151.864151
3.648912 -12.000210 -151.865517
3.749142 -11.966493 -151.866883
3.849372 -11.932776 -151.868249
3.949602 -11.899059 -151.869615
4.049832 -11.865342 -151.870981
4.150062 -11.831625 -151.872347
4.250292 -11.797908 -151.873713
4.350522 -11.764191 -151.875079
4.489238 -11.824823 -151.874022
4.589468 -11.791106 -151.875388
4.689698 -11.757389 -151.876754
4.789928 -11.723672 -151.878120
4.890158 -11.689955 -151.879486
4.990388 -11.656238 -151.880852
5.090618 -11.622521 -151.882218
5.190848 -11.588804 -151.883584
5.291078 -11.555087 -151.884950
5.391307 -11.521370 -151.886316
5.491537 -11.487653 -151.887682
5.591767 -11.453936 -151.889048
5.691997 -11.420219 -151.890414
5.792227 -11.386502 -151.891780
5.892457 -11.352785 -151.893146
5.992687 -11.319068 -151.894512
6.092917 -11.285351 -151.895878
6.193147 -11.251634 -151.897244
6.293377 -11.217917 -151.898610
6.355120 -11.089851 -151.902399
6.455350 -11.056134 -151.903765
6.555580 -11.022417 -151.905131
6.655810 -10.988700 -151.906497
6.794526 -11.049332 -151.905440
6.894756 -11.015615 -151.906806
6.994986 -10.981898 -151.908172
7.095216 -10.948181 -151.909538
7.195446 -10.914464 -151.910904
7.257190 -10.786398 -151.914693
7.357420 -10.752681 -151.916059
7.457649 -10.718964 -151.917425
7.557879 -10.685247 -151.918791
7.658109 -10.651530 -151.920157
7.758339 -10.617813 -151.921523
7.858569 -10.584096 -151.922889
7.958799 -10.550379 -151.924256
8.059029 -10.516662 -151.925622
8.159259 -10.482945 -151.926988
8.259489 -10.449228 -151.928354
8.321232 -10.321162 -151.932143
8.421462 -10.287445 -151.933509
8.521692 -10.253728 -151.934875
8.621922 -10.220011 -151.936241
8.722152 -10.186294 -151.937607
8.822382 -10.152577 -151.938973
8.884126 -10.024511 -151.942762
8.984355 -9.990794 -151.944128
9.084585 -9.957077 -151.945494
9.146329 -9.829011 -151.949283
9.246559 -9.795294 -151.950649
9.385275 -9.855926 -151.949592
9.447019 -9.727860 -151.953381
9.547249 -9.694143 -151.954747
9.378074 -8.999982 -151.973075
9.478304 -8.966265 -151.974441
9.540047 -8.838199 -151.978230
9.640277 -8.804482 -151.979596
9.702021 -8.676416 -151.983385
9.763764 -8.548349 -151.987174
9.825508 -8.420283 -151.990964
9.887252 -8.292217 -151.994753
9.948995 -8.164151 -151.998542
10.049225 -8.130434 -151.999908
10.110969 -8.002368 -152.003697
10.211198 -7.968651 -152.005063
10.272942 -7.840585 -152.008852
10.296199 -7.618170 -152.015064
10.357943 -7.490104 -152.018854
10.419686 -7.362037 -152.022643
10.481430 -7.233971 -152.026432
10.504687 -7.011556 -152.032644
10.489458 -6.694792 -152.041280
10.551201 -6.566726 -152.045069
10.612945 -6.438660 -152.048858
10.674688 -6.310593 -152.052647
10.736432 -6.182527 -152.056436
