ply
format ascii 1.0
element vertex 1219
property float x
property float y
property float z
element face 0
property list uchar uint vertex_indices
end_header
3.111952 -11.890204 -150.839288
3.262400 -11.873354 -150.838231
3.412848 -11.856505 -150.837173
3.804810 -12.027053 -150.828847
3.955258 -12.010204 -150.827790
4.266715 -12.118286 -150.821887
4.417163 -12.101436 -150.820829
4.567611 -12.084587 -150.819772
4.718058 -12.067738 -150.818715
4.868506 -12.050889 -150.817658
5.018954 -12.034040 -150.816601
5.088897 -11.954725 -150.817967
5.239345 -11.937876 -150.816910
5.389793 -11.921027 -150.815853
5.540241 -11.904178 -150.814796
5.610184 -11.824863 -150.816162
5.680127 -11.745548 -150.817528
5.830575 -11.728699 -150.816471
5.900518 -11.649385 -150.817837
6.050966 -11.632535 -150.816780
6.201414 -11.615686 -150.815722
6.271357 -11.536372 -150.817088
6.421805 -11.519522 -150.816031
6.491748 -11.440208 -150.817397
6.642196 -11.423359 -150.816340
6.712139 -11.344044 -150.817706
6.782082 -11.264729 -150.819072
6.852025 -11.185415 -150.820438
7.002473 -11.168565 -150.819381
7.152921 -11.151716 -150.818324
7.383873 -11.197333 -150.814844
7.534321 -11.180484 -150.813787
7.604264 -11.101169 -150.815153
7.674208 -11.021854 -150.816519
7.824655 -11.005005 -150.815462
7.894599 -10.925690 -150.816828
8.045046 -10.908841 -150.815771
8.114990 -10.829526 -150.817137
8.265437 -10.812677 -150.816079
8.335381 -10.733363 -150.817445
8.405324 -10.654048 -150.818812
8.555772 -10.637199 -150.817754
8.625715 -10.557884 -150.819120
8.695658 -10.478569 -150.820486
8.765601 -10.399255 -150.821852
8.835544 -10.319940 -150.823218
8.985992 -10.303091 -150.822161
9.055935 -10.223776 -150.823527
9.125878 -10.144462 -150.824893
9.195822 -10.065147 -150.826259
9.265765 -9.985832 -150.827625
9.335708 -9.906517 -150.828991
9.405651 -9.827203 -150.830357
9.475594 -9.747888 -150.831723
9.545537 -9.668573 -150.833089
9.615480 -9.589259 -150.834455
9.685424 -9.509944 -150.835822
9.835871 -9.493095 -150.834764
9.905815 -9.413780 -150.836130
9.975758 -9.334466 -150.837496
10.045701 -9.255151 -150.838862
10.115644 -9.175836 -150.840228
10.185587 -9.096521 -150.841594
10.255530 -9.017207 -150.842960
10.325474 -8.937892 -150.844327
10.395417 -8.858577 -150.845693
10.465360 -8.779263 -150.847059
10.454798 -8.637483 -150.850848
10.524742 -8.558168 -150.852214
10.594685 -8.478853 -150.853580
10.664628 -8.399538 -150.854946
10.734571 -8.320224 -150.856312
10.804514 -8.240909 -150.857678
10.793953 -8.099129 -150.861467
10.863896 -8.019814 -150.862833
10.933839 -7.940499 -150.864199
11.003782 -7.861185 -150.865565
11.073725 -7.781870 -150.866931
11.143668 -7.702555 -150.868297
11.213612 -7.623241 -150.869663
11.203050 -7.481461 -150.873452
11.272993 -7.402146 -150.874818
11.262432 -7.260366 -150.878607
11.251870 -7.118585 -150.882396
11.241309 -6.976805 -150.886186
11.311252 -6.897490 -150.887552
11.300690 -6.755710 -150.891341
11.290129 -6.613930 -150.895130
11.279567 -6.472150 -150.898919
11.269006 -6.330370 -150.902708
11.338949 -6.251055 -150.904074
11.328387 -6.109275 -150.907863
11.398330 -6.029960 -150.909229
11.468274 -5.950645 -150.910595
11.457712 -5.808865 -150.914384
11.527655 -5.729550 -150.915751
11.517094 -5.587770 -150.919540
11.506532 -5.445990 -150.923329
11.495971 -5.304210 -150.927118
11.485409 -5.162429 -150.930907
11.394343 -4.958184 -150.937119
11.383781 -4.816403 -150.940908
11.373220 -4.674623 -150.944698
11.362658 -4.532843 -150.948487
11.352097 -4.391063 -150.952276
11.341535 -4.249283 -150.956065
11.330974 -4.107502 -150.959854
11.239908 -3.903257 -150.966066
11.148841 -3.699011 -150.972279
11.138280 -3.557231 -150.976068
11.047214 -3.352985 -150.982280
11.117157 -3.273670 -150.983646
11.106595 -3.131890 -150.987435
11.096034 -2.990110 -150.991224
10.843958 -2.660933 -151.002283
10.913901 -2.581618 -151.003649
10.903340 -2.439838 -151.007438
10.812274 -2.235592 -151.013650
10.801712 -2.093812 -151.017439
10.791151 -1.952032 -151.021229
10.780589 -1.810251 -151.025018
10.770027 -1.668471 -151.028807
10.517952 -1.339294 -151.039865
10.507390 -1.197514 -151.043655
10.496829 -1.055734 -151.047444
10.405763 -0.851488 -151.053656
8.242754 -10.710781 -150.813333
8.566525 -10.648654 -150.807430
8.688392 -10.558838 -150.806373
8.810259 -10.469022 -150.805316
8.932126 -10.379206 -150.804259
9.053993 -10.289390 -150.803202
9.276812 -10.213419 -150.799721
9.398679 -10.123603 -150.798664
9.419594 -10.019943 -150.800030
9.541461 -9.930127 -150.798973
9.764280 -9.854156 -150.795493
9.886147 -9.764340 -150.794436
10.008014 -9.674524 -150.793379
10.028929 -9.570864 -150.794745
10.049844 -9.467204 -150.796111
10.171711 -9.377388 -150.795054
10.293578 -9.287572 -150.793997
10.415445 -9.197756 -150.792939
10.436360 -9.094096 -150.794305
10.558227 -9.004280 -150.793248
10.579143 -8.900620 -150.794614
10.600058 -8.796960 -150.795980
10.721925 -8.707144 -150.794923
10.742840 -8.603484 -150.796289
10.763755 -8.499824 -150.797655
10.784670 -8.396164 -150.799021
10.906537 -8.306348 -150.797964
11.028404 -8.216532 -150.796907
11.049319 -8.112872 -150.798273
11.171186 -8.023056 -150.797216
11.192102 -7.919396 -150.798582
11.213017 -7.815736 -150.799948
11.233932 -7.712075 -150.801314
11.355799 -7.622260 -150.800257
11.376714 -7.518599 -150.801623
11.397629 -7.414939 -150.802989
11.418544 -7.311279 -150.804355
11.439459 -7.207619 -150.805721
11.460375 -7.103959 -150.807087
11.582242 -7.014143 -150.806030
11.603157 -6.910483 -150.807396
11.624072 -6.806823 -150.808762
11.644987 -6.703162 -150.810128
11.766854 -6.613347 -150.809071
11.787769 -6.509686 -150.810437
11.808684 -6.406026 -150.811803
11.829599 -6.302366 -150.813169
11.850515 -6.198706 -150.814535
11.871430 -6.095046 -150.815901
11.892345 -5.991386 -150.817267
11.913260 -5.887726 -150.818633
11.934175 -5.784065 -150.819999
11.955090 -5.680405 -150.821365
11.875053 -5.562901 -150.825154
11.895969 -5.459241 -150.826520
11.815932 -5.341736 -150.830309
11.836847 -5.238076 -150.831675
11.857762 -5.134416 -150.833041
11.777725 -5.016911 -150.836830
11.798640 -4.913251 -150.838196
11.819556 -4.809591 -150.839563
11.840471 -4.705931 -150.840929
11.861386 -4.602271 -150.842295
11.781349 -4.484766 -150.846084
11.802264 -4.381106 -150.847450
11.722227 -4.263601 -150.851239
11.743142 -4.159941 -150.852605
11.764058 -4.056281 -150.853971
11.684021 -3.938777 -150.857760
11.704936 -3.835117 -150.859126
11.725851 -3.731456 -150.860492
11.645814 -3.613952 -150.864281
11.666729 -3.510292 -150.865647
11.687645 -3.406632 -150.867013
11.607608 -3.289127 -150.870802
11.628523 -3.185467 -150.872168
11.649438 -3.081807 -150.873534
11.670353 -2.978147 -150.874900
11.590316 -2.860642 -150.878690
11.611232 -2.756982 -150.880056
11.632147 -2.653322 -150.881422
11.552110 -2.535817 -150.885211
11.472073 -2.418313 -150.889000
11.492988 -2.314653 -150.890366
11.412951 -2.197148 -150.894155
11.433867 -2.093488 -150.895521
11.353830 -1.975984 -150.899310
11.374745 -1.872323 -150.900676
11.395660 -1.768663 -150.902042
11.416575 -1.665003 -150.903408
11.336538 -1.547499 -150.907197
11.357454 -1.443838 -150.908563
11.277417 -1.326334 -150.912353
11.298332 -1.222674 -150.913719
11.218295 -1.105169 -150.917508
11.239210 -1.001509 -150.918874
11.159173 -0.884005 -150.922663
11.180089 -0.780344 -150.924029
11.201004 -0.676684 -150.925395
11.120967 -0.559180 -150.929184
11.141882 -0.455520 -150.930550
11.061845 -0.338015 -150.934339
11.082760 -0.234355 -150.935705
10.901772 -0.103006 -150.941917
10.922687 0.000654 -150.943283
10.842650 0.118158 -150.947073
10.863565 0.221819 -150.948439
10.884480 0.325479 -150.949805
10.804444 0.442983 -150.953594
10.825359 0.546643 -150.954960
10.745322 0.664148 -150.958749
10.665285 0.781652 -150.962538
10.585248 0.899157 -150.966327
10.505212 1.016661 -150.970116
10.526127 1.120322 -150.971482
10.547042 1.223982 -150.972848
10.467005 1.341486 -150.976638
10.487920 1.445146 -150.978004
10.407883 1.562651 -150.981793
10.327847 1.680155 -150.985582
10.247810 1.797660 -150.989371
10.268725 1.901320 -150.990737
10.188688 2.018824 -150.994526
10.209603 2.122485 -150.995892
10.028615 2.253833 -151.002104
9.847626 2.385182 -151.008317
9.767589 2.502687 -151.012106
9.788504 2.606347 -151.013472
9.809419 2.710007 -151.014838
9.729383 2.827512 -151.018627
9.750298 2.931172 -151.019993
9.771213 3.034832 -151.021359
9.691176 3.152336 -151.025148
9.712091 3.255996 -151.026514
9.632054 3.373501 -151.030303
9.552018 3.491005 -151.034092
9.371029 3.622354 -151.040305
9.290992 3.739859 -151.044094
9.210955 3.857363 -151.047883
9.231871 3.961023 -151.049249
9.151834 4.078528 -151.053038
11.038653 -8.483629 -150.838704
11.287983 -8.267940 -150.832801
11.442964 -8.090738 -150.829320
11.597945 -7.913535 -150.825840
11.564228 -7.813305 -150.827206
11.624860 -7.674589 -150.826149
11.685493 -7.535872 -150.825092
11.746125 -7.397156 -150.824035
11.806757 -7.258440 -150.822978
11.773040 -7.158210 -150.824344
11.833672 -7.019494 -150.823287
11.894304 -6.880777 -150.822230
11.860587 -6.780547 -150.823596
11.921219 -6.641831 -150.822538
11.887502 -6.541601 -150.823904
11.948134 -6.402885 -150.822847
12.008766 -6.264168 -150.821790
12.069398 -6.125452 -150.820733
12.130031 -5.986736 -150.819676
12.285012 -5.809533 -150.816196
12.345644 -5.670817 -150.815139
12.311927 -5.570587 -150.816505
12.278210 -5.470357 -150.817871
12.338842 -5.331641 -150.816814
12.305125 -5.231411 -150.818180
12.271408 -5.131181 -150.819546
12.332040 -4.992465 -150.818489
12.298323 -4.892235 -150.819855
12.264606 -4.792005 -150.821221
12.325238 -4.653288 -150.820163
12.291521 -4.553059 -150.821529
12.352153 -4.414342 -150.820472
12.318436 -4.314112 -150.821838
12.284719 -4.213882 -150.823204
12.345351 -4.075166 -150.822147
12.311634 -3.974936 -150.823513
12.277917 -3.874706 -150.824879
12.244200 -3.774476 -150.826245
12.304833 -3.635760 -150.825188
12.271116 -3.535530 -150.826554
12.237399 -3.435300 -150.827920
12.298031 -3.296584 -150.826863
12.264314 -3.196354 -150.828229
12.230597 -3.096124 -150.829595
12.196880 -2.995894 -150.830961
12.163163 -2.895664 -150.832327
12.129446 -2.795434 -150.833693
12.095729 -2.695204 -150.835059
12.062012 -2.594974 -150.836425
12.028295 -2.494745 -150.837791
11.994578 -2.394515 -150.839157
11.960861 -2.294285 -150.840523
11.927144 -2.194055 -150.841889
11.893427 -2.093825 -150.843255
11.954059 -1.955109 -150.842198
11.920342 -1.854879 -150.843564
11.886625 -1.754649 -150.844930
11.852908 -1.654419 -150.846296
11.819191 -1.554189 -150.847662
11.785474 -1.453959 -150.849028
11.846106 -1.315243 -150.847971
11.812389 -1.215013 -150.849337
11.778672 -1.114783 -150.850703
11.744955 -1.014553 -150.852069
11.711238 -0.914323 -150.853435
11.677521 -0.814093 -150.854801
11.738153 -0.675377 -150.853744
11.704436 -0.575147 -150.855110
11.670719 -0.474917 -150.856476
11.637002 -0.374687 -150.857842
11.603285 -0.274457 -150.859208
11.569568 -0.174227 -150.860574
11.535851 -0.073997 -150.861940
11.502134 0.026233 -150.863306
11.468417 0.126463 -150.864672
11.434700 0.226693 -150.866038
11.400983 0.326923 -150.867404
11.461615 0.465639 -150.866347
11.427898 0.565869 -150.867713
11.394181 0.666099 -150.869079
11.360464 0.766329 -150.870445
11.326747 0.866558 -150.871811
11.293030 0.966788 -150.873177
11.259313 1.067018 -150.874543
11.225596 1.167248 -150.875909
11.191879 1.267478 -150.877275
11.252511 1.406194 -150.876218
11.218794 1.506424 -150.877584
11.185077 1.606654 -150.878950
11.151360 1.706884 -150.880316
11.117643 1.807114 -150.881682
11.083926 1.907344 -150.883048
11.050209 2.007574 -150.884414
11.016492 2.107804 -150.885780
10.982775 2.208034 -150.887146
10.949058 2.308264 -150.888512
10.915341 2.408494 -150.889878
10.881624 2.508724 -150.891244
10.847907 2.608954 -150.892610
10.814190 2.709183 -150.893976
10.780473 2.809413 -150.895343
10.746756 2.909643 -150.896709
10.713039 3.009873 -150.898075
10.584973 3.071617 -150.901864
10.551256 3.171847 -150.903230
10.517539 3.272077 -150.904596
10.483822 3.372307 -150.905962
10.355756 3.434050 -150.909751
10.322039 3.534280 -150.911117
10.288322 3.634510 -150.912483
10.254605 3.734740 -150.913849
10.220888 3.834970 -150.915215
10.187171 3.935200 -150.916581
10.153454 4.035430 -150.917947
10.119737 4.135660 -150.919313
10.086020 4.235889 -150.920679
10.052303 4.336119 -150.922045
10.018586 4.436349 -150.923411
9.984869 4.536579 -150.924777
9.951152 4.636809 -150.926143
9.917435 4.737039 -150.927509
9.789369 4.798783 -150.931298
9.755652 4.899013 -150.932664
9.721935 4.999242 -150.934030
9.593869 5.060986 -150.937819
9.560152 5.161216 -150.939185
9.526435 5.261446 -150.940551
9.492718 5.361676 -150.941917
9.459001 5.461906 -150.943283
9.330935 5.523649 -150.947073
9.297218 5.623879 -150.948439
9.263501 5.724109 -150.949805
9.135435 5.785853 -150.953594
9.101718 5.886083 -150.954960
8.973652 5.947826 -150.958749
8.751236 5.971083 -150.964961
8.623170 6.032827 -150.968750
8.495104 6.094570 -150.972539
8.461387 6.194800 -150.973905
8.427670 6.295030 -150.975271
8.299604 6.356774 -150.979061
8.265887 6.457004 -150.980427
8.137821 6.518747 -150.984216
8.104104 6.618977 -150.985582
7.881689 6.642234 -150.991794
7.753622 6.703978 -150.995583
7.625556 6.765721 -150.999372
7.591839 6.865951 -151.000738
7.463773 6.927695 -151.004528
7.430056 7.027925 -151.005894
7.018943 6.974209 -151.016952
6.985226 7.074439 -151.018318
6.668461 7.059210 -151.026953
6.540395 7.120954 -151.030743
6.506678 7.221183 -151.032109
6.472961 7.321413 -151.033475
6.344895 7.383157 -151.037264
6.311178 7.483387 -151.038630
6.277461 7.583617 -151.039996
6.149395 7.645360 -151.043785
12.331168 -3.378423 -150.892322
12.314319 -3.227975 -150.891265
12.297469 -3.077527 -150.890207
12.280620 -2.927079 -150.889150
12.326237 -2.696126 -150.885670
12.309387 -2.545678 -150.884613
12.479935 -2.153716 -150.876286
12.463085 -2.003268 -150.875229
12.383771 -1.933325 -150.876595
12.366921 -1.782877 -150.875538
12.287607 -1.712934 -150.876904
12.270757 -1.562486 -150.875847
12.191442 -1.492542 -150.877213
12.112128 -1.422599 -150.878579
12.032813 -1.352656 -150.879945
11.953498 -1.282713 -150.881311
11.936649 -1.132265 -150.880254
11.919800 -0.981817 -150.879197
11.902950 -0.831369 -150.878140
11.823636 -0.761426 -150.879506
11.744321 -0.691483 -150.880872
11.665006 -0.621540 -150.882238
11.648157 -0.471092 -150.881181
11.568842 -0.401149 -150.882547
11.739389 -0.009186 -150.874220
11.722540 0.141262 -150.873163
11.705691 0.291710 -150.872106
11.626376 0.361653 -150.873472
11.609527 0.512101 -150.872415
11.592677 0.662549 -150.871358
11.575828 0.812997 -150.870301
11.558979 0.963445 -150.869244
11.542130 1.113893 -150.868187
11.462815 1.183836 -150.869553
11.383500 1.253779 -150.870919
11.366651 1.404227 -150.869862
11.349802 1.554675 -150.868804
11.270487 1.624618 -150.870171
11.253638 1.775066 -150.869113
11.174323 1.845009 -150.870479
11.157474 1.995457 -150.869422
11.078159 2.065400 -150.870788
11.061309 2.215848 -150.869731
10.981995 2.285791 -150.871097
10.965145 2.436239 -150.870040
10.948296 2.586687 -150.868983
10.931447 2.737135 -150.867926
10.914598 2.887583 -150.866869
10.835283 2.957526 -150.868235
10.818434 3.107974 -150.867178
10.739119 3.177917 -150.868544
10.722270 3.328365 -150.867487
10.642955 3.398308 -150.868853
10.563640 3.468252 -150.870219
10.484325 3.538195 -150.871585
10.405010 3.608138 -150.872951
10.325696 3.678081 -150.874317
10.183915 3.667519 -150.878106
10.104600 3.737463 -150.879472
10.025286 3.807406 -150.880838
9.945971 3.877349 -150.882204
9.929122 4.027797 -150.881147
9.849807 4.097740 -150.882513
9.832958 4.248188 -150.881456
10.190902 4.881665 -150.865860
10.111587 4.951608 -150.867226
10.094738 5.102056 -150.866169
10.015423 5.171999 -150.867535
9.936108 5.241942 -150.868901
9.856793 5.311885 -150.870267
9.839944 5.462333 -150.869210
9.760629 5.532276 -150.870576
9.681314 5.602219 -150.871942
9.664465 5.752667 -150.870885
9.585150 5.822610 -150.872251
9.505835 5.892554 -150.873617
9.426521 5.962497 -150.874983
9.347206 6.032440 -150.876349
9.267891 6.102383 -150.877715
9.251042 6.252831 -150.876658
9.171727 6.322774 -150.878024
9.092412 6.392717 -150.879390
9.013097 6.462661 -150.880756
8.933783 6.532604 -150.882122
8.854468 6.602547 -150.883488
8.837619 6.752995 -150.882431
8.758304 6.822938 -150.883797
8.678989 6.892881 -150.885163
8.599674 6.962824 -150.886529
8.520359 7.032767 -150.887895
8.441045 7.102711 -150.889261
8.361730 7.172654 -150.890627
8.282415 7.242597 -150.891993
8.203100 7.312540 -150.893359
8.123786 7.382483 -150.894725
8.044471 7.452426 -150.896091
7.902690 7.441865 -150.899880
7.823376 7.511808 -150.901246
7.744061 7.581751 -150.902612
7.664746 7.651694 -150.903978
7.585431 7.721637 -150.905344
7.506116 7.791581 -150.906710
7.364336 7.781019 -150.910499
7.285021 7.850962 -150.911865
7.205707 7.920905 -150.913231
7.126392 7.990848 -150.914597
7.047077 8.060792 -150.915963
6.967762 8.130735 -150.917329
6.825982 8.120173 -150.921118
6.746667 8.190116 -150.922484
6.604887 8.179555 -150.926273
6.525572 8.249498 -150.927639
6.383792 8.238936 -150.931429
6.304477 8.308879 -150.932795
6.225162 8.378823 -150.934161
6.145847 8.448766 -150.935527
6.004067 8.438204 -150.939316
5.924752 8.508147 -150.940682
5.720506 8.417081 -150.946894
5.391329 8.165005 -150.957953
5.312014 8.234948 -150.959319
5.232700 8.304891 -150.960685
5.153385 8.374834 -150.962051
5.074070 8.444777 -150.963417
4.932290 8.434216 -150.967206
4.790509 8.423654 -150.970995
4.648729 8.413093 -150.974784
4.444483 8.322026 -150.980996
4.302703 8.311465 -150.984785
4.160923 8.300903 -150.988575
3.956677 8.209837 -150.994787
3.814896 8.199275 -150.998576
3.673116 8.188713 -151.002365
3.593801 8.258656 -151.003731
3.452021 8.248095 -151.007520
3.310241 8.237533 -151.011309
9.597519 5.562506 -150.890743
9.507703 5.684373 -150.889686
9.417887 5.806240 -150.888629
9.328071 5.928107 -150.887572
9.252100 6.150926 -150.884091
9.162284 6.272793 -150.883034
9.072468 6.394660 -150.881977
8.982652 6.516527 -150.880920
8.878992 6.537442 -150.882286
8.789176 6.659309 -150.881229
8.685516 6.680225 -150.882595
8.581856 6.701140 -150.883961
8.478196 6.722055 -150.885327
8.374536 6.742970 -150.886693
8.270875 6.763885 -150.888059
8.181060 6.885752 -150.887002
8.146621 7.411427 -150.876252
8.056805 7.533294 -150.875195
7.953145 7.554209 -150.876561
7.863329 7.676076 -150.875504
7.759669 7.696991 -150.876870
7.656009 7.717906 -150.878236
7.566193 7.839773 -150.877179
7.476377 7.961640 -150.876122
7.414250 8.285411 -150.870219
7.310590 8.306326 -150.871585
7.206930 8.327241 -150.872951
7.117114 8.449109 -150.871894
7.013454 8.470024 -150.873260
6.909794 8.490939 -150.874626
6.806133 8.511854 -150.875992
6.702473 8.532769 -150.877358
6.598813 8.553684 -150.878724
6.495153 8.574599 -150.880090
6.405337 8.696466 -150.879033
6.301677 8.717382 -150.880399
6.198017 8.738297 -150.881765
6.094357 8.759212 -150.883131
5.990696 8.780127 -150.884497
5.887036 8.801042 -150.885863
5.783376 8.821957 -150.887229
5.693560 8.943824 -150.886172
5.589900 8.964739 -150.887538
5.472396 8.884703 -150.891327
5.368736 8.905618 -150.892693
5.265075 8.926533 -150.894059
5.161415 8.947448 -150.895425
5.057755 8.968363 -150.896791
4.954095 8.989278 -150.898157
4.850435 9.010193 -150.899523
4.732930 8.930157 -150.903312
4.629270 8.951072 -150.904678
4.525610 8.971987 -150.906044
4.421950 8.992902 -150.907410
4.318290 9.013817 -150.908776
4.214629 9.034732 -150.910142
4.097125 8.954695 -150.913931
3.993465 8.975611 -150.915297
3.889805 8.996526 -150.916663
3.786144 9.017441 -150.918029
3.668640 8.937404 -150.921818
3.564980 8.958319 -150.923184
3.461320 8.979234 -150.924550
3.357660 9.000149 -150.925916
3.240155 8.920113 -150.929706
3.136495 8.941028 -150.931072
3.032835 8.961943 -150.932438
2.915330 8.881906 -150.936227
2.811670 8.902821 -150.937593
2.694166 8.822784 -150.941382
2.590505 8.843700 -150.942748
2.473001 8.763663 -150.946537
2.369341 8.784578 -150.947903
2.251836 8.704541 -150.951692
2.078955 8.220697 -150.965174
5.776595 8.733170 -150.913917
5.676365 8.699453 -150.915283
5.576135 8.665736 -150.916649
5.475905 8.632019 -150.918015
5.144757 9.164397 -150.904842
5.044527 9.130680 -150.906208
4.905810 9.191312 -150.905151
4.767094 9.251944 -150.904094
4.628378 9.312576 -150.903037
4.528148 9.278859 -150.904403
4.389432 9.339491 -150.903346
4.289202 9.305774 -150.904712
4.150485 9.366406 -150.903655
4.050255 9.332689 -150.905021
3.911539 9.393321 -150.903964
3.811309 9.359604 -150.905330
3.711079 9.325887 -150.906696
3.572363 9.386520 -150.905639
3.472133 9.352803 -150.907005
3.371903 9.319086 -150.908371
3.271673 9.285369 -150.909737
3.171443 9.251652 -150.911103
3.071213 9.217935 -150.912469
2.970984 9.184218 -150.913835
2.870754 9.150501 -150.915201
2.770524 9.116784 -150.916567
2.631807 9.177416 -150.915510
2.531577 9.143699 -150.916876
2.431348 9.109982 -150.918242
2.331118 9.076265 -150.919608
2.230888 9.042548 -150.920974
2.130658 9.008831 -150.922340
2.030428 8.975114 -150.923706
1.930198 8.941397 -150.925072
1.829968 8.907680 -150.926438
1.729738 8.873963 -150.927804
1.629508 8.840246 -150.929170
1.529278 8.806529 -150.930536
1.429048 8.772812 -150.931902
1.328818 8.739095 -150.933268
1.228588 8.705378 -150.934634
1.128359 8.671661 -150.936000
1.028129 8.637944 -150.937366
0.927899 8.604227 -150.938732
0.827669 8.570510 -150.940098
0.727439 8.536793 -150.941464
0.627209 8.503076 -150.942830
0.526979 8.469359 -150.944196
0.426749 8.435642 -150.945562
0.326519 8.401925 -150.946928
0.226289 8.368208 -150.948294
0.126059 8.334491 -150.949660
0.025829 8.300774 -150.951026
-0.074401 8.267057 -150.952392
-0.174630 8.233340 -150.953758
-0.274860 8.199623 -150.955124
-0.336604 8.071557 -150.958913
-0.436834 8.037840 -150.960279
-0.537064 8.004123 -150.961645
-0.637294 7.970406 -150.963011
-0.737524 7.936689 -150.964377
-0.837754 7.902972 -150.965743
-0.937983 7.869255 -150.967109
-1.038213 7.835538 -150.968476
-1.138443 7.801821 -150.969842
-1.200187 7.673754 -150.973631
-1.300417 7.640037 -150.974997
-1.400647 7.606320 -150.976363
-1.462390 7.478254 -150.980152
-1.562620 7.444537 -150.981518
-1.624364 7.316471 -150.985307
-1.724594 7.282754 -150.986673
-1.786337 7.154688 -150.990462
-1.886567 7.120971 -150.991828
-1.948311 6.992905 -150.995617
-2.048541 6.959188 -150.996983
-2.110284 6.831122 -151.000772
-2.210514 6.797405 -151.002138
-2.272258 6.669339 -151.005928
-2.372488 6.635622 -151.007294
-2.434231 6.507556 -151.011083
-2.495975 6.379490 -151.014872
-2.596205 6.345773 -151.016238
-2.657948 6.217706 -151.020027
-2.719692 6.089640 -151.023816
-2.742949 5.867225 -151.030028
-2.843179 5.833508 -151.031394
-2.904922 5.705442 -151.035184
-2.966666 5.577376 -151.038973
-0.188673 8.286107 -150.961988
-0.339121 8.269258 -150.960931
-0.409064 8.189944 -150.962297
-0.559512 8.173094 -150.961240
-0.951474 8.343642 -150.952914
-1.101922 8.326793 -150.951857
-1.171865 8.247478 -150.953223
-1.322313 8.230629 -150.952166
-1.392256 8.151314 -150.953532
-1.462199 8.072000 -150.954898
-1.532142 7.992685 -150.956264
-1.682590 7.975836 -150.955207
-1.752533 7.896521 -150.956573
-1.822476 7.817206 -150.957939
-1.892419 7.737892 -150.959305
-1.962363 7.658577 -150.960671
-2.032306 7.579262 -150.962037
-2.102249 7.499948 -150.963403
-2.172192 7.420633 -150.964769
-2.242135 7.341318 -150.966135
-2.312078 7.262004 -150.967501
-2.382022 7.182689 -150.968867
-2.451965 7.103374 -150.970233
-2.521908 7.024059 -150.971599
-2.591851 6.944745 -150.972965
-2.661794 6.865430 -150.974331
-2.731737 6.786115 -150.975697
-2.801680 6.706801 -150.977063
-2.871624 6.627486 -150.978429
-3.022071 6.610637 -150.977372
-3.092015 6.531322 -150.978738
-3.161958 6.452008 -150.980104
-3.231901 6.372693 -150.981470
-3.301844 6.293378 -150.982836
-3.371787 6.214063 -150.984202
-3.441730 6.134749 -150.985568
-3.511674 6.055434 -150.986934
-3.581617 5.976119 -150.988300
-3.651560 5.896805 -150.989666
-3.721503 5.817490 -150.991032
-3.791446 5.738175 -150.992398
-3.861389 5.658861 -150.993764
-3.931333 5.579546 -150.995130
-4.001276 5.500231 -150.996496
-4.071219 5.420917 -150.997862
-4.141162 5.341602 -150.999228
-4.211105 5.262287 -151.000594
-4.200544 5.120507 -151.004383
-4.270487 5.041192 -151.005749
-4.340430 4.961878 -151.007115
-4.410373 4.882563 -151.008481
-4.480316 4.803248 -151.009847
-4.550259 4.723934 -151.011213
-4.620203 4.644619 -151.012579
-4.690146 4.565304 -151.013945
-4.760089 4.485990 -151.015311
-4.830032 4.406675 -151.016677
-4.819471 4.264895 -151.020466
-4.889414 4.185580 -151.021832
-4.959357 4.106265 -151.023198
-5.029300 4.026951 -151.024564
-5.018738 3.885170 -151.028354
-4.686158 3.493528 -151.041835
-4.756101 3.414213 -151.043201
-4.826045 3.334899 -151.044567
-4.815483 3.193118 -151.048356
-4.885426 3.113804 -151.049722
-4.874865 2.972023 -151.053512
-4.944808 2.892709 -151.054878
-4.853742 2.688463 -151.061090
-4.762675 2.484217 -151.067302
-4.832619 2.404903 -151.068668
-4.902562 2.325588 -151.070034
-4.892000 2.183808 -151.073823
-4.961943 2.104493 -151.075189
-4.951382 1.962713 -151.078978
-5.021325 1.883398 -151.080344
-4.947578 4.932467 -150.985829
-4.968493 4.828807 -150.987195
-4.989408 4.725147 -150.988561
-5.010323 4.621486 -150.989927
-5.132190 4.531671 -150.988869
-5.153106 4.428010 -150.990235
-5.174021 4.324350 -150.991602
-5.194936 4.220690 -150.992968
-5.215851 4.117030 -150.994334
-5.236766 4.013370 -150.995700
-5.358633 3.923554 -150.994642
-5.379548 3.819894 -150.996008
-5.400463 3.716234 -150.997374
-5.421378 3.612574 -150.998740
-5.442294 3.508913 -151.000107
-5.463209 3.405253 -151.001473
-5.484124 3.301593 -151.002839
-5.505039 3.197933 -151.004205
-5.525954 3.094273 -151.005571
-5.546869 2.990613 -151.006937
-5.567784 2.886952 -151.008303
-5.487748 2.769448 -151.012092
-5.508663 2.665788 -151.013458
-5.529578 2.562128 -151.014824
-5.550493 2.458467 -151.016190
-5.571408 2.354807 -151.017556
-5.592323 2.251147 -151.018922
-5.613238 2.147487 -151.020288
-5.634154 2.043827 -151.021654
-5.554117 1.926322 -151.025443
-5.575032 1.822662 -151.026809
-5.595947 1.719002 -151.028175
-5.616862 1.615342 -151.029541
-5.637777 1.511682 -151.030907
-5.557740 1.394177 -151.034696
-5.578656 1.290517 -151.036062
-5.599571 1.186857 -151.037428
-5.620486 1.083197 -151.038794
-5.641401 0.979537 -151.040160
-5.561364 0.862032 -151.043949
-5.582279 0.758372 -151.045315
-5.502243 0.640867 -151.049105
-5.523158 0.537207 -151.050471
-5.544073 0.433547 -151.051837
-5.564988 0.329887 -151.053203
-5.484951 0.212382 -151.056992
-5.505866 0.108722 -151.058358
-5.526781 0.005062 -151.059724
-5.547697 -0.098598 -151.061090
-5.467660 -0.216103 -151.064879
-5.488575 -0.319763 -151.066245
-5.509490 -0.423423 -151.067611
-5.530405 -0.527083 -151.068977
-5.551320 -0.630743 -151.070343
-5.572235 -0.734403 -151.071709
-5.593151 -0.838063 -151.073075
-5.614066 -0.941724 -151.074441
-5.634981 -1.045384 -151.075807
-5.554944 -1.162888 -151.079596
-5.575859 -1.266548 -151.080962
-5.596774 -1.370209 -151.082328
-5.617689 -1.473869 -151.083694
-5.537653 -1.591373 -151.087483
-5.558568 -1.695033 -151.088849
-5.579483 -1.798694 -151.090215
-5.499446 -1.916198 -151.094005
-5.419409 -2.033703 -151.097794
-6.144055 -0.006282 -151.010417
-6.204688 -0.144999 -151.009360
-6.265320 -0.283715 -151.008303
-6.325952 -0.422431 -151.007245
-6.386584 -0.561148 -151.006188
-6.352867 -0.661378 -151.007554
-6.319150 -0.761608 -151.008920
-6.379782 -0.900324 -151.007863
-6.346065 -1.000554 -151.009229
-6.312348 -1.100784 -151.010595
-6.278631 -1.201014 -151.011961
-6.244914 -1.301244 -151.013327
-6.211197 -1.401473 -151.014693
-6.177480 -1.501703 -151.016059
-6.143763 -1.601933 -151.017425
-6.110046 -1.702163 -151.018791
-6.076329 -1.802393 -151.020157
-6.042612 -1.902623 -151.021523
-6.008895 -2.002853 -151.022889
-5.975178 -2.103083 -151.024256
-5.941461 -2.203313 -151.025622
-6.002093 -2.342029 -151.024564
-5.968376 -2.442259 -151.025930
-5.934659 -2.542489 -151.027296
-5.900942 -2.642719 -151.028662
-5.772876 -2.704462 -151.032452
-5.739159 -2.804692 -151.033818
-5.705442 -2.904922 -151.035184
-5.671725 -3.005152 -151.036550
-5.638008 -3.105382 -151.037916
-5.604291 -3.205612 -151.039282
-5.570574 -3.305842 -151.040648
-5.536857 -3.406072 -151.042014
-5.503140 -3.506302 -151.043380
-5.469423 -3.606532 -151.044746
-5.435706 -3.706762 -151.046112
-5.401989 -3.806992 -151.047478
-5.368272 -3.907222 -151.048844
-5.334555 -4.007451 -151.050210
-5.300838 -4.107681 -151.051576
-5.267121 -4.207911 -151.052942
-5.233404 -4.308141 -151.054308
-5.199687 -4.408371 -151.055674
-5.165970 -4.508601 -151.057040
-5.132253 -4.608831 -151.058406
-5.004187 -4.670575 -151.062195
-4.970470 -4.770804 -151.063561
-4.936753 -4.871034 -151.064927
-4.903036 -4.971264 -151.066293
-4.869319 -5.071494 -151.067659
-4.835602 -5.171724 -151.069025
-4.707536 -5.233468 -151.072814
-4.673819 -5.333698 -151.074180
-4.640102 -5.433928 -151.075546
-4.606385 -5.534157 -151.076912
-4.478319 -5.595901 -151.080701
-4.444602 -5.696131 -151.082067
-4.410885 -5.796361 -151.083433
-4.377168 -5.896591 -151.084800
-4.249102 -5.958334 -151.088589
-4.215385 -6.058564 -151.089955
-4.181668 -6.158794 -151.091321
-4.147951 -6.259024 -151.092687
-4.114234 -6.359254 -151.094053
-3.986167 -6.420998 -151.097842
-3.952450 -6.521227 -151.099208
-3.918733 -6.621457 -151.100574
-3.885016 -6.721687 -151.101940
-3.756950 -6.783431 -151.105729
-3.723233 -6.883661 -151.107095
-3.689516 -6.983891 -151.108461
-3.561450 -7.045634 -151.112250
-3.527733 -7.145864 -151.113616
-3.494016 -7.246094 -151.114982
-3.365950 -7.307838 -151.118771
-3.332233 -7.408068 -151.120137
-3.298516 -7.508297 -151.121503
-3.170450 -7.570041 -151.125293
-3.042384 -7.631785 -151.129082
-3.008667 -7.732014 -151.130448
-2.880601 -7.793758 -151.134237
-2.752535 -7.855502 -151.138026
-4.125170 -6.705349 -151.005358
-4.108321 -6.855797 -151.004301
-4.029007 -6.925740 -151.005667
-4.012157 -7.076188 -151.004610
-3.995308 -7.226636 -151.003553
-3.915994 -7.296579 -151.004919
-3.836679 -7.366522 -151.006285
-3.819830 -7.516970 -151.005228
-3.740515 -7.586913 -151.006594
-3.661200 -7.656856 -151.007960
-3.581886 -7.726800 -151.009326
-3.565037 -7.877247 -151.008269
-3.485722 -7.947191 -151.009635
-3.406407 -8.017134 -151.011001
-3.389558 -8.167582 -151.009943
-3.310243 -8.237525 -151.011309
-3.230929 -8.307468 -151.012675
-3.151614 -8.377411 -151.014041
-3.072299 -8.447354 -151.015407
-2.992985 -8.517297 -151.016774
-2.913670 -8.587241 -151.018140
-2.834355 -8.657184 -151.019506
-2.817506 -8.807632 -151.018448
-2.738191 -8.877575 -151.019814
-2.658877 -8.947518 -151.021180
-2.579562 -9.017461 -151.022546
-2.500247 -9.087404 -151.023912
-2.420933 -9.157347 -151.025279
-2.341618 -9.227290 -151.026645
-2.262303 -9.297234 -151.028011
-2.182989 -9.367177 -151.029377
-2.103674 -9.437120 -151.030743
-2.024359 -9.507063 -151.032109
-1.945045 -9.577006 -151.033475
-1.865730 -9.646949 -151.034841
-1.786415 -9.716893 -151.036207
-1.707101 -9.786836 -151.037573
-1.627786 -9.856779 -151.038939
-1.548471 -9.926722 -151.040305
-1.469156 -9.996665 -151.041671
-1.389842 -10.066608 -151.043037
-1.248062 -10.056047 -151.046826
-1.168747 -10.125990 -151.048192
-1.089432 -10.195933 -151.049558
-1.010118 -10.265876 -151.050924
-0.930803 -10.335819 -151.052290
-0.851488 -10.405763 -151.053656
-0.772173 -10.475706 -151.055022
-0.692859 -10.545649 -151.056388
-0.613544 -10.615592 -151.057754
-0.534229 -10.685535 -151.059120
-0.392449 -10.674974 -151.062909
-0.313134 -10.744917 -151.064275
-0.233820 -10.814860 -151.065641
-0.092040 -10.804299 -151.069430
-0.012725 -10.874242 -151.070796
0.129055 -10.863680 -151.074585
0.208370 -10.933623 -151.075951
0.350150 -10.923062 -151.079741
0.554396 -10.831996 -151.085953
-3.488664 -7.625029 -150.953319
-3.398848 -7.746896 -150.952262
-3.295188 -7.767811 -150.953628
-3.191528 -7.788726 -150.954994
-3.087867 -7.809642 -150.956360
-2.998052 -7.931509 -150.955303
-2.949769 -8.356231 -150.946976
-2.859953 -8.478098 -150.945919
-2.770137 -8.599966 -150.944862
-2.666477 -8.620881 -150.946228
-2.562817 -8.641796 -150.947594
-2.473001 -8.763663 -150.946537
-2.410874 -9.087434 -150.940634
-2.334902 -9.310253 -150.937153
-2.245086 -9.432120 -150.936096
-2.141426 -9.453035 -150.937462
-2.051610 -9.574902 -150.936405
-1.947950 -9.595817 -150.937771
-1.858134 -9.717684 -150.936714
-1.754474 -9.738599 -150.938080
-1.664658 -9.860466 -150.937023
-1.574843 -9.982333 -150.935966
-1.471182 -10.003248 -150.937332
-1.381367 -10.125115 -150.936275
-1.291551 -10.246982 -150.935218
-1.201735 -10.368850 -150.934161
-1.111919 -10.490717 -150.933104
-1.022103 -10.612584 -150.932046
-0.918443 -10.633499 -150.933412
-0.828627 -10.755366 -150.932355
-0.724967 -10.776281 -150.933721
-0.635151 -10.898148 -150.932664
-0.531491 -10.919063 -150.934030
-0.427831 -10.939978 -150.935396
-0.338015 -11.061845 -150.934339
-0.234355 -11.082760 -150.935705
-0.130695 -11.103676 -150.937071
-0.027035 -11.124591 -150.938437
0.076625 -11.145506 -150.939803
0.180286 -11.166421 -150.941169
0.283946 -11.187336 -150.942535
0.387606 -11.208251 -150.943901
0.491266 -11.229166 -150.945267
0.594926 -11.250081 -150.946633
0.698586 -11.270997 -150.947999
0.802247 -11.291912 -150.949365
0.905907 -11.312827 -150.950731
1.009567 -11.333742 -150.952097
1.113227 -11.354657 -150.953463
1.203043 -11.476524 -150.952406
1.306703 -11.497439 -150.953772
1.410363 -11.518354 -150.955138
1.514023 -11.539270 -150.956504
1.617684 -11.560185 -150.957870
1.721344 -11.581100 -150.959236
1.825004 -11.602015 -150.960602
1.928664 -11.622930 -150.961968
2.032324 -11.643845 -150.963334
2.135984 -11.664760 -150.964700
2.239644 -11.685675 -150.966066
2.343305 -11.706591 -150.967432
2.446965 -11.727506 -150.968798
2.564469 -11.647469 -150.972588
2.668129 -11.668384 -150.973954
2.771790 -11.689299 -150.975320
2.875450 -11.710214 -150.976686
2.979110 -11.731129 -150.978052
3.082770 -11.752045 -150.979418
3.186430 -11.772960 -150.980784
3.290090 -11.793875 -150.982150
3.393751 -11.814790 -150.983516
3.497411 -11.835705 -150.984882
3.601071 -11.856620 -150.986248
3.704731 -11.877535 -150.987614
3.808391 -11.898451 -150.988980
3.912051 -11.919366 -150.990346
4.015712 -11.940281 -150.991712
4.133216 -11.860244 -150.995501
4.236876 -11.881159 -150.996867
4.340536 -11.902074 -150.998233
4.458041 -11.822037 -151.002022
4.561701 -11.842953 -151.003388
4.665361 -11.863868 -151.004754
4.769021 -11.884783 -151.006120
4.872681 -11.905698 -151.007486
4.990186 -11.825661 -151.011275
5.149223 -11.442769 -151.022334
5.266728 -11.362732 -151.026123
5.370388 -11.383647 -151.027489
5.487893 -11.303610 -151.031278
5.605397 -11.223573 -151.035067
5.722902 -11.143537 -151.038856
-0.420375 -10.686709 -150.883748
-0.281658 -10.747341 -150.882691
-0.142942 -10.807973 -150.881634
-0.042712 -10.774256 -150.883000
0.134491 -10.929237 -150.879520
0.234721 -10.895520 -150.880886
0.373437 -10.956153 -150.879829
0.512153 -11.016785 -150.878772
0.650869 -11.077417 -150.877715
0.828072 -11.232398 -150.874234
1.005275 -11.387379 -150.870754
1.143991 -11.448011 -150.869697
1.282707 -11.508644 -150.868640
1.421424 -11.569276 -150.867583
1.560140 -11.629908 -150.866526
1.698856 -11.690540 -150.865469
1.799086 -11.656823 -150.866835
1.937803 -11.717455 -150.865778
2.038032 -11.683738 -150.867144
2.176749 -11.744370 -150.866086
2.430924 -12.088050 -150.857760
2.569640 -12.148682 -150.856703
2.708357 -12.209314 -150.855646
2.808587 -12.175597 -150.857012
2.908817 -12.141880 -150.858378
3.009047 -12.108163 -150.859744
3.109276 -12.074446 -150.861110
3.209506 -12.040729 -150.862476
3.348223 -12.101361 -150.861419
3.448453 -12.067644 -150.862785
3.548683 -12.033927 -150.864151
3.648912 -12.000210 -150.865517
3.749142 -11.966493 -150.866883
3.849372 -11.932776 -150.868249
3.949602 -11.899059 -150.869615
4.088318 -11.959691 -150.868558
4.188548 -11.925974 -150.869924
4.288778 -11.892257 -150.871290
4.389008 -11.858540 -150.872656
4.489238 -11.824823 -150.874022
4.589468 -11.791106 -150.875388
4.689698 -11.757389 -150.876754
4.789928 -11.723672 -150.878120
4.890158 -11.689955 -150.879486
4.990388 -11.656238 -150.880852
5.090618 -11.622521 -150.882218
5.190848 -11.588804 -150.883584
5.291078 -11.555087 -150.884950
5.391307 -11.521370 -150.886316
5.491537 -11.487653 -150.887682
5.630254 -11.548285 -150.886625
5.730484 -11.514568 -150.887991
5.830714 -11.480851 -150.889357
5.892457 -11.352785 -150.893146
5.992687 -11.319068 -150.894512
6.092917 -11.285351 -150.895878
6.193147 -11.251634 -150.897244
6.293377 -11.217917 -150.898610
6.393607 -11.184200 -150.899976
6.493837 -11.150483 -150.901342
6.594067 -11.116766 -150.902708
6.694296 -11.083049 -150.904074
6.794526 -11.049332 -150.905440
6.894756 -11.015615 -150.906806
6.994986 -10.981898 -150.908172
7.095216 -10.948181 -150.909538
7.195446 -10.914464 -150.910904
7.295676 -10.880747 -150.912270
7.395906 -10.847030 -150.913636
7.496136 -10.813313 -150.915002
7.557879 -10.685247 -150.918791
7.658109 -10.651530 -150.920157
7.758339 -10.617813 -150.921523
7.858569 -10.584096 -150.922889
7.958799 -10.550379 -150.924256
8.059029 -10.516662 -150.925622
8.159259 -10.482945 -150.926988
8.259489 -10.449228 -150.928354
8.359719 -10.415511 -150.929720
8.459949 -10.381794 -150.931086
8.521692 -10.253728 -150.934875
8.621922 -10.220011 -150.936241
8.722152 -10.186294 -150.937607
8.822382 -10.152577 -150.938973
8.884126 -10.024511 -150.942762
8.984355 -9.990794 -150.944128
9.084585 -9.957077 -150.945494
9.184815 -9.923360 -150.946860
9.285045 -9.889643 -150.948226
9.385275 -9.855926 -150.949592
9.216100 -9.161765 -150.967920
9.277844 -9.033699 -150.971709
9.378074 -8.999982 -150.973075
9.439818 -8.871916 -150.976864
9.540047 -8.838199 -150.978230
9.601791 -8.710133 -150.982019
9.663535 -8.582066 -150.985808
9.763764 -8.548349 -150.987174
9.825508 -8.420283 -150.990964
9.887252 -8.292217 -150.994753
9.948995 -8.164151 -150.998542
10.049225 -8.130434 -150.999908
10.110969 -8.002368 -151.003697
10.172712 -7.874302 -151.007486
10.234456 -7.746236 -151.011275
10.296199 -7.618170 -151.015064
10.319456 -7.395754 -151.021277
10.342714 -7.173339 -151.027489
10.404457 -7.045273 -151.031278
10.350742 -6.634160 -151.042337
10.412485 -6.506094 -151.046126
10.512715 -6.472377 -151.047492
10.574459 -6.344310 -151.051281
10.597716 -6.121895 -151.057493
