ply
format ascii 1.0
element vertex 1127
property float x
property float y
property float z
element face 0
property list uchar uint vertex_indices
end_header
2.349152 -11.832669 -149.848362
2.660609 -11.940751 -149.842459
2.811057 -11.923902 -149.841402
2.961504 -11.907053 -149.840345
3.111952 -11.890204 -149.839288
3.262400 -11.873354 -149.838231
3.412848 -11.856505 -149.837173
3.965819 -12.151984 -149.824001
4.116267 -12.135135 -149.822944
4.266715 -12.118286 -149.821887
4.417163 -12.101436 -149.820829
4.648115 -12.147053 -149.817349
4.798563 -12.130204 -149.816292
4.868506 -12.050889 -149.817658
5.018954 -12.034040 -149.816601
5.088897 -11.954725 -149.817967
5.239345 -11.937876 -149.816910
5.389793 -11.921027 -149.815853
5.540241 -11.904178 -149.814796
5.610184 -11.824863 -149.816162
5.760632 -11.808014 -149.815105
5.830575 -11.728699 -149.816471
5.900518 -11.649385 -149.817837
6.050966 -11.632535 -149.816780
6.120909 -11.553221 -149.818146
6.271357 -11.536372 -149.817088
6.421805 -11.519522 -149.816031
6.572253 -11.502673 -149.814974
6.642196 -11.423359 -149.816340
6.712139 -11.344044 -149.817706
6.862587 -11.327195 -149.816649
6.932530 -11.247880 -149.818015
7.082978 -11.231031 -149.816958
7.233426 -11.214182 -149.815901
7.383873 -11.197333 -149.814844
7.453817 -11.118018 -149.816210
7.604264 -11.101169 -149.815153
7.674208 -11.021854 -149.816519
7.824655 -11.005005 -149.815462
7.894599 -10.925690 -149.816828
7.964542 -10.846376 -149.818194
8.114990 -10.829526 -149.817137
8.184933 -10.750212 -149.818503
8.254876 -10.670897 -149.819869
8.324819 -10.591582 -149.821235
8.394762 -10.512268 -149.822601
8.545210 -10.495419 -149.821544
8.615153 -10.416104 -149.822910
8.685096 -10.336789 -149.824276
8.835544 -10.319940 -149.823218
8.905487 -10.240625 -149.824584
8.975431 -10.161311 -149.825950
9.045374 -10.081996 -149.827317
9.115317 -10.002681 -149.828683
9.185260 -9.923367 -149.830049
9.255203 -9.844052 -149.831415
9.405651 -9.827203 -149.830357
9.475594 -9.747888 -149.831723
9.545537 -9.668573 -149.833089
9.615480 -9.589259 -149.834455
9.685424 -9.509944 -149.835822
9.755367 -9.430629 -149.837188
9.825310 -9.351315 -149.838554
9.895253 -9.272000 -149.839920
9.965196 -9.192685 -149.841286
10.035139 -9.113371 -149.842652
10.105083 -9.034056 -149.844018
10.175026 -8.954741 -149.845384
10.244969 -8.875427 -149.846750
10.314912 -8.796112 -149.848116
10.384855 -8.716797 -149.849482
10.454798 -8.637483 -149.850848
10.444237 -8.495702 -149.854637
10.514180 -8.416388 -149.856003
10.584123 -8.337073 -149.857369
10.654066 -8.257758 -149.858735
10.724009 -8.178444 -149.860101
10.793953 -8.099129 -149.861467
10.783391 -7.957349 -149.865256
10.853334 -7.878034 -149.866622
10.923277 -7.798719 -149.867988
10.912716 -7.656939 -149.871777
10.982659 -7.577624 -149.873143
10.972098 -7.435844 -149.876932
11.042041 -7.356529 -149.878298
11.111984 -7.277215 -149.879664
11.101422 -7.135435 -149.883454
11.171365 -7.056120 -149.884820
11.160804 -6.914340 -149.888609
11.230747 -6.835025 -149.889975
11.220186 -6.693245 -149.893764
11.209624 -6.551464 -149.897553
11.279567 -6.472150 -149.898919
11.269006 -6.330370 -149.902708
11.338949 -6.251055 -149.904074
11.328387 -6.109275 -149.907863
11.398330 -6.029960 -149.909229
11.387769 -5.888180 -149.913018
11.377207 -5.746400 -149.916808
11.286141 -5.542154 -149.923020
11.275580 -5.400374 -149.926809
11.265018 -5.258593 -149.930598
11.334961 -5.179279 -149.931964
11.324400 -5.037498 -149.935753
11.313838 -4.895718 -149.939542
11.303277 -4.753938 -149.943332
11.292715 -4.612158 -149.947121
11.121144 -4.345446 -149.955756
11.030078 -4.141201 -149.961968
11.019517 -3.999420 -149.965758
11.008955 -3.857640 -149.969547
10.998394 -3.715860 -149.973336
11.068337 -3.636545 -149.974702
10.977270 -3.432299 -149.980914
10.886204 -3.228054 -149.987126
10.956147 -3.148739 -149.988492
10.945586 -3.006959 -149.992281
11.015529 -2.927644 -149.993648
11.004968 -2.785864 -149.997437
10.994406 -2.644084 -150.001226
10.983844 -2.502303 -150.005015
10.812274 -2.235592 -150.013650
10.801712 -2.093812 -150.017439
10.791151 -1.952032 -150.021229
10.861094 -1.872717 -150.022595
10.448009 -1.418609 -150.038499
10.437447 -1.276829 -150.042289
10.426886 -1.135049 -150.046078
8.566525 -10.648654 -149.807430
8.688392 -10.558838 -149.806373
8.709307 -10.455178 -149.807739
8.730222 -10.351518 -149.809105
8.852089 -10.261702 -149.808048
8.873004 -10.158042 -149.809414
9.297727 -10.109759 -149.801087
9.419594 -10.019943 -149.800030
9.541461 -9.930127 -149.798973
9.663328 -9.840311 -149.797916
9.785195 -9.750495 -149.796859
9.907062 -9.660680 -149.795802
9.927977 -9.557019 -149.797168
10.049844 -9.467204 -149.796111
10.070759 -9.363543 -149.797477
10.192626 -9.273728 -149.796420
10.314493 -9.183912 -149.795363
10.335409 -9.080252 -149.796729
10.457276 -8.990436 -149.795671
10.478191 -8.886776 -149.797037
10.600058 -8.796960 -149.795980
10.721925 -8.707144 -149.794923
10.742840 -8.603484 -149.796289
10.763755 -8.499824 -149.797655
10.784670 -8.396164 -149.799021
10.906537 -8.306348 -149.797964
10.927452 -8.202688 -149.799330
10.948367 -8.099027 -149.800696
10.969283 -7.995367 -149.802062
11.091150 -7.905551 -149.801005
11.213017 -7.815736 -149.799948
11.233932 -7.712075 -149.801314
11.355799 -7.622260 -149.800257
11.376714 -7.518599 -149.801623
11.397629 -7.414939 -149.802989
11.418544 -7.311279 -149.804355
11.439459 -7.207619 -149.805721
11.460375 -7.103959 -149.807087
11.481290 -7.000299 -149.808453
11.502205 -6.896638 -149.809819
11.523120 -6.792978 -149.811185
11.644987 -6.703162 -149.810128
11.665902 -6.599502 -149.811494
11.686817 -6.495842 -149.812860
11.707732 -6.392182 -149.814226
11.829599 -6.302366 -149.813169
11.850515 -6.198706 -149.814535
11.871430 -6.095046 -149.815901
11.892345 -5.991386 -149.817267
11.913260 -5.887726 -149.818633
11.833223 -5.770221 -149.822422
11.854138 -5.666561 -149.823788
11.875053 -5.562901 -149.825154
11.795017 -5.445396 -149.828943
11.815932 -5.341736 -149.830309
11.836847 -5.238076 -149.831675
11.756810 -5.120571 -149.835464
11.777725 -5.016911 -149.836830
11.798640 -4.913251 -149.838196
11.819556 -4.809591 -149.839563
11.840471 -4.705931 -149.840929
11.760434 -4.588426 -149.844718
11.781349 -4.484766 -149.846084
11.802264 -4.381106 -149.847450
11.722227 -4.263601 -149.851239
11.743142 -4.159941 -149.852605
11.764058 -4.056281 -149.853971
11.784973 -3.952621 -149.855337
11.704936 -3.835117 -149.859126
11.725851 -3.731456 -149.860492
11.645814 -3.613952 -149.864281
11.666729 -3.510292 -149.865647
11.586693 -3.392787 -149.869436
11.607608 -3.289127 -149.870802
11.527571 -3.171623 -149.874591
11.447534 -3.054118 -149.878381
11.468449 -2.950458 -149.879747
11.388413 -2.832953 -149.883536
11.409328 -2.729293 -149.884902
11.430243 -2.625633 -149.886268
11.350206 -2.508129 -149.890057
11.371121 -2.404468 -149.891423
11.392036 -2.300808 -149.892789
11.312000 -2.183304 -149.896578
11.332915 -2.079644 -149.897944
11.353830 -1.975984 -149.899310
11.273793 -1.858479 -149.903099
11.294708 -1.754819 -149.904465
11.315623 -1.651159 -149.905831
11.336538 -1.547499 -149.907197
11.256502 -1.429994 -149.910986
11.277417 -1.326334 -149.912353
11.298332 -1.222674 -149.913719
11.218295 -1.105169 -149.917508
11.239210 -1.001509 -149.918874
11.159173 -0.884005 -149.922663
11.180089 -0.780344 -149.924029
11.100052 -0.662840 -149.927818
11.120967 -0.559180 -149.929184
11.141882 -0.455520 -149.930550
11.061845 -0.338015 -149.934339
10.981809 -0.220511 -149.938128
10.901772 -0.103006 -149.941917
10.922687 0.000654 -149.943283
10.842650 0.118158 -149.947073
10.863565 0.221819 -149.948439
10.884480 0.325479 -149.949805
10.905395 0.429139 -149.951171
10.825359 0.546643 -149.954960
10.846274 0.650304 -149.956326
10.766237 0.767808 -149.960115
10.787152 0.871468 -149.961481
10.707115 0.988973 -149.965270
10.627079 1.106477 -149.969059
10.547042 1.223982 -149.972848
10.567957 1.327642 -149.974214
10.386968 1.458991 -149.980427
10.306931 1.576495 -149.984216
10.226895 1.694000 -149.988005
10.247810 1.797660 -149.989371
10.268725 1.901320 -149.990737
10.188688 2.018824 -149.994526
10.209603 2.122485 -149.995892
10.129567 2.239989 -149.999681
10.049530 2.357494 -150.003470
9.969493 2.474998 -150.007260
9.687552 2.620191 -150.015895
9.607516 2.737696 -150.019684
9.628431 2.841356 -150.021050
9.548394 2.958860 -150.024839
9.670261 3.048676 -150.023782
9.691176 3.152336 -150.025148
9.611139 3.269841 -150.028937
9.632054 3.373501 -150.030303
9.652970 3.477161 -150.031669
9.572933 3.594666 -150.035458
9.492896 3.712170 -150.039248
9.311907 3.843519 -150.045460
9.332822 3.947179 -150.046826
9.252786 4.064684 -150.050615
9.172749 4.182188 -150.054404
9.193664 4.285848 -150.055770
9.113627 4.403353 -150.059559
11.348615 -8.129224 -149.831744
11.409247 -7.990508 -149.830686
11.469879 -7.851791 -149.829629
11.436162 -7.751561 -149.830995
11.591143 -7.574359 -149.827515
11.746125 -7.397156 -149.824035
11.712408 -7.296926 -149.825401
11.773040 -7.158210 -149.824344
11.833672 -7.019494 -149.823287
11.799955 -6.919264 -149.824653
11.860587 -6.780547 -149.823596
11.921219 -6.641831 -149.822538
11.887502 -6.541601 -149.823904
11.948134 -6.402885 -149.822847
12.008766 -6.264168 -149.821790
11.975049 -6.163939 -149.823156
12.035681 -6.025222 -149.822099
12.285012 -5.809533 -149.816196
12.345644 -5.670817 -149.815139
12.311927 -5.570587 -149.816505
12.372559 -5.431871 -149.815448
12.338842 -5.331641 -149.816814
12.305125 -5.231411 -149.818180
12.271408 -5.131181 -149.819546
12.237691 -5.030951 -149.820912
12.203974 -4.930721 -149.822278
12.264606 -4.792005 -149.821221
12.230889 -4.691775 -149.822587
12.291521 -4.553059 -149.821529
12.257804 -4.452829 -149.822896
12.224087 -4.352599 -149.824262
12.190370 -4.252369 -149.825628
12.156653 -4.152139 -149.826994
12.217285 -4.013423 -149.825936
12.183568 -3.913193 -149.827302
12.149851 -3.812963 -149.828668
12.210483 -3.674246 -149.827611
12.176766 -3.574017 -149.828977
12.143049 -3.473787 -149.830343
12.109332 -3.373557 -149.831709
12.075615 -3.273327 -149.833075
12.041898 -3.173097 -149.834441
12.102531 -3.034381 -149.833384
12.068814 -2.934151 -149.834750
12.035097 -2.833921 -149.836116
12.001380 -2.733691 -149.837482
11.873313 -2.671947 -149.841272
11.933946 -2.533231 -149.840214
11.900229 -2.433001 -149.841580
11.866512 -2.332771 -149.842946
11.927144 -2.194055 -149.841889
11.893427 -2.093825 -149.843255
11.859710 -1.993595 -149.844621
11.825993 -1.893365 -149.845987
11.792276 -1.793135 -149.847353
11.758559 -1.692905 -149.848719
11.724842 -1.592675 -149.850085
11.785474 -1.453959 -149.849028
11.751757 -1.353729 -149.850394
11.718040 -1.253499 -149.851760
11.684323 -1.153269 -149.853126
11.650606 -1.053039 -149.854492
11.616889 -0.952809 -149.855858
11.677521 -0.814093 -149.854801
11.643804 -0.713863 -149.856167
11.610087 -0.613633 -149.857533
11.576370 -0.513403 -149.858899
11.542653 -0.413173 -149.860265
11.508936 -0.312943 -149.861631
11.475219 -0.212713 -149.862997
11.441502 -0.112484 -149.864363
11.407785 -0.012254 -149.865729
11.374068 0.087976 -149.867095
11.434700 0.226693 -149.866038
11.400983 0.326923 -149.867404
11.367266 0.427152 -149.868770
11.333549 0.527382 -149.870136
11.299832 0.627612 -149.871502
11.266115 0.727842 -149.872868
11.232398 0.828072 -149.874234
11.293030 0.966788 -149.873177
11.259313 1.067018 -149.874543
11.225596 1.167248 -149.875909
11.191879 1.267478 -149.877275
11.158162 1.367708 -149.878641
11.124445 1.467938 -149.880007
11.090728 1.568168 -149.881373
11.057011 1.668398 -149.882739
11.023294 1.768628 -149.884105
10.989577 1.868858 -149.885471
10.955860 1.969088 -149.886837
10.922143 2.069318 -149.888204
10.888426 2.169547 -149.889570
10.854709 2.269777 -149.890936
10.820992 2.370007 -149.892302
10.787275 2.470237 -149.893668
10.753558 2.570467 -149.895034
10.719841 2.670697 -149.896400
10.686124 2.770927 -149.897766
10.652407 2.871157 -149.899132
10.618690 2.971387 -149.900498
10.584973 3.071617 -149.901864
10.551256 3.171847 -149.903230
10.423190 3.233590 -149.907019
10.389473 3.333820 -149.908385
10.355756 3.434050 -149.909751
10.227690 3.495794 -149.913540
10.193973 3.596024 -149.914906
10.160256 3.696253 -149.916272
10.126539 3.796483 -149.917638
10.092822 3.896713 -149.919004
10.059105 3.996943 -149.920370
10.025388 4.097173 -149.921736
9.991671 4.197403 -149.923102
9.957954 4.297633 -149.924468
9.924237 4.397863 -149.925834
9.890520 4.498093 -149.927200
9.856803 4.598323 -149.928566
9.823086 4.698553 -149.929932
9.789369 4.798783 -149.931298
9.661303 4.860526 -149.935087
9.627586 4.960756 -149.936453
9.593869 5.060986 -149.937819
9.560152 5.161216 -149.939185
9.432086 5.222960 -149.942975
9.398369 5.323189 -149.944341
9.364652 5.423419 -149.945707
9.236586 5.485163 -149.949496
9.108520 5.546906 -149.953285
9.074803 5.647136 -149.954651
8.946736 5.708880 -149.958440
8.818670 5.770623 -149.962229
8.784953 5.870853 -149.963595
8.751236 5.971083 -149.964961
8.623170 6.032827 -149.968750
11.508431 1.414788 -149.866072
11.429116 1.484732 -149.867438
11.412267 1.635180 -149.866381
11.332952 1.705123 -149.867747
11.253638 1.775066 -149.869113
11.174323 1.845009 -149.870479
11.095008 1.914952 -149.871845
11.015693 1.984895 -149.873211
10.936378 2.054838 -149.874577
10.857064 2.124782 -149.875943
10.840214 2.275230 -149.874886
10.760900 2.345173 -149.876252
10.806516 2.576125 -149.872772
10.852132 2.807078 -149.869292
10.835283 2.957526 -149.868235
10.755968 3.027469 -149.869601
10.739119 3.177917 -149.868544
10.722270 3.328365 -149.867487
10.642955 3.398308 -149.868853
10.563640 3.468252 -149.870219
10.546791 3.618699 -149.869162
10.467476 3.688643 -149.870528
10.388161 3.758586 -149.871894
10.371312 3.909034 -149.870836
10.291997 3.978977 -149.872202
10.275148 4.129425 -149.871145
10.195833 4.199368 -149.872511
10.178984 4.349816 -149.871454
10.099669 4.419759 -149.872820
10.020354 4.489702 -149.874186
10.003505 4.640150 -149.873129
9.924190 4.710093 -149.874495
9.844875 4.780037 -149.875861
9.828026 4.930484 -149.874804
9.811177 5.080932 -149.873747
9.794328 5.231380 -149.872690
9.777478 5.381828 -149.871633
9.698164 5.451771 -149.872999
9.618849 5.521715 -149.874365
9.539534 5.591658 -149.875731
9.522685 5.742106 -149.874674
9.443370 5.812049 -149.876040
9.364055 5.881992 -149.877406
9.284740 5.951935 -149.878772
9.267891 6.102383 -149.877715
9.188576 6.172326 -149.879081
9.109262 6.242269 -149.880447
9.029947 6.312213 -149.881813
8.950632 6.382156 -149.883179
8.933783 6.532604 -149.882122
8.854468 6.602547 -149.883488
8.775153 6.672490 -149.884854
8.695838 6.742433 -149.886220
8.616524 6.812376 -149.887586
8.537209 6.882320 -149.888952
8.457894 6.952263 -149.890318
8.378579 7.022206 -149.891684
8.299264 7.092149 -149.893050
8.219950 7.162092 -149.894416
8.140635 7.232035 -149.895782
8.061320 7.301978 -149.897148
7.982005 7.371922 -149.898514
7.902690 7.441865 -149.899880
7.823376 7.511808 -149.901246
7.744061 7.581751 -149.902612
7.664746 7.651694 -149.903978
7.522966 7.641133 -149.907767
7.443651 7.711076 -149.909133
7.364336 7.781019 -149.910499
7.285021 7.850962 -149.911865
7.143241 7.840401 -149.915654
7.063926 7.910344 -149.917020
6.984611 7.980287 -149.918386
6.905297 8.050230 -149.919752
6.825982 8.120173 -149.921118
6.746667 8.190116 -149.922484
6.667352 8.260059 -149.923850
6.588037 8.330003 -149.925216
6.446257 8.319441 -149.929005
6.304477 8.308879 -149.932795
6.162696 8.298318 -149.936584
6.020916 8.287756 -149.940373
5.879136 8.277194 -149.944162
5.487493 7.944614 -149.957644
5.408179 8.014557 -149.959010
5.266398 8.003995 -149.962799
5.187083 8.073938 -149.964165
5.107769 8.143882 -149.965531
5.028454 8.213825 -149.966897
4.949139 8.283768 -149.968263
4.869824 8.353711 -149.969629
4.728044 8.343149 -149.973418
4.586264 8.332588 -149.977207
8.326253 7.167693 -149.878367
8.236437 7.289560 -149.877309
8.132777 7.310475 -149.878676
8.029117 7.331390 -149.880042
7.939301 7.453257 -149.878984
7.835641 7.474172 -149.880350
7.731980 7.495087 -149.881716
7.656009 7.717906 -149.878236
7.566193 7.839773 -149.877179
7.490222 8.062592 -149.873699
7.400406 8.184459 -149.872642
7.310590 8.306326 -149.871585
7.206930 8.327241 -149.872951
7.103270 8.348157 -149.874317
6.999609 8.369072 -149.875683
6.895949 8.389987 -149.877049
6.792289 8.410902 -149.878415
6.702473 8.532769 -149.877358
6.598813 8.553684 -149.878724
6.495153 8.574599 -149.880090
6.391493 8.595514 -149.881456
6.287833 8.616430 -149.882822
6.184172 8.637345 -149.884188
6.094357 8.759212 -149.883131
5.990696 8.780127 -149.884497
5.887036 8.801042 -149.885863
5.783376 8.821957 -149.887229
5.679716 8.842872 -149.888595
5.576056 8.863787 -149.889961
5.472396 8.884703 -149.891327
5.368736 8.905618 -149.892693
5.265075 8.926533 -149.894059
5.147571 8.846496 -149.897848
5.043911 8.867411 -149.899214
4.940251 8.888326 -149.900580
4.836590 8.909241 -149.901946
4.732930 8.930157 -149.903312
4.629270 8.951072 -149.904678
4.525610 8.971987 -149.906044
4.408105 8.891950 -149.909833
4.304445 8.912865 -149.911199
4.200785 8.933780 -149.912565
4.097125 8.954695 -149.913931
3.993465 8.975611 -149.915297
3.889805 8.996526 -149.916663
3.772300 8.916489 -149.920452
3.668640 8.937404 -149.921818
3.564980 8.958319 -149.923184
3.447475 8.878282 -149.926973
3.343815 8.899198 -149.928340
3.240155 8.920113 -149.929706
3.136495 8.941028 -149.931072
3.018990 8.860991 -149.934861
2.915330 8.881906 -149.936227
2.811670 8.902821 -149.937593
2.694166 8.822784 -149.941382
2.590505 8.843700 -149.942748
2.486845 8.864615 -149.944114
2.369341 8.784578 -149.947903
2.196459 8.300734 -149.961385
2.092799 8.321649 -149.962751
1.989139 8.342564 -149.964117
1.885479 8.363479 -149.965483
1.781818 8.384394 -149.966849
1.664314 8.304357 -149.970638
1.546809 8.224320 -149.974427
1.415461 8.043332 -149.980639
5.776595 8.733170 -149.913917
5.637878 8.793802 -149.912860
5.537648 8.760085 -149.914226
5.437418 8.726368 -149.915592
5.337189 8.692651 -149.916958
5.121500 8.941982 -149.911055
4.905810 9.191312 -149.905151
4.767094 9.251944 -149.904094
4.628378 9.312576 -149.903037
4.528148 9.278859 -149.904403
4.427918 9.245142 -149.905769
4.289202 9.305774 -149.904712
4.188972 9.272057 -149.906078
4.050255 9.332689 -149.905021
3.950026 9.298972 -149.906387
3.811309 9.359604 -149.905330
3.711079 9.325887 -149.906696
3.610849 9.292170 -149.908062
3.510620 9.258453 -149.909428
3.410390 9.224736 -149.910794
3.271673 9.285369 -149.909737
3.171443 9.251652 -149.911103
3.071213 9.217935 -149.912469
2.970984 9.184218 -149.913835
2.870754 9.150501 -149.915201
2.770524 9.116784 -149.916567
2.670294 9.083067 -149.917933
2.570064 9.049350 -149.919299
2.469834 9.015633 -149.920665
2.331118 9.076265 -149.919608
2.230888 9.042548 -149.920974
2.130658 9.008831 -149.922340
2.030428 8.975114 -149.923706
1.930198 8.941397 -149.925072
1.829968 8.907680 -149.926438
1.729738 8.873963 -149.927804
1.629508 8.840246 -149.929170
1.529278 8.806529 -149.930536
1.429048 8.772812 -149.931902
1.328818 8.739095 -149.933268
1.228588 8.705378 -149.934634
1.128359 8.671661 -149.936000
1.028129 8.637944 -149.937366
0.927899 8.604227 -149.938732
0.827669 8.570510 -149.940098
0.727439 8.536793 -149.941464
0.627209 8.503076 -149.942830
0.526979 8.469359 -149.944196
0.426749 8.435642 -149.945562
0.326519 8.401925 -149.946928
0.226289 8.368208 -149.948294
0.164546 8.240142 -149.952083
0.064316 8.206425 -149.953449
-0.035914 8.172708 -149.954815
-0.136144 8.138991 -149.956181
-0.236374 8.105274 -149.957547
-0.336604 8.071557 -149.958913
-0.436834 8.037840 -149.960279
-0.537064 8.004123 -149.961645
-0.637294 7.970406 -149.963011
-0.737524 7.936689 -149.964377
-0.837754 7.902972 -149.965743
-0.937983 7.869255 -149.967109
-1.038213 7.835538 -149.968476
-1.099957 7.707471 -149.972265
-1.200187 7.673754 -149.973631
-1.300417 7.640037 -149.974997
-1.400647 7.606320 -149.976363
-1.462390 7.478254 -149.980152
-1.562620 7.444537 -149.981518
-1.662850 7.410820 -149.982884
-1.763080 7.377103 -149.984250
-1.824824 7.249037 -149.988039
-1.925053 7.215320 -149.989405
-2.025283 7.181603 -149.990771
-2.125513 7.147886 -149.992137
-2.187257 7.019820 -149.995926
-2.210514 6.797405 -150.002138
-2.272258 6.669339 -150.005928
-2.334001 6.541273 -150.009717
-0.220358 8.711448 -149.950621
-0.370806 8.694599 -149.949564
-0.521253 8.677750 -149.948507
-0.591197 8.598435 -149.949873
-0.741644 8.581586 -149.948816
-0.811588 8.502271 -149.950182
-0.881531 8.422957 -149.951548
-1.031979 8.406107 -149.950491
-1.101922 8.326793 -149.951857
-1.171865 8.247478 -149.953223
-1.322313 8.230629 -149.952166
-1.392256 8.151314 -149.953532
-1.462199 8.072000 -149.954898
-1.532142 7.992685 -149.956264
-1.602085 7.913370 -149.957630
-1.752533 7.896521 -149.956573
-1.822476 7.817206 -149.957939
-1.892419 7.737892 -149.959305
-1.962363 7.658577 -149.960671
-2.032306 7.579262 -149.962037
-2.102249 7.499948 -149.963403
-2.172192 7.420633 -149.964769
-2.242135 7.341318 -149.966135
-2.392583 7.324469 -149.965078
-2.462526 7.245154 -149.966444
-2.532469 7.165840 -149.967810
-2.602413 7.086525 -149.969176
-2.672356 7.007210 -149.970542
-2.742299 6.927896 -149.971908
-2.812242 6.848581 -149.973274
-2.882185 6.769266 -149.974640
-2.952128 6.689952 -149.976006
-3.022071 6.610637 -149.977372
-3.092015 6.531322 -149.978738
-3.161958 6.452008 -149.980104
-3.231901 6.372693 -149.981470
-3.382349 6.355844 -149.980413
-3.452292 6.276529 -149.981779
-3.522235 6.197214 -149.983145
-3.592178 6.117900 -149.984511
-3.662121 6.038585 -149.985877
-3.732065 5.959270 -149.987243
-3.802008 5.879956 -149.988609
-3.871951 5.800641 -149.989975
-3.941894 5.721326 -149.991341
-4.011837 5.642012 -149.992707
-4.081780 5.562697 -149.994073
-4.151724 5.483382 -149.995439
-4.141162 5.341602 -149.999228
-4.211105 5.262287 -150.000594
-4.281048 5.182973 -150.001960
-4.350991 5.103658 -150.003326
-4.420935 5.024343 -150.004692
-4.490878 4.945029 -150.006058
-4.480316 4.803248 -150.009847
-4.550259 4.723934 -150.011213
-4.620203 4.644619 -150.012579
-4.690146 4.565304 -150.013945
-4.760089 4.485990 -150.015311
-4.830032 4.406675 -150.016677
-4.899975 4.327360 -150.018043
-4.969918 4.248045 -150.019409
-5.039862 4.168731 -150.020775
-5.029300 4.026951 -150.024564
-5.099243 3.947636 -150.025930
-5.169186 3.868321 -150.027296
-5.158625 3.726541 -150.031086
-5.148063 3.584761 -150.034875
-4.815483 3.193118 -150.048356
-4.804921 3.051338 -150.052146
-4.794360 2.909558 -150.055935
-4.703294 2.705312 -150.062147
-4.692732 2.563532 -150.065936
-4.762675 2.484217 -150.067302
-4.832619 2.404903 -150.068668
-4.822057 2.263122 -150.072457
-4.811495 2.121342 -150.076246
-4.985784 5.257292 -149.979307
-5.006700 5.153632 -149.980673
-5.128567 5.063816 -149.979616
-5.149482 4.960156 -149.980982
-5.170397 4.856495 -149.982348
-5.191312 4.752835 -149.983714
-5.212227 4.649175 -149.985080
-5.233142 4.545515 -149.986446
-5.254057 4.441855 -149.987812
-5.274973 4.338195 -149.989178
-5.295888 4.234534 -149.990544
-5.417755 4.144719 -149.989487
-5.438670 4.041058 -149.990853
-5.459585 3.937398 -149.992219
-5.480500 3.833738 -149.993585
-5.501415 3.730078 -149.994951
-5.522330 3.626418 -149.996317
-5.543246 3.522758 -149.997683
-5.564161 3.419098 -149.999049
-5.585076 3.315437 -150.000415
-5.605991 3.211777 -150.001781
-5.626906 3.108117 -150.003147
-5.647821 3.004457 -150.004513
-5.668736 2.900797 -150.005879
-5.689651 2.797137 -150.007245
-5.710567 2.693476 -150.008612
-5.731482 2.589816 -150.009978
-5.651445 2.472312 -150.013767
-5.672360 2.368652 -150.015133
-5.693275 2.264991 -150.016499
-5.714190 2.161331 -150.017865
-5.735105 2.057671 -150.019231
-5.756021 1.954011 -150.020597
-5.776936 1.850351 -150.021963
-5.797851 1.746691 -150.023329
-5.717814 1.629186 -150.027118
-5.738729 1.525526 -150.028484
-5.658692 1.408022 -150.032273
-5.679608 1.304361 -150.033639
-5.700523 1.200701 -150.035005
-5.721438 1.097041 -150.036371
-5.742353 0.993381 -150.037737
-5.763268 0.889721 -150.039103
-5.784183 0.786061 -150.040469
-5.704146 0.668556 -150.044258
-5.725062 0.564896 -150.045624
-5.645025 0.447391 -150.049413
-5.564988 0.329887 -150.053203
-5.585903 0.226227 -150.054569
-5.606818 0.122567 -150.055935
-5.627733 0.018906 -150.057301
-5.749600 -0.070909 -150.056244
-5.770516 -0.174570 -150.057610
-5.791431 -0.278230 -150.058976
-5.711394 -0.395734 -150.062765
-5.732309 -0.499394 -150.064131
-5.753224 -0.603054 -150.065497
-5.774139 -0.706715 -150.066863
-5.694103 -0.824219 -150.070652
-5.715018 -0.927879 -150.072018
-5.735933 -1.031539 -150.073384
-5.655896 -1.149044 -150.077173
-5.575859 -1.266548 -150.080962
-5.495822 -1.384053 -150.084751
-5.516738 -1.487713 -150.086117
-5.436701 -1.605218 -150.089907
-5.457616 -1.708878 -150.091273
-5.478531 -1.812538 -150.092639
-5.398494 -1.930042 -150.096428
-5.419409 -2.033703 -150.097794
-5.339373 -2.151207 -150.101583
-5.259336 -2.268711 -150.105372
-5.179299 -2.386216 -150.109161
-6.400188 0.117205 -150.002839
-6.366471 0.016975 -150.004205
-6.332754 -0.083255 -150.005571
-6.393386 -0.221972 -150.004513
-6.359669 -0.322201 -150.005879
-6.420301 -0.460918 -150.004822
-6.386584 -0.561148 -150.006188
-6.352867 -0.661378 -150.007554
-6.413499 -0.800094 -150.006497
-6.379782 -0.900324 -150.007863
-6.346065 -1.000554 -150.009229
-6.312348 -1.100784 -150.010595
-6.278631 -1.201014 -150.011961
-6.244914 -1.301244 -150.013327
-6.211197 -1.401473 -150.014693
-6.177480 -1.501703 -150.016059
-6.238112 -1.640420 -150.015002
-6.204395 -1.740650 -150.016368
-6.170678 -1.840879 -150.017734
-6.136961 -1.941109 -150.019100
-6.103244 -2.041339 -150.020466
-6.069527 -2.141569 -150.021832
-6.035810 -2.241799 -150.023198
-6.002093 -2.342029 -150.024564
-5.968376 -2.442259 -150.025930
-5.934659 -2.542489 -150.027296
-5.900942 -2.642719 -150.028662
-5.867225 -2.742949 -150.030028
-5.833508 -2.843179 -150.031394
-5.799791 -2.943409 -150.032761
-5.671725 -3.005152 -150.036550
-5.638008 -3.105382 -150.037916
-5.604291 -3.205612 -150.039282
-5.570574 -3.305842 -150.040648
-5.536857 -3.406072 -150.042014
-5.597489 -3.544788 -150.040957
-5.469423 -3.606532 -150.044746
-5.435706 -3.706762 -150.046112
-5.401989 -3.806992 -150.047478
-5.368272 -3.907222 -150.048844
-5.334555 -4.007451 -150.050210
-5.300838 -4.107681 -150.051576
-5.267121 -4.207911 -150.052942
-5.139055 -4.269655 -150.056731
-5.105338 -4.369885 -150.058097
-5.071621 -4.470115 -150.059463
-5.037904 -4.570345 -150.060829
-5.004187 -4.670575 -150.062195
-4.970470 -4.770804 -150.063561
-4.936753 -4.871034 -150.064927
-4.903036 -4.971264 -150.066293
-4.869319 -5.071494 -150.067659
-4.835602 -5.171724 -150.069025
-4.707536 -5.233468 -150.072814
-4.673819 -5.333698 -150.074180
-4.640102 -5.433928 -150.075546
-4.606385 -5.534157 -150.076912
-4.572668 -5.634387 -150.078278
-4.538951 -5.734617 -150.079644
-4.410885 -5.796361 -150.083433
-4.377168 -5.896591 -150.084800
-4.343451 -5.996821 -150.086166
-4.215385 -6.058564 -150.089955
-3.536269 -7.495847 -150.012806
-3.519420 -7.646295 -150.011749
-3.502571 -7.796743 -150.010692
-3.485722 -7.947191 -150.009635
-3.406407 -8.017134 -150.011001
-3.327093 -8.087077 -150.012367
-3.310243 -8.237525 -150.011309
-3.230929 -8.307468 -150.012675
-3.151614 -8.377411 -150.014041
-3.072299 -8.447354 -150.015407
-3.055450 -8.597802 -150.014350
-2.976136 -8.667745 -150.015716
-2.896821 -8.737688 -150.017082
-2.817506 -8.807632 -150.018448
-2.738191 -8.877575 -150.019814
-2.658877 -8.947518 -150.021180
-2.579562 -9.017461 -150.022546
-2.500247 -9.087404 -150.023912
-2.420933 -9.157347 -150.025279
-2.341618 -9.227290 -150.026645
-2.262303 -9.297234 -150.028011
-2.182989 -9.367177 -150.029377
-2.103674 -9.437120 -150.030743
-2.024359 -9.507063 -150.032109
-1.945045 -9.577006 -150.033475
-1.865730 -9.646949 -150.034841
-1.786415 -9.716893 -150.036207
-1.707101 -9.786836 -150.037573
-1.627786 -9.856779 -150.038939
-1.548471 -9.926722 -150.040305
-1.469156 -9.996665 -150.041671
-1.389842 -10.066608 -150.043037
-1.310527 -10.136552 -150.044403
-1.168747 -10.125990 -150.048192
-1.089432 -10.195933 -150.049558
-1.010118 -10.265876 -150.050924
-0.930803 -10.335819 -150.052290
-0.851488 -10.405763 -150.053656
-0.772173 -10.475706 -150.055022
-0.692859 -10.545649 -150.056388
-0.613544 -10.615592 -150.057754
-0.534229 -10.685535 -150.059120
-0.392449 -10.674974 -150.062909
-0.313134 -10.744917 -150.064275
-0.233820 -10.814860 -150.065641
-0.092040 -10.804299 -150.069430
-0.012725 -10.874242 -150.070796
0.066590 -10.944185 -150.072162
0.208370 -10.933623 -150.075951
0.287685 -11.003566 -150.077318
0.429465 -10.993005 -150.081107
0.571245 -10.982443 -150.084896
0.713025 -10.971882 -150.088685
-2.811670 -8.902821 -149.937593
-2.721854 -9.024688 -149.936536
-2.632038 -9.146555 -149.935479
-2.542223 -9.268422 -149.934421
-2.438562 -9.289338 -149.935787
-2.348747 -9.411205 -149.934730
-2.245086 -9.432120 -149.936096
-2.155271 -9.553987 -149.935039
-2.065455 -9.675854 -149.933982
-1.961795 -9.696769 -149.935348
-1.871979 -9.818636 -149.934291
-1.768319 -9.839551 -149.935657
-1.678503 -9.961418 -149.934600
-1.574843 -9.982333 -149.935966
-1.485027 -10.104200 -149.934909
-1.381367 -10.125115 -149.936275
-1.291551 -10.246982 -149.935218
-1.215579 -10.469801 -149.931738
-1.125763 -10.591668 -149.930680
-1.035948 -10.713536 -149.929623
-0.932287 -10.734451 -149.930989
-0.828627 -10.755366 -149.932355
-0.738811 -10.877233 -149.931298
-0.635151 -10.898148 -149.932664
-0.545335 -11.020015 -149.931607
-0.441675 -11.040930 -149.932973
-0.338015 -11.061845 -149.934339
-0.234355 -11.082760 -149.935705
-0.130695 -11.103676 -149.937071
-0.027035 -11.124591 -149.938437
0.062781 -11.246458 -149.937380
0.166441 -11.267373 -149.938746
0.270101 -11.288288 -149.940112
0.373762 -11.309203 -149.941478
0.477422 -11.330118 -149.942844
0.581082 -11.351033 -149.944210
0.684742 -11.371949 -149.945576
0.788402 -11.392864 -149.946942
0.892062 -11.413779 -149.948308
0.995723 -11.434694 -149.949674
1.099383 -11.455609 -149.951040
1.203043 -11.476524 -149.952406
1.306703 -11.497439 -149.953772
1.410363 -11.518354 -149.955138
1.514023 -11.539270 -149.956504
1.617684 -11.560185 -149.957870
1.721344 -11.581100 -149.959236
1.825004 -11.602015 -149.960602
1.928664 -11.622930 -149.961968
2.032324 -11.643845 -149.963334
2.135984 -11.664760 -149.964700
2.239644 -11.685675 -149.966066
2.343305 -11.706591 -149.967432
2.460809 -11.626554 -149.971222
2.564469 -11.647469 -149.972588
2.668129 -11.668384 -149.973954
2.771790 -11.689299 -149.975320
2.861605 -11.811166 -149.974263
2.965266 -11.832081 -149.975629
3.068926 -11.852997 -149.976995
3.172586 -11.873912 -149.978361
3.276246 -11.894827 -149.979727
3.393751 -11.814790 -149.983516
3.497411 -11.835705 -149.984882
3.601071 -11.856620 -149.986248
3.704731 -11.877535 -149.987614
3.808391 -11.898451 -149.988980
3.912051 -11.919366 -149.990346
4.015712 -11.940281 -149.991712
4.133216 -11.860244 -149.995501
4.236876 -11.881159 -149.996867
4.340536 -11.902074 -149.998233
4.444196 -11.922989 -149.999599
4.561701 -11.842953 -150.003388
4.665361 -11.863868 -150.004754
4.769021 -11.884783 -150.006120
4.872681 -11.905698 -150.007486
5.031719 -11.522805 -150.018545
5.149223 -11.442769 -150.022334
5.266728 -11.362732 -150.026123
5.384232 -11.282695 -150.029912
5.501737 -11.202658 -150.033701
5.619241 -11.122622 -150.037490
5.750590 -10.941633 -150.043703
5.881939 -10.760644 -150.049915
5.985599 -10.781559 -150.051281
6.103104 -10.701523 -150.055070
6.206764 -10.722438 -150.056436
6.324268 -10.642401 -150.060225
6.427928 -10.663316 -150.061591
6.545433 -10.583279 -150.065380
6.662937 -10.503242 -150.069170
6.780442 -10.423206 -150.072959
6.884102 -10.444121 -150.074325
7.001607 -10.364084 -150.078114
7.119111 -10.284047 -150.081903
7.236616 -10.204010 -150.085692
7.367964 -10.023022 -150.091904
7.485469 -9.942985 -150.095694
7.630662 -9.661044 -150.104329
7.748166 -9.581008 -150.108118
7.851827 -9.601923 -150.109484
7.955487 -9.622838 -150.110850
8.072991 -9.542801 -150.114639
8.190496 -9.462764 -150.118428
-0.320145 -10.652992 -149.885114
-0.142942 -10.807973 -149.881634
0.034261 -10.962954 -149.878154
0.172977 -11.023587 -149.877097
0.311693 -11.084219 -149.876040
0.450410 -11.144851 -149.874983
0.550640 -11.111134 -149.876349
0.689356 -11.171766 -149.875292
0.866558 -11.326747 -149.871811
1.005275 -11.387379 -149.870754
1.143991 -11.448011 -149.869697
1.244221 -11.414294 -149.871063
1.382937 -11.474927 -149.870006
1.483167 -11.441210 -149.871372
1.583397 -11.407493 -149.872738
1.722113 -11.468125 -149.871681
1.822343 -11.434408 -149.873047
1.961060 -11.495040 -149.871990
2.099776 -11.555672 -149.870933
2.200006 -11.521955 -149.872299
2.338722 -11.582587 -149.871242
2.669870 -12.114965 -149.858069
2.770100 -12.081248 -149.859435
2.908817 -12.141880 -149.858378
3.009047 -12.108163 -149.859744
3.109276 -12.074446 -149.861110
3.209506 -12.040729 -149.862476
3.309736 -12.007012 -149.863842
3.448453 -12.067644 -149.862785
3.548683 -12.033927 -149.864151
3.648912 -12.000210 -149.865517
3.749142 -11.966493 -149.866883
3.849372 -11.932776 -149.868249
3.949602 -11.899059 -149.869615
4.049832 -11.865342 -149.870981
4.150062 -11.831625 -149.872347
4.250292 -11.797908 -149.873713
4.350522 -11.764191 -149.875079
4.450752 -11.730474 -149.876445
4.589468 -11.791106 -149.875388
4.689698 -11.757389 -149.876754
4.789928 -11.723672 -149.878120
4.890158 -11.689955 -149.879486
4.990388 -11.656238 -149.880852
5.090618 -11.622521 -149.882218
5.190848 -11.588804 -149.883584
5.291078 -11.555087 -149.884950
5.391307 -11.521370 -149.886316
5.491537 -11.487653 -149.887682
5.591767 -11.453936 -149.889048
5.691997 -11.420219 -149.890414
5.792227 -11.386502 -149.891780
5.892457 -11.352785 -149.893146
5.992687 -11.319068 -149.894512
6.092917 -11.285351 -149.895878
6.193147 -11.251634 -149.897244
6.293377 -11.217917 -149.898610
6.393607 -11.184200 -149.899976
6.493837 -11.150483 -149.901342
6.594067 -11.116766 -149.902708
6.694296 -11.083049 -149.904074
6.756040 -10.954983 -149.907863
6.856270 -10.921266 -149.909229
6.956500 -10.887549 -149.910595
7.056730 -10.853832 -149.911961
7.156960 -10.820115 -149.913327
7.257190 -10.786398 -149.914693
7.357420 -10.752681 -149.916059
7.457649 -10.718964 -149.917425
7.557879 -10.685247 -149.918791
7.658109 -10.651530 -149.920157
7.758339 -10.617813 -149.921523
7.858569 -10.584096 -149.922889
7.920313 -10.456030 -149.926679
8.020543 -10.422313 -149.928045
8.120773 -10.388596 -149.929411
8.221002 -10.354879 -149.930777
8.321232 -10.321162 -149.932143
8.382976 -10.193096 -149.935932
8.483206 -10.159379 -149.937298
8.544949 -10.031313 -149.941087
8.645179 -9.997596 -149.942453
8.706923 -9.869529 -149.946242
8.768666 -9.741463 -149.950031
8.868896 -9.707746 -149.951397
8.930640 -9.579680 -149.955186
9.030870 -9.545963 -149.956552
9.092613 -9.417897 -149.960342
9.192843 -9.384180 -149.961708
9.254587 -9.256114 -149.965497
9.316330 -9.128048 -149.969286
9.378074 -8.999982 -149.973075
9.478304 -8.966265 -149.974441
9.540047 -8.838199 -149.978230
9.601791 -8.710133 -149.982019
9.663535 -8.582066 -149.985808
9.725278 -8.454000 -149.989598
9.825508 -8.420283 -149.990964
9.887252 -8.292217 -149.994753
9.948995 -8.164151 -149.998542
10.010739 -8.036085 -150.002331
10.072482 -7.908019 -150.006120
10.095739 -7.685604 -150.012332
10.118997 -7.463188 -150.018545
10.180740 -7.335122 -150.022334
10.280970 -7.301405 -150.023700
10.342714 -7.173339 -150.027489
10.288998 -6.762226 -150.038548
10.350742 -6.634160 -150.042337
10.412485 -6.506094 -150.046126
