ply
format ascii 1.0
element vertex 1224
property float x
property float y
property float z
element face 0
property list uchar uint vertex_indices
end_header
2.811057 -11.923902 -148.841402
2.961504 -11.907053 -148.840345
3.111952 -11.890204 -148.839288
3.584419 -12.123217 -148.828538
3.734867 -12.106367 -148.827481
3.885315 -12.089518 -148.826424
4.035762 -12.072669 -148.825367
4.186210 -12.055820 -148.824310
4.336658 -12.038971 -148.823253
4.487106 -12.022122 -148.822195
4.637554 -12.005273 -148.821138
4.788002 -11.988423 -148.820081
4.938449 -11.971574 -148.819024
5.008393 -11.892260 -148.820390
5.158840 -11.875410 -148.819333
5.309288 -11.858561 -148.818276
5.459736 -11.841712 -148.817219
5.610184 -11.824863 -148.816162
5.760632 -11.808014 -148.815105
5.911080 -11.791165 -148.814047
6.061527 -11.774316 -148.812990
6.131471 -11.695001 -148.814356
6.281918 -11.678152 -148.813299
6.351862 -11.598837 -148.814665
6.502309 -11.581988 -148.813608
6.572253 -11.502673 -148.814974
6.722700 -11.485824 -148.813917
6.873148 -11.468975 -148.812860
6.943091 -11.389660 -148.814226
7.093539 -11.372811 -148.813169
7.163482 -11.293496 -148.814535
7.313930 -11.276647 -148.813478
7.383873 -11.197333 -148.814844
7.453817 -11.118018 -148.816210
7.604264 -11.101169 -148.815153
7.674208 -11.021854 -148.816519
7.744151 -10.942539 -148.817885
7.894599 -10.925690 -148.816828
7.964542 -10.846376 -148.818194
8.034485 -10.767061 -148.819560
8.104428 -10.687746 -148.820926
8.254876 -10.670897 -148.819869
8.324819 -10.591582 -148.821235
8.394762 -10.512268 -148.822601
8.545210 -10.495419 -148.821544
8.615153 -10.416104 -148.822910
8.685096 -10.336789 -148.824276
8.755040 -10.257475 -148.825642
8.905487 -10.240625 -148.824584
8.975431 -10.161311 -148.825950
9.045374 -10.081996 -148.827317
9.115317 -10.002681 -148.828683
9.185260 -9.923367 -148.830049
9.255203 -9.844052 -148.831415
9.325146 -9.764737 -148.832781
9.395089 -9.685423 -148.834147
9.465033 -9.606108 -148.835513
9.615480 -9.589259 -148.834455
9.685424 -9.509944 -148.835822
9.755367 -9.430629 -148.837188
9.825310 -9.351315 -148.838554
9.895253 -9.272000 -148.839920
9.965196 -9.192685 -148.841286
10.035139 -9.113371 -148.842652
10.105083 -9.034056 -148.844018
10.175026 -8.954741 -148.845384
10.244969 -8.875427 -148.846750
10.314912 -8.796112 -148.848116
10.304351 -8.654332 -148.851905
10.374294 -8.575017 -148.853271
10.444237 -8.495702 -148.854637
10.514180 -8.416388 -148.856003
10.584123 -8.337073 -148.857369
10.654066 -8.257758 -148.858735
10.643505 -8.115978 -148.862524
10.713448 -8.036663 -148.863890
10.783391 -7.957349 -148.865256
10.853334 -7.878034 -148.866622
10.842773 -7.736254 -148.870411
10.912716 -7.656939 -148.871777
10.982659 -7.577624 -148.873143
11.052602 -7.498310 -148.874509
11.042041 -7.356529 -148.878298
11.111984 -7.277215 -148.879664
11.101422 -7.135435 -148.883454
11.090861 -6.993654 -148.887243
11.080299 -6.851874 -148.891032
11.150242 -6.772559 -148.892398
11.220186 -6.693245 -148.893764
11.209624 -6.551464 -148.897553
11.279567 -6.472150 -148.898919
11.269006 -6.330370 -148.902708
11.258444 -6.188589 -148.906497
11.328387 -6.109275 -148.907863
11.398330 -6.029960 -148.909229
11.387769 -5.888180 -148.913018
11.377207 -5.746400 -148.916808
11.366646 -5.604619 -148.920597
11.436589 -5.525305 -148.921963
11.426027 -5.383524 -148.925752
11.334961 -5.179279 -148.931964
11.324400 -5.037498 -148.935753
11.313838 -4.895718 -148.939542
11.303277 -4.753938 -148.943332
11.212211 -4.549692 -148.949544
11.201649 -4.407912 -148.953333
11.191087 -4.266132 -148.957122
11.180526 -4.124351 -148.960911
11.169964 -3.982571 -148.964700
11.159403 -3.840791 -148.968490
11.068337 -3.636545 -148.974702
11.057775 -3.494765 -148.978491
11.047214 -3.352985 -148.982280
11.036652 -3.211205 -148.986069
11.026091 -3.069424 -148.989858
11.015529 -2.927644 -148.993648
11.004968 -2.785864 -148.997437
10.913901 -2.581618 -149.003649
10.822835 -2.377372 -149.009861
10.731769 -2.173127 -149.016073
8.343706 -10.724625 -148.810910
8.566525 -10.648654 -148.807430
8.587440 -10.544994 -148.808796
8.709307 -10.455178 -148.807739
8.831174 -10.365362 -148.806682
8.852089 -10.261702 -148.808048
8.973956 -10.171886 -148.806991
9.095823 -10.082070 -148.805934
9.116738 -9.978410 -148.807300
9.238605 -9.888594 -148.806243
9.360472 -9.798778 -148.805185
9.583291 -9.722807 -148.801705
9.705158 -9.632991 -148.800648
9.827025 -9.543175 -148.799591
10.049844 -9.467204 -148.796111
10.070759 -9.363543 -148.797477
10.192626 -9.273728 -148.796420
10.213541 -9.170068 -148.797786
10.335409 -9.080252 -148.796729
10.356324 -8.976592 -148.798095
10.478191 -8.886776 -148.797037
10.499106 -8.783116 -148.798404
10.620973 -8.693300 -148.797346
10.742840 -8.603484 -148.796289
10.763755 -8.499824 -148.797655
10.784670 -8.396164 -148.799021
10.805585 -8.292503 -148.800387
10.826500 -8.188843 -148.801753
10.948367 -8.099027 -148.800696
10.969283 -7.995367 -148.802062
11.091150 -7.905551 -148.801005
11.112065 -7.801891 -148.802371
11.132980 -7.698231 -148.803737
11.153895 -7.594571 -148.805103
11.174810 -7.490911 -148.806469
11.195725 -7.387251 -148.807835
11.317592 -7.297435 -148.806778
11.338507 -7.193775 -148.808144
11.359423 -7.090114 -148.809510
11.380338 -6.986454 -148.810876
11.401253 -6.882794 -148.812242
11.422168 -6.779134 -148.813608
11.544035 -6.689318 -148.812551
11.564950 -6.585658 -148.813917
11.585865 -6.481998 -148.815283
11.606780 -6.378338 -148.816649
11.627696 -6.274677 -148.818015
11.648611 -6.171017 -148.819381
11.669526 -6.067357 -148.820747
11.690441 -5.963697 -148.822113
11.711356 -5.860037 -148.823479
11.732271 -5.756377 -148.824845
11.652234 -5.638872 -148.828634
11.673150 -5.535212 -148.830000
11.694065 -5.431552 -148.831366
11.614028 -5.314047 -148.835156
11.634943 -5.210387 -148.836522
11.554906 -5.092883 -148.840311
11.575821 -4.989223 -148.841677
11.596737 -4.885562 -148.843043
11.617652 -4.781902 -148.844409
11.638567 -4.678242 -148.845775
11.659482 -4.574582 -148.847141
11.579445 -4.457077 -148.850930
11.600360 -4.353417 -148.852296
11.520324 -4.235913 -148.856085
11.541239 -4.132253 -148.857451
11.562154 -4.028593 -148.858817
11.482117 -3.911088 -148.862606
11.503032 -3.807428 -148.863972
11.523947 -3.703768 -148.865338
11.544862 -3.600108 -148.866704
11.464826 -3.482603 -148.870493
11.485741 -3.378943 -148.871859
11.405704 -3.261438 -148.875649
11.426619 -3.157778 -148.877015
11.346582 -3.040274 -148.880804
11.266546 -2.922769 -148.884593
11.287461 -2.819109 -148.885959
11.308376 -2.715449 -148.887325
11.228339 -2.597944 -148.891114
11.249254 -2.494284 -148.892480
11.270169 -2.390624 -148.893846
11.291084 -2.286964 -148.895212
11.312000 -2.183304 -148.896578
11.231963 -2.065799 -148.900367
11.252878 -1.962139 -148.901733
11.172841 -1.844635 -148.905522
11.193756 -1.740975 -148.906888
11.113719 -1.623470 -148.910678
11.134635 -1.519810 -148.912044
11.155550 -1.416150 -148.913410
11.075513 -1.298645 -148.917199
11.096428 -1.194985 -148.918565
11.117343 -1.091325 -148.919931
11.037306 -0.973820 -148.923720
11.058222 -0.870160 -148.925086
11.079137 -0.766500 -148.926452
10.999100 -0.648996 -148.930241
11.020015 -0.545335 -148.931607
11.040930 -0.441675 -148.932973
10.960893 -0.324171 -148.936762
10.880857 -0.206666 -148.940551
10.800820 -0.089162 -148.944341
10.821735 0.014498 -148.945707
10.842650 0.118158 -148.947073
10.762613 0.235663 -148.950862
10.783528 0.339323 -148.952228
10.804444 0.442983 -148.953594
10.724407 0.560488 -148.957383
10.644370 0.677992 -148.961172
10.665285 0.781652 -148.962538
10.585248 0.899157 -148.966327
10.606163 1.002817 -148.967693
10.526127 1.120322 -148.971482
10.547042 1.223982 -148.972848
10.467005 1.341486 -148.976638
10.487920 1.445146 -148.978004
10.306931 1.576495 -148.984216
10.226895 1.694000 -148.988005
10.247810 1.797660 -148.989371
10.167773 1.915164 -148.993160
10.087736 2.032669 -148.996949
10.108651 2.136329 -148.998315
10.028615 2.253833 -149.002104
10.049530 2.357494 -149.003470
9.969493 2.474998 -149.007260
9.889456 2.592503 -149.011049
9.910371 2.696163 -149.012415
9.830335 2.813667 -149.016204
9.851250 2.917327 -149.017570
9.771213 3.034832 -149.021359
9.691176 3.152336 -149.025148
9.611139 3.269841 -149.028937
9.531103 3.387345 -149.032726
9.451066 3.504850 -149.036516
9.371029 3.622354 -149.040305
9.391944 3.726014 -149.041671
9.311907 3.843519 -149.045460
9.332822 3.947179 -149.046826
9.252786 4.064684 -149.050615
9.071797 4.196032 -149.056827
8.991760 4.313537 -149.060616
8.911723 4.431041 -149.064406
8.831687 4.548546 -149.068195
8.751650 4.666050 -149.071984
8.671613 4.783555 -149.075773
8.490624 4.914904 -149.081985
11.644974 -7.096466 -148.828133
11.705606 -6.957750 -148.827076
11.766238 -6.819034 -148.826019
11.732521 -6.718804 -148.827385
11.793153 -6.580087 -148.826328
11.759436 -6.479858 -148.827694
12.103115 -6.225682 -148.819367
12.163748 -6.086966 -148.818310
12.224380 -5.948250 -148.817253
12.190663 -5.848020 -148.818619
12.156946 -5.747790 -148.819985
12.217578 -5.609073 -148.818928
12.183861 -5.508843 -148.820294
12.244493 -5.370127 -148.819237
12.210776 -5.269897 -148.820603
12.177059 -5.169667 -148.821969
12.237691 -5.030951 -148.820912
12.203974 -4.930721 -148.822278
12.170257 -4.830491 -148.823644
12.136540 -4.730261 -148.825010
12.102823 -4.630031 -148.826376
12.163455 -4.491315 -148.825319
12.129738 -4.391085 -148.826685
12.096021 -4.290855 -148.828051
12.062304 -4.190625 -148.829417
11.934238 -4.128882 -148.833206
11.900521 -4.028652 -148.834572
11.866804 -3.928422 -148.835938
11.927436 -3.789706 -148.834881
11.893719 -3.689476 -148.836247
11.954351 -3.550759 -148.835190
12.014983 -3.412043 -148.834133
11.981266 -3.311813 -148.835499
11.947549 -3.211583 -148.836865
11.913832 -3.111353 -148.838231
11.974464 -2.972637 -148.837173
11.940747 -2.872407 -148.838540
11.907030 -2.772177 -148.839906
11.873313 -2.671947 -148.841272
11.839596 -2.571717 -148.842638
11.900229 -2.433001 -148.841580
11.866512 -2.332771 -148.842946
11.832795 -2.232541 -148.844312
11.799078 -2.132311 -148.845678
11.765361 -2.032081 -148.847045
11.731644 -1.931851 -148.848411
11.697927 -1.831621 -148.849777
11.758559 -1.692905 -148.848719
11.724842 -1.592675 -148.850085
11.691125 -1.492445 -148.851451
11.657408 -1.392215 -148.852817
11.718040 -1.253499 -148.851760
11.684323 -1.153269 -148.853126
11.650606 -1.053039 -148.854492
11.616889 -0.952809 -148.855858
11.583172 -0.852579 -148.857224
11.549455 -0.752349 -148.858590
11.610087 -0.613633 -148.857533
11.576370 -0.513403 -148.858899
11.542653 -0.413173 -148.860265
11.508936 -0.312943 -148.861631
11.475219 -0.212713 -148.862997
11.441502 -0.112484 -148.864363
11.407785 -0.012254 -148.865729
11.374068 0.087976 -148.867095
11.340351 0.188206 -148.868461
11.306634 0.288436 -148.869827
11.272917 0.388666 -148.871194
11.239200 0.488896 -148.872560
11.205483 0.589126 -148.873926
11.266115 0.727842 -148.872868
11.232398 0.828072 -148.874234
11.198681 0.928302 -148.875600
11.164964 1.028532 -148.876966
11.131247 1.128762 -148.878332
11.097530 1.228992 -148.879699
11.063813 1.329222 -148.881065
11.030096 1.429452 -148.882431
11.090728 1.568168 -148.881373
11.057011 1.668398 -148.882739
11.023294 1.768628 -148.884105
10.989577 1.868858 -148.885471
10.955860 1.969088 -148.886837
10.922143 2.069318 -148.888204
10.888426 2.169547 -148.889570
10.854709 2.269777 -148.890936
10.820992 2.370007 -148.892302
10.787275 2.470237 -148.893668
10.753558 2.570467 -148.895034
10.719841 2.670697 -148.896400
10.591775 2.732441 -148.900189
10.558058 2.832671 -148.901555
10.524341 2.932900 -148.902921
10.490624 3.033130 -148.904287
10.456907 3.133360 -148.905653
10.328841 3.195104 -148.909442
10.295124 3.295334 -148.910808
10.261407 3.395564 -148.912174
10.227690 3.495794 -148.913540
10.193973 3.596024 -148.914906
10.160256 3.696253 -148.916272
10.126539 3.796483 -148.917638
10.092822 3.896713 -148.919004
10.059105 3.996943 -148.920370
10.025388 4.097173 -148.921736
9.991671 4.197403 -148.923102
9.957954 4.297633 -148.924468
9.924237 4.397863 -148.925834
9.890520 4.498093 -148.927200
9.856803 4.598323 -148.928566
9.728737 4.660066 -148.932355
9.695020 4.760296 -148.933721
9.661303 4.860526 -148.935087
9.533237 4.922270 -148.938876
9.499520 5.022500 -148.940243
9.371454 5.084243 -148.944032
9.337737 5.184473 -148.945398
9.304020 5.284703 -148.946764
9.175954 5.346447 -148.950553
9.047887 5.408190 -148.954342
9.014170 5.508420 -148.955708
8.886104 5.570164 -148.959497
8.852387 5.670394 -148.960863
8.724321 5.732137 -148.964652
8.690604 5.832367 -148.966018
8.468189 5.855624 -148.972231
8.245774 5.878881 -148.978443
8.117708 5.940625 -148.982232
7.989641 6.002368 -148.986021
7.861575 6.064112 -148.989810
7.733509 6.125856 -148.993599
7.605443 6.187599 -148.997389
7.571726 6.287829 -148.998755
7.538009 6.388059 -149.000121
7.409943 6.449802 -149.003910
7.376226 6.550032 -149.005276
7.342509 6.650262 -149.006642
7.214443 6.712006 -149.010431
7.180726 6.812236 -149.011797
7.052660 6.873979 -149.015586
7.018943 6.974209 -149.016952
6.985226 7.074439 -149.018318
6.857160 7.136183 -149.022107
6.729094 7.197926 -149.025896
6.412329 7.182697 -149.034532
11.405281 0.421034 -148.878627
11.450897 0.651987 -148.875147
11.434048 0.802435 -148.874090
11.417199 0.952883 -148.873033
11.400349 1.103331 -148.871976
11.383500 1.253779 -148.870919
11.304185 1.323722 -148.872285
11.287336 1.474170 -148.871228
11.208021 1.544113 -148.872594
11.191172 1.694561 -148.871537
11.174323 1.845009 -148.870479
11.157474 1.995457 -148.869422
11.078159 2.065400 -148.870788
10.998844 2.135343 -148.872154
10.919529 2.205286 -148.873520
10.840214 2.275230 -148.874886
10.760900 2.345173 -148.876252
10.681585 2.415116 -148.877618
10.602270 2.485059 -148.878984
10.522955 2.555002 -148.880350
10.506106 2.705450 -148.879293
10.426791 2.775393 -148.880659
10.409942 2.925841 -148.879602
10.330627 2.995784 -148.880968
10.313778 3.146232 -148.879911
10.359394 3.377185 -148.876431
10.342545 3.527633 -148.875374
10.325696 3.678081 -148.874317
10.308846 3.828529 -148.873260
10.229532 3.898472 -148.874626
10.212682 4.048920 -148.873568
10.133368 4.118863 -148.874935
10.116518 4.269311 -148.873877
10.099669 4.419759 -148.872820
10.082820 4.570207 -148.871763
10.065971 4.720655 -148.870706
9.986656 4.790598 -148.872072
9.969806 4.941046 -148.871015
9.952957 5.091494 -148.869958
9.873642 5.161437 -148.871324
9.856793 5.311885 -148.870267
9.777478 5.381828 -148.871633
9.698164 5.451771 -148.872999
9.681314 5.602219 -148.871942
9.602000 5.672163 -148.873308
9.522685 5.742106 -148.874674
9.443370 5.812049 -148.876040
9.364055 5.881992 -148.877406
9.284740 5.951935 -148.878772
9.205426 6.021878 -148.880138
9.126111 6.091822 -148.881504
9.109262 6.242269 -148.880447
9.029947 6.312213 -148.881813
8.950632 6.382156 -148.883179
8.871317 6.452099 -148.884545
8.792002 6.522042 -148.885911
8.712688 6.591985 -148.887277
8.633373 6.661928 -148.888643
8.616524 6.812376 -148.887586
8.537209 6.882320 -148.888952
8.457894 6.952263 -148.890318
8.378579 7.022206 -148.891684
8.299264 7.092149 -148.893050
8.219950 7.162092 -148.894416
8.140635 7.232035 -148.895782
7.998854 7.221474 -148.899571
7.919540 7.291417 -148.900937
7.840225 7.361360 -148.902303
7.760910 7.431303 -148.903669
7.681595 7.501246 -148.905035
7.602280 7.571189 -148.906401
7.460500 7.560628 -148.910190
7.381185 7.630571 -148.911556
7.301871 7.700514 -148.912922
7.222556 7.770457 -148.914288
7.143241 7.840401 -148.915654
7.063926 7.910344 -148.917020
6.984611 7.980287 -148.918386
6.905297 8.050230 -148.919752
6.825982 8.120173 -148.921118
6.684202 8.109612 -148.924907
6.604887 8.179555 -148.926273
6.463106 8.168993 -148.930063
6.383792 8.238936 -148.931429
6.304477 8.308879 -148.932795
6.225162 8.378823 -148.934161
6.083382 8.368261 -148.937950
6.004067 8.438204 -148.939316
5.862287 8.427642 -148.943105
5.720506 8.417081 -148.946894
5.391329 8.165005 -148.957953
5.249549 8.154443 -148.961742
5.107769 8.143882 -148.965531
5.028454 8.213825 -148.966897
4.886674 8.203263 -148.970686
4.744893 8.192701 -148.974475
4.603113 8.182140 -148.978264
4.398867 8.091073 -148.984477
4.194621 8.000007 -148.990689
4.052841 7.989445 -148.994478
3.973526 8.059389 -148.995844
3.831746 8.048827 -148.999633
3.752431 8.118770 -149.000999
3.610651 8.108208 -149.004788
3.468870 8.097647 -149.008577
3.389555 8.167590 -149.009943
3.247775 8.157028 -149.013733
3.105995 8.146467 -149.017522
8.118932 7.209523 -148.881099
8.029117 7.331390 -148.880042
7.939301 7.453257 -148.878984
7.849485 7.575124 -148.877927
7.759669 7.696991 -148.876870
7.669853 7.818858 -148.875813
7.580037 7.940725 -148.874756
7.490222 8.062592 -148.873699
7.386561 8.083507 -148.875065
7.282901 8.104423 -148.876431
7.193085 8.226290 -148.875374
7.089425 8.247205 -148.876740
6.985765 8.268120 -148.878106
6.882105 8.289035 -148.879472
6.778445 8.309950 -148.880838
6.688629 8.431817 -148.879781
6.584969 8.452732 -148.881147
6.481309 8.473647 -148.882513
6.377648 8.494563 -148.883879
6.287833 8.616430 -148.882822
6.184172 8.637345 -148.884188
6.080512 8.658260 -148.885554
5.976852 8.679175 -148.886920
5.873192 8.700090 -148.888286
5.769532 8.721005 -148.889652
5.665872 8.741920 -148.891018
5.562212 8.762836 -148.892384
5.458551 8.783751 -148.893750
5.354891 8.804666 -148.895116
5.251231 8.825581 -148.896482
5.147571 8.846496 -148.897848
5.030066 8.766459 -148.901637
4.926406 8.787374 -148.903003
4.822746 8.808290 -148.904369
4.719086 8.829205 -148.905735
4.601581 8.749168 -148.909524
4.497921 8.770083 -148.910890
4.394261 8.790998 -148.912256
4.290601 8.811913 -148.913622
4.186941 8.832828 -148.914988
4.083281 8.853744 -148.916354
3.979620 8.874659 -148.917720
3.875960 8.895574 -148.919086
3.758456 8.815537 -148.922875
3.654796 8.836452 -148.924241
3.551136 8.857367 -148.925607
3.433631 8.777330 -148.929397
3.329971 8.798246 -148.930763
3.226311 8.819161 -148.932129
3.122651 8.840076 -148.933495
3.018990 8.860991 -148.934861
2.901486 8.780954 -148.938650
2.797826 8.801869 -148.940016
2.694166 8.822784 -148.941382
2.576661 8.742748 -148.945171
2.473001 8.763663 -148.946537
2.355496 8.683626 -148.950326
2.237992 8.603589 -148.954115
2.120487 8.523552 -148.957904
1.989139 8.342564 -148.964117
1.885479 8.363479 -148.965483
1.767974 8.283442 -148.969272
1.650470 8.203405 -148.973061
1.546809 8.224320 -148.974427
1.429305 8.144284 -148.978216
1.311800 8.064247 -148.982005
6.131000 8.423208 -148.920878
5.953797 8.578189 -148.917397
5.853567 8.544472 -148.918763
5.714851 8.605104 -148.917706
5.614621 8.571387 -148.919072
5.475905 8.632019 -148.918015
5.221729 8.975699 -148.909689
5.083013 9.036331 -148.908632
4.944297 9.096963 -148.907574
4.844067 9.063246 -148.908940
4.705351 9.123878 -148.907883
4.605121 9.090161 -148.909249
4.504891 9.056444 -148.910615
4.404661 9.022727 -148.911981
4.265945 9.083359 -148.910924
4.165715 9.049642 -148.912290
4.065485 9.015925 -148.913656
3.965255 8.982208 -148.915022
3.865025 8.948491 -148.916388
3.764795 8.914774 -148.917754
3.626079 8.975406 -148.916697
3.487362 9.036038 -148.915640
3.348646 9.096670 -148.914583
3.248416 9.062953 -148.915949
3.109700 9.123585 -148.914892
3.009470 9.089868 -148.916258
2.909240 9.056151 -148.917624
2.809010 9.022434 -148.918990
2.670294 9.083067 -148.917933
2.570064 9.049350 -148.919299
2.469834 9.015633 -148.920665
2.369604 8.981916 -148.922031
2.269374 8.948199 -148.923397
2.169144 8.914482 -148.924763
2.068914 8.880765 -148.926129
1.968684 8.847048 -148.927495
1.868454 8.813331 -148.928861
1.768224 8.779614 -148.930227
1.667995 8.745897 -148.931593
1.567765 8.712180 -148.932959
1.467535 8.678463 -148.934325
1.367305 8.644746 -148.935691
1.267075 8.611029 -148.937057
1.166845 8.577312 -148.938423
1.066615 8.543595 -148.939789
0.966385 8.509878 -148.941155
0.866155 8.476161 -148.942521
0.765925 8.442444 -148.943887
0.665695 8.408727 -148.945253
0.565465 8.375010 -148.946619
0.465235 8.341293 -148.947985
0.365006 8.307576 -148.949351
0.264776 8.273859 -148.950717
0.164546 8.240142 -148.952083
0.064316 8.206425 -148.953449
-0.035914 8.172708 -148.954815
-0.136144 8.138991 -148.956181
-0.236374 8.105274 -148.957547
-0.336604 8.071557 -148.958913
-0.436834 8.037840 -148.960279
-0.537064 8.004123 -148.961645
-0.637294 7.970406 -148.963011
-0.737524 7.936689 -148.964377
-0.837754 7.902972 -148.965743
-0.899497 7.774905 -148.969533
-0.999727 7.741188 -148.970899
-1.099957 7.707471 -148.972265
-1.200187 7.673754 -148.973631
-1.261930 7.545688 -148.977420
-1.362160 7.511971 -148.978786
-1.462390 7.478254 -148.980152
-1.562620 7.444537 -148.981518
-1.624364 7.316471 -148.985307
-1.724594 7.282754 -148.986673
-1.824824 7.249037 -148.988039
-1.886567 7.120971 -148.991828
-1.986797 7.087254 -148.993194
-2.087027 7.053537 -148.994560
-2.148771 6.925471 -148.998349
-2.172028 6.703056 -149.004562
-2.233771 6.574990 -149.008351
-2.295515 6.446924 -149.012140
-0.521253 8.677750 -148.948507
-0.671701 8.660901 -148.947450
-0.741644 8.581586 -148.948816
-0.892092 8.564737 -148.947759
-0.962035 8.485422 -148.949125
-1.031979 8.406107 -148.950491
-1.101922 8.326793 -148.951857
-1.252370 8.309944 -148.950800
-1.322313 8.230629 -148.952166
-1.392256 8.151314 -148.953532
-1.462199 8.072000 -148.954898
-1.532142 7.992685 -148.956264
-1.602085 7.913370 -148.957630
-1.672028 7.834055 -148.958996
-1.741972 7.754741 -148.960362
-1.892419 7.737892 -148.959305
-1.881858 7.596111 -148.963094
-1.951801 7.516797 -148.964460
-2.102249 7.499948 -148.963403
-2.172192 7.420633 -148.964769
-2.242135 7.341318 -148.966135
-2.312078 7.262004 -148.967501
-2.462526 7.245154 -148.966444
-2.532469 7.165840 -148.967810
-2.602413 7.086525 -148.969176
-2.672356 7.007210 -148.970542
-2.742299 6.927896 -148.971908
-2.812242 6.848581 -148.973274
-2.882185 6.769266 -148.974640
-2.952128 6.689952 -148.976006
-3.022071 6.610637 -148.977372
-3.092015 6.531322 -148.978738
-3.242462 6.514473 -148.977681
-3.312406 6.435158 -148.979047
-3.382349 6.355844 -148.980413
-3.452292 6.276529 -148.981779
-3.522235 6.197214 -148.983145
-3.592178 6.117900 -148.984511
-3.662121 6.038585 -148.985877
-3.732065 5.959270 -148.987243
-3.802008 5.879956 -148.988609
-3.871951 5.800641 -148.989975
-3.941894 5.721326 -148.991341
-4.011837 5.642012 -148.992707
-4.081780 5.562697 -148.994073
-4.151724 5.483382 -148.995439
-4.221667 5.404067 -148.996805
-4.291610 5.324753 -148.998171
-4.361553 5.245438 -148.999537
-4.350991 5.103658 -149.003326
-4.420935 5.024343 -149.004692
-4.490878 4.945029 -149.006058
-4.560821 4.865714 -149.007424
-4.630764 4.786399 -149.008790
-4.700707 4.707084 -149.010156
-4.770650 4.627770 -149.011522
-4.840594 4.548455 -149.012888
-4.910537 4.469140 -149.014254
-4.980480 4.389826 -149.015620
-4.969918 4.248045 -149.019409
-5.039862 4.168731 -149.020775
-5.109805 4.089416 -149.022141
-5.099243 3.947636 -149.025930
-5.169186 3.868321 -149.027296
-5.239129 3.789007 -149.028662
-5.228568 3.647226 -149.032452
-5.298511 3.567912 -149.033818
-5.287950 3.426131 -149.037607
-5.277388 3.284351 -149.041396
-5.105817 3.017640 -149.050031
-4.934246 2.750929 -149.058667
-4.923685 2.609148 -149.062456
-4.993628 2.529834 -149.063822
-4.983066 2.388053 -149.067611
-4.811495 2.121342 -149.076246
-5.278596 3.806050 -148.998432
-5.400463 3.716234 -148.997374
-5.421378 3.612574 -148.998740
-5.543246 3.522758 -148.997683
-5.564161 3.419098 -148.999049
-5.585076 3.315437 -149.000415
-5.605991 3.211777 -149.001781
-5.626906 3.108117 -149.003147
-5.647821 3.004457 -149.004513
-5.668736 2.900797 -149.005879
-5.689651 2.797137 -149.007245
-5.710567 2.693476 -149.008612
-5.731482 2.589816 -149.009978
-5.651445 2.472312 -149.013767
-5.672360 2.368652 -149.015133
-5.693275 2.264991 -149.016499
-5.714190 2.161331 -149.017865
-5.735105 2.057671 -149.019231
-5.756021 1.954011 -149.020597
-5.776936 1.850351 -149.021963
-5.696899 1.732846 -149.025752
-5.717814 1.629186 -149.027118
-5.738729 1.525526 -149.028484
-5.759644 1.421866 -149.029850
-5.679608 1.304361 -149.033639
-5.700523 1.200701 -149.035005
-5.721438 1.097041 -149.036371
-5.641401 0.979537 -149.040160
-5.662316 0.875876 -149.041526
-5.683231 0.772216 -149.042892
-5.704146 0.668556 -149.044258
-5.725062 0.564896 -149.045624
-5.745977 0.461236 -149.046990
-5.766892 0.357576 -149.048356
-5.686855 0.240071 -149.052146
-5.707770 0.136411 -149.053512
-5.728685 0.032751 -149.054878
-5.749600 -0.070909 -149.056244
-5.669564 -0.188414 -149.060033
-5.690479 -0.292074 -149.061399
-5.711394 -0.395734 -149.062765
-5.732309 -0.499394 -149.064131
-5.753224 -0.603054 -149.065497
-5.774139 -0.706715 -149.066863
-5.694103 -0.824219 -149.070652
-5.614066 -0.941724 -149.074441
-5.634981 -1.045384 -149.075807
-5.554944 -1.162888 -149.079596
-5.575859 -1.266548 -149.080962
-5.596774 -1.370209 -149.082328
-5.617689 -1.473869 -149.083694
-5.638605 -1.577529 -149.085060
-5.659520 -1.681189 -149.086426
-5.579483 -1.798694 -149.090215
-5.600398 -1.902354 -149.091581
-5.520361 -2.019858 -149.095371
-5.440325 -2.137363 -149.099160
-5.259336 -2.268711 -149.105372
-5.179299 -2.386216 -149.109161
-5.099262 -2.503720 -149.112950
-5.120177 -2.607381 -149.114316
-5.141093 -2.711041 -149.115682
-5.061056 -2.828545 -149.119471
-4.981019 -2.946050 -149.123261
-6.205272 3.046303 -148.995343
-6.265905 2.907587 -148.994285
-6.326537 2.768870 -148.993228
-6.292820 2.668640 -148.994594
-6.259103 2.568410 -148.995960
-6.319735 2.429694 -148.994903
-6.286018 2.329464 -148.996269
-6.252301 2.229234 -148.997635
-6.218584 2.129004 -148.999001
-6.279216 1.990288 -148.997944
-6.339848 1.851572 -148.996887
-6.400480 1.712855 -148.995830
-6.366763 1.612625 -148.997196
-6.333046 1.512396 -148.998562
-6.393678 1.373679 -148.997505
-6.454310 1.234963 -148.996448
-6.514942 1.096247 -148.995391
-6.575575 0.957530 -148.994334
-6.541858 0.857300 -148.995700
-6.508141 0.757071 -148.997066
-6.568773 0.618354 -148.996008
-6.535056 0.518124 -148.997374
-6.501339 0.417894 -148.998740
-6.561971 0.279178 -148.997683
-6.622603 0.140462 -148.996626
-6.683235 0.001745 -148.995569
-6.649518 -0.098484 -148.996935
-6.615801 -0.198714 -148.998301
-6.582084 -0.298944 -148.999667
-6.642716 -0.437661 -148.998610
-6.608999 -0.537891 -148.999976
-6.575282 -0.638120 -149.001342
-6.541565 -0.738350 -149.002708
-6.507848 -0.838580 -149.004074
-6.474131 -0.938810 -149.005440
-6.440414 -1.039040 -149.006806
-6.406697 -1.139270 -149.008172
-6.372980 -1.239500 -149.009538
-6.433612 -1.378216 -149.008481
-6.399895 -1.478446 -149.009847
-6.366178 -1.578676 -149.011213
-6.332461 -1.678906 -149.012579
-6.298744 -1.779136 -149.013945
-6.265027 -1.879366 -149.015311
-6.231310 -1.979596 -149.016677
-6.197593 -2.079826 -149.018043
-6.163876 -2.180056 -149.019409
-6.130159 -2.280286 -149.020775
-6.096442 -2.380515 -149.022141
-6.062725 -2.480745 -149.023507
-6.029008 -2.580975 -149.024873
-5.995291 -2.681205 -149.026239
-5.961574 -2.781435 -149.027605
-5.833508 -2.843179 -149.031394
-5.799791 -2.943409 -149.032761
-5.766074 -3.043639 -149.034127
-5.732357 -3.143868 -149.035493
-5.698640 -3.244098 -149.036859
-5.664923 -3.344328 -149.038225
-5.631206 -3.444558 -149.039591
-5.597489 -3.544788 -149.040957
-5.563772 -3.645018 -149.042323
-5.530055 -3.745248 -149.043689
-5.496338 -3.845478 -149.045055
-5.462621 -3.945708 -149.046421
-5.428904 -4.045938 -149.047787
-5.395187 -4.146168 -149.049153
-5.361470 -4.246398 -149.050519
-5.327753 -4.346628 -149.051885
-5.199687 -4.408371 -149.055674
-5.165970 -4.508601 -149.057040
-5.132253 -4.608831 -149.058406
-5.004187 -4.670575 -149.062195
-4.970470 -4.770804 -149.063561
-4.936753 -4.871034 -149.064927
-4.903036 -4.971264 -149.066293
-4.869319 -5.071494 -149.067659
-4.835602 -5.171724 -149.069025
-4.801885 -5.271954 -149.070391
-4.768168 -5.372184 -149.071757
-4.734451 -5.472414 -149.073123
-4.700734 -5.572644 -149.074489
-4.667017 -5.672874 -149.075855
-4.633300 -5.773104 -149.077221
-4.599583 -5.873334 -149.078587
-4.471517 -5.935077 -149.082376
-4.437800 -6.035307 -149.083742
-4.404083 -6.135537 -149.085108
-4.370366 -6.235767 -149.086474
-4.242300 -6.297510 -149.090264
-4.208583 -6.397740 -149.091630
-4.080517 -6.459484 -149.095419
-6.608581 -1.125631 -148.996269
-6.591732 -1.276079 -148.995212
-6.574883 -1.426527 -148.994155
-6.495568 -1.496470 -148.995521
-6.478719 -1.646918 -148.994464
-6.461870 -1.797366 -148.993407
-6.445020 -1.947814 -148.992350
-6.428171 -2.098261 -148.991293
-6.411322 -2.248709 -148.990235
-6.394473 -2.399157 -148.989178
-6.377624 -2.549605 -148.988121
-6.298309 -2.619548 -148.989487
-6.218995 -2.689491 -148.990853
-6.202145 -2.839939 -148.989796
-6.122831 -2.909882 -148.991162
-6.043516 -2.979825 -148.992528
-5.964201 -3.049769 -148.993894
-5.947352 -3.200216 -148.992837
-5.868037 -3.270160 -148.994203
-5.851188 -3.420607 -148.993146
-5.834339 -3.571055 -148.992089
-5.755025 -3.640998 -148.993455
-5.738175 -3.791446 -148.992398
-5.783792 -4.022399 -148.988918
-5.766943 -4.172847 -148.987861
-5.687628 -4.242790 -148.989227
-5.670779 -4.393238 -148.988169
-5.591464 -4.463181 -148.989535
-5.512149 -4.533124 -148.990901
-5.495300 -4.683572 -148.989844
-5.415986 -4.753515 -148.991210
-5.336671 -4.823458 -148.992576
-5.257356 -4.893401 -148.993942
-5.240507 -5.043849 -148.992885
-5.161192 -5.113792 -148.994251
-5.081878 -5.183735 -148.995617
-5.065029 -5.334183 -148.994560
-4.985714 -5.404126 -148.995926
-4.968865 -5.554574 -148.994869
-4.889550 -5.624517 -148.996235
-4.810235 -5.694461 -148.997601
-4.730921 -5.764404 -148.998967
-4.651606 -5.834347 -149.000333
-4.634757 -5.984795 -148.999276
-4.617908 -6.135243 -148.998219
-4.538593 -6.205186 -148.999585
-4.521744 -6.355634 -148.998528
-4.504895 -6.506081 -148.997471
-4.425580 -6.576025 -148.998837
-4.408731 -6.726472 -148.997780
-4.329416 -6.796415 -148.999146
-4.250102 -6.866359 -149.000512
-4.233252 -7.016806 -148.999455
-4.153938 -7.086750 -149.000821
-4.074623 -7.156693 -149.002187
-4.057774 -7.307141 -149.001130
-4.040925 -7.457588 -149.000072
-3.961610 -7.527532 -149.001438
-3.882295 -7.597475 -149.002804
-3.802981 -7.667418 -149.004170
-3.786132 -7.817866 -149.003113
-3.706817 -7.887809 -149.004479
-3.627502 -7.957752 -149.005845
-3.548187 -8.027695 -149.007211
-3.531338 -8.178143 -149.006154
-3.452024 -8.248086 -149.007520
-3.372709 -8.318029 -149.008886
-3.293394 -8.387973 -149.010252
-3.214080 -8.457916 -149.011618
-3.134765 -8.527859 -149.012984
-3.055450 -8.597802 -149.014350
-2.976136 -8.667745 -149.015716
-2.896821 -8.737688 -149.017082
-2.879972 -8.888136 -149.016025
-2.800657 -8.958079 -149.017391
-2.721342 -9.028023 -149.018757
-2.642028 -9.097966 -149.020123
-2.562713 -9.167909 -149.021489
-2.483398 -9.237852 -149.022855
-2.404084 -9.307795 -149.024221
-2.324769 -9.377738 -149.025587
-2.245454 -9.447681 -149.026953
-2.166140 -9.517625 -149.028319
-2.086825 -9.587568 -149.029685
-2.007510 -9.657511 -149.031051
-1.928195 -9.727454 -149.032417
-1.848881 -9.797397 -149.033784
-1.769566 -9.867340 -149.035150
-1.690251 -9.937284 -149.036516
-1.548471 -9.926722 -149.040305
-1.469156 -9.996665 -149.041671
-1.389842 -10.066608 -149.043037
-1.310527 -10.136552 -149.044403
-1.231212 -10.206495 -149.045769
-1.151898 -10.276438 -149.047135
-1.072583 -10.346381 -149.048501
-0.993268 -10.416324 -149.049867
-0.913954 -10.486267 -149.051233
-0.834639 -10.556210 -149.052599
-0.755324 -10.626154 -149.053965
-0.676010 -10.696097 -149.055331
-0.534229 -10.685535 -149.059120
-0.454915 -10.755478 -149.060486
-0.375600 -10.825422 -149.061852
-0.233820 -10.814860 -149.065641
-0.154505 -10.884803 -149.067007
-0.012725 -10.874242 -149.070796
0.129055 -10.863680 -149.074585
-2.694166 -8.822784 -148.941382
-2.604350 -8.944652 -148.940325
-2.514534 -9.066519 -148.939268
-2.424718 -9.188386 -148.938211
-2.321058 -9.209301 -148.939577
-2.245086 -9.432120 -148.936096
-2.155271 -9.553987 -148.935039
-2.065455 -9.675854 -148.933982
-1.975639 -9.797721 -148.932925
-1.885823 -9.919588 -148.931868
-1.782163 -9.940503 -148.933234
-1.692347 -10.062370 -148.932177
-1.588687 -10.083285 -148.933543
-1.485027 -10.104200 -148.934909
-1.395211 -10.226067 -148.933852
-1.305395 -10.347934 -148.932795
-1.215579 -10.469801 -148.931738
-1.111919 -10.490717 -148.933104
-1.022103 -10.612584 -148.932046
-0.932287 -10.734451 -148.930989
-0.828627 -10.755366 -148.932355
-0.738811 -10.877233 -148.931298
-0.635151 -10.898148 -148.932664
-0.531491 -10.919063 -148.934030
-0.441675 -11.040930 -148.932973
-0.338015 -11.061845 -148.934339
-0.234355 -11.082760 -148.935705
-0.130695 -11.103676 -148.937071
-0.027035 -11.124591 -148.938437
0.076625 -11.145506 -148.939803
0.180286 -11.166421 -148.941169
0.283946 -11.187336 -148.942535
0.387606 -11.208251 -148.943901
0.491266 -11.229166 -148.945267
0.594926 -11.250081 -148.946633
0.684742 -11.371949 -148.945576
0.788402 -11.392864 -148.946942
0.892062 -11.413779 -148.948308
0.995723 -11.434694 -148.949674
1.099383 -11.455609 -148.951040
1.203043 -11.476524 -148.952406
1.306703 -11.497439 -148.953772
1.410363 -11.518354 -148.955138
1.514023 -11.539270 -148.956504
1.617684 -11.560185 -148.957870
1.721344 -11.581100 -148.959236
1.825004 -11.602015 -148.960602
1.928664 -11.622930 -148.961968
2.032324 -11.643845 -148.963334
2.135984 -11.664760 -148.964700
2.239644 -11.685675 -148.966066
2.343305 -11.706591 -148.967432
2.460809 -11.626554 -148.971222
2.564469 -11.647469 -148.972588
2.668129 -11.668384 -148.973954
2.771790 -11.689299 -148.975320
2.875450 -11.710214 -148.976686
2.979110 -11.731129 -148.978052
3.082770 -11.752045 -148.979418
3.186430 -11.772960 -148.980784
3.290090 -11.793875 -148.982150
3.393751 -11.814790 -148.983516
3.497411 -11.835705 -148.984882
3.601071 -11.856620 -148.986248
3.704731 -11.877535 -148.987614
3.822236 -11.797499 -148.991403
3.925896 -11.818414 -148.992769
4.029556 -11.839329 -148.994135
4.147060 -11.759292 -148.997924
4.250720 -11.780207 -148.999290
4.354381 -11.801122 -149.000656
4.458041 -11.822037 -149.002022
4.561701 -11.842953 -149.003388
4.679205 -11.762916 -149.007177
4.824399 -11.480975 -149.015813
4.941903 -11.400938 -149.019602
5.059408 -11.320902 -149.023391
5.176912 -11.240865 -149.027180
5.280572 -11.261780 -149.028546
5.398077 -11.181743 -149.032335
5.501737 -11.202658 -149.033701
5.619241 -11.122622 -149.037490
5.722902 -11.143537 -149.038856
5.840406 -11.063500 -149.042646
5.971755 -10.882511 -149.048858
6.103104 -10.701523 -149.055070
6.220608 -10.621486 -149.058859
6.324268 -10.642401 -149.060225
6.441773 -10.562364 -149.064014
6.559277 -10.482327 -149.067804
6.676782 -10.402291 -149.071593
6.794286 -10.322254 -149.075382
6.911791 -10.242217 -149.079171
7.056984 -9.960276 -149.087806
7.160644 -9.981192 -149.089172
7.278148 -9.901155 -149.092961
7.423342 -9.619214 -149.101597
7.540846 -9.539177 -149.105386
7.644506 -9.560092 -149.106752
7.748166 -9.581008 -149.108118
7.865671 -9.500971 -149.111907
7.969331 -9.521886 -149.113273
8.086836 -9.441849 -149.117062
-0.320145 -10.652992 -148.885114
-0.142942 -10.807973 -148.881634
0.034261 -10.962954 -148.878154
0.172977 -11.023587 -148.877097
0.311693 -11.084219 -148.876040
0.450410 -11.144851 -148.874983
0.589126 -11.205483 -148.873926
0.727842 -11.266115 -148.872868
0.828072 -11.232398 -148.874234
0.966788 -11.293030 -148.873177
1.105505 -11.353662 -148.872120
1.205735 -11.319945 -148.873486
1.382937 -11.474927 -148.870006
1.521654 -11.535559 -148.868949
1.621884 -11.501842 -148.870315
1.760600 -11.562474 -148.869258
1.899316 -11.623106 -148.868201
2.038032 -11.683738 -148.867144
2.176749 -11.744370 -148.866086
2.276979 -11.710653 -148.867453
2.415695 -11.771285 -148.866395
2.554411 -11.831917 -148.865338
2.770100 -12.081248 -148.859435
2.870330 -12.047531 -148.860801
2.970560 -12.013814 -148.862167
3.109276 -12.074446 -148.861110
3.209506 -12.040729 -148.862476
3.309736 -12.007012 -148.863842
3.409966 -11.973295 -148.865208
3.510196 -11.939578 -148.866574
3.610426 -11.905861 -148.867940
3.710656 -11.872144 -148.869306
3.810886 -11.838427 -148.870672
3.911116 -11.804710 -148.872038
4.011346 -11.770993 -148.873404
4.150062 -11.831625 -148.872347
4.250292 -11.797908 -148.873713
4.350522 -11.764191 -148.875079
4.450752 -11.730474 -148.876445
4.550982 -11.696757 -148.877811
4.651212 -11.663040 -148.879177
4.751442 -11.629323 -148.880543
4.851671 -11.595606 -148.881909
4.951901 -11.561889 -148.883275
5.052131 -11.528172 -148.884641
5.152361 -11.494455 -148.886007
5.252591 -11.460738 -148.887373
5.352821 -11.427021 -148.888739
5.491537 -11.487653 -148.887682
5.591767 -11.453936 -148.889048
5.691997 -11.420219 -148.890414
5.792227 -11.386502 -148.891780
5.892457 -11.352785 -148.893146
5.992687 -11.319068 -148.894512
6.054431 -11.191002 -148.898301
6.154660 -11.157285 -148.899667
6.254890 -11.123568 -148.901033
6.355120 -11.089851 -148.902399
6.455350 -11.056134 -148.903765
6.555580 -11.022417 -148.905131
6.655810 -10.988700 -148.906497
6.756040 -10.954983 -148.907863
6.856270 -10.921266 -148.909229
6.956500 -10.887549 -148.910595
7.056730 -10.853832 -148.911961
7.156960 -10.820115 -148.913327
7.257190 -10.786398 -148.914693
7.357420 -10.752681 -148.916059
7.457649 -10.718964 -148.917425
7.557879 -10.685247 -148.918791
7.619623 -10.557181 -148.922581
7.719853 -10.523464 -148.923947
7.820083 -10.489747 -148.925313
7.920313 -10.456030 -148.926679
8.020543 -10.422313 -148.928045
8.082286 -10.294247 -148.931834
8.182516 -10.260530 -148.933200
8.282746 -10.226813 -148.934566
8.344490 -10.098747 -148.938355
8.406233 -9.970680 -148.942144
8.506463 -9.936963 -148.943510
8.568207 -9.808897 -148.947299
8.629950 -9.680831 -148.951088
8.730180 -9.647114 -148.952454
8.791924 -9.519048 -148.956244
8.892154 -9.485331 -148.957610
8.992383 -9.451614 -148.958976
9.092613 -9.417897 -148.960342
9.154357 -9.289831 -148.964131
9.216100 -9.161765 -148.967920
9.277844 -9.033699 -148.971709
9.339588 -8.905633 -148.975498
9.401331 -8.777567 -148.979287
9.463075 -8.649500 -148.983076
9.524818 -8.521434 -148.986866
9.625048 -8.487717 -148.988232
9.686792 -8.359651 -148.992021
9.787022 -8.325934 -148.993387
9.694820 -7.820472 -149.006868
9.795050 -7.786755 -149.008234
9.895280 -7.753038 -149.009600
9.957023 -7.624972 -149.013390
10.018767 -7.496905 -149.017179
10.042024 -7.274490 -149.023391
10.103767 -7.146424 -149.027180
9.973079 -6.546612 -149.043085
10.073309 -6.512895 -149.044451
10.135052 -6.384829 -149.048240
10.235282 -6.351112 -149.049606
10.297026 -6.223046 -149.053395
10.397256 -6.189329 -149.054761
10.458999 -6.061263 -149.058550
10.520743 -5.933197 -149.062339
