ply
format ascii 1.0
comment VCGLIB generated
element vertex 1414
property float x
property float y
property float z
element face 0
property list uchar int vertex_indices
end_header
4.53733 -14.7328 -22.7513
4.68778 -14.7159 -22.7502
4.83823 -14.6991 -22.7491
4.90817 -14.6198 -22.7505
5.54164 -14.9777 -22.7349
5.8531 -15.0858 -22.729
6.00355 -15.069 -22.728
6.154 -15.0521 -22.7269
6.22394 -14.9728 -22.7283
6.45489 -15.0184 -22.7248
6.60534 -15.0016 -22.7237
6.75579 -14.9847 -22.7227
6.90624 -14.9679 -22.7216
6.97618 -14.8886 -22.723
7.12663 -14.8717 -22.7219
7.27707 -14.8549 -22.7209
7.34702 -14.7755 -22.7222
7.49747 -14.7587 -22.7212
7.56741 -14.6794 -22.7225
7.71786 -14.6625 -22.7215
7.86831 -14.6457 -22.7204
7.93825 -14.5664 -22.7218
8.08869 -14.5495 -22.7207
8.15864 -14.4702 -22.7221
8.22858 -14.3909 -22.7235
8.29853 -14.3116 -22.7248
8.44897 -14.2947 -22.7238
8.51892 -14.2154 -22.7251
8.58886 -14.1361 -22.7265
8.73931 -14.1192 -22.7254
8.80925 -14.0399 -22.7268
8.9597 -14.0231 -22.7258
9.11014 -14.0062 -22.7247
9.26059 -13.9894 -22.7236
9.41104 -13.9725 -22.7226
9.48098 -13.8932 -22.724
9.55093 -13.8139 -22.7253
9.62087 -13.7346 -22.7267
9.69081 -13.6553 -22.7281
9.68025 -13.5135 -22.7318
9.75019 -13.4342 -22.7332
9.82014 -13.3549 -22.7346
9.89008 -13.2755 -22.7359
10.0405 -13.2587 -22.7349
10.1105 -13.1794 -22.7363
10.1804 -13.1001 -22.7376
10.2504 -13.0208 -22.739
10.2398 -12.879 -22.7428
10.3097 -12.7997 -22.7441
10.3797 -12.7203 -22.7455
10.4496 -12.641 -22.7469
10.5196 -12.5617 -22.7482
10.67 -12.5449 -22.7472
10.74 -12.4655 -22.7486
10.8904 -12.4487 -22.7475
11.0409 -12.4319 -22.7464
11.1108 -12.3525 -22.7478
11.1807 -12.2732 -22.7492
11.2507 -12.1939 -22.7505
11.4011 -12.1771 -22.7495
11.4711 -12.0977 -22.7508
11.541 -12.0184 -22.7522
11.611 -11.9391 -22.7536
11.6809 -11.8598 -22.7549
11.8314 -11.843 -22.7539
11.9013 -11.7636 -22.7552
12.0517 -11.7468 -22.7542
12.2022 -11.7299 -22.7531
12.2721 -11.6506 -22.7545
12.3421 -11.5713 -22.7559
12.4925 -11.5545 -22.7548
12.5625 -11.4751 -22.7562
12.7129 -11.4583 -22.7551
12.7829 -11.379 -22.7565
12.9333 -11.3621 -22.7554
13.0033 -11.2828 -22.7568
13.1537 -11.266 -22.7557
13.2236 -11.1867 -22.7571
13.3741 -11.1698 -22.756
13.444 -11.0905 -22.7574
13.5945 -11.0736 -22.7563
13.6644 -10.9943 -22.7577
13.7344 -10.915 -22.7591
13.8848 -10.8982 -22.758
13.9548 -10.8188 -22.7594
14.0247 -10.7395 -22.7608
14.0946 -10.6602 -22.7621
14.1646 -10.5809 -22.7635
14.2345 -10.5016 -22.7648
14.3045 -10.4223 -22.7662
14.3744 -10.343 -22.7676
14.5249 -10.3261 -22.7665
14.5948 -10.2468 -22.7679
14.6648 -10.1675 -22.7693
14.7347 -10.0882 -22.7706
14.7241 -9.94638 -22.7744
14.7941 -9.86707 -22.7758
14.864 -9.78776 -22.7771
14.934 -9.70844 -22.7785
15.0039 -9.62912 -22.7799
15.1544 -9.61228 -22.7788
15.2243 -9.53296 -22.7802
15.2942 -9.45365 -22.7816
15.3642 -9.37433 -22.7829
15.4341 -9.29502 -22.7843
15.5041 -9.2157 -22.7857
15.574 -9.13639 -22.787
15.644 -9.05708 -22.7884
15.7139 -8.97776 -22.7897
15.7838 -8.89845 -22.7911
15.7733 -8.75666 -22.7949
15.8432 -8.67735 -22.7963
15.9132 -8.59803 -22.7976
15.9831 -8.51872 -22.799
15.9726 -8.37694 -22.8028
16.0425 -8.29763 -22.8042
16.1124 -8.21831 -22.8055
16.1824 -8.139 -22.8069
16.2523 -8.05968 -22.8083
16.2418 -7.9179 -22.812
16.3117 -7.83859 -22.8134
16.3816 -7.75927 -22.8148
16.4516 -7.67996 -22.8161
16.441 -7.53818 -22.8199
16.511 -7.45886 -22.8213
16.5809 -7.37955 -22.8227
16.6509 -7.30023 -22.824
16.6403 -7.15845 -22.8278
16.7102 -7.07914 -22.8292
16.6997 -6.93736 -22.833
16.5281 -6.67065 -22.8416
16.598 -6.59133 -22.843
16.5875 -6.44955 -22.8468
16.6574 -6.37024 -22.8481
16.6469 -6.22846 -22.8519
16.7168 -6.14914 -22.8533
16.7063 -6.00736 -22.8571
16.6957 -5.86558 -22.8609
16.7656 -5.78627 -22.8622
16.7551 -5.64449 -22.866
16.7445 -5.50271 -22.8698
16.6534 -5.29846 -22.876
16.5624 -5.09421 -22.8822
16.4713 -4.88997 -22.8884
6.93959 -15.1128 -22.7643
7.06147 -15.023 -22.7632
7.18333 -14.9332 -22.7622
7.3052 -14.8433 -22.7611
7.62897 -14.7812 -22.7552
7.95274 -14.7191 -22.7493
8.17556 -14.6431 -22.7458
8.29743 -14.5533 -22.7448
8.72215 -14.505 -22.7365
8.84401 -14.4152 -22.7354
8.96588 -14.3254 -22.7343
9.08775 -14.2356 -22.7333
9.31057 -14.1596 -22.7298
9.43244 -14.0698 -22.7287
9.45335 -13.9661 -22.7301
9.57522 -13.8763 -22.729
9.59613 -13.7726 -22.7304
9.61705 -13.669 -22.7318
9.73892 -13.5792 -22.7307
9.86078 -13.4894 -22.7297
10.2855 -13.4411 -22.7213
10.3064 -13.3374 -22.7227
10.4283 -13.2476 -22.7216
10.4492 -13.1439 -22.723
10.4701 -13.0403 -22.7244
10.491 -12.9366 -22.7258
10.6129 -12.8468 -22.7247
10.6338 -12.7431 -22.7261
10.6547 -12.6395 -22.7274
10.7766 -12.5497 -22.7264
10.8985 -12.4598 -22.7253
11.0203 -12.37 -22.7242
11.1422 -12.2802 -22.7232
11.1631 -12.1766 -22.7246
11.184 -12.0729 -22.7259
11.3059 -11.9831 -22.7249
11.7306 -11.9348 -22.7165
11.9534 -11.8588 -22.7131
12.0753 -11.769 -22.712
12.1972 -11.6792 -22.711
12.319 -11.5894 -22.7099
12.5419 -11.5134 -22.7064
12.7647 -11.4374 -22.7029
12.8865 -11.3476 -22.7019
13.0084 -11.2578 -22.7008
13.1303 -11.168 -22.6998
13.555 -11.1197 -22.6914
13.7778 -11.0437 -22.688
13.7987 -10.9401 -22.6893
13.9206 -10.8503 -22.6883
14.2444 -10.7881 -22.6824
14.2653 -10.6845 -22.6837
14.3872 -10.5947 -22.6827
14.4081 -10.491 -22.684
14.5299 -10.4012 -22.683
14.8537 -10.3391 -22.6771
14.9756 -10.2492 -22.676
14.9965 -10.1456 -22.6774
15.0174 -10.0419 -22.6787
15.1393 -9.9521 -22.6777
15.1602 -9.84844 -22.6791
15.2821 -9.75862 -22.678
15.303 -9.65496 -22.6794
15.4248 -9.56515 -22.6783
15.4458 -9.46149 -22.6797
15.4667 -9.35783 -22.681
15.5885 -9.26801 -22.68
15.6094 -9.16435 -22.6814
15.6304 -9.06069 -22.6827
15.7522 -8.97088 -22.6817
15.7731 -8.86722 -22.683
15.7941 -8.76356 -22.6844
15.815 -8.6599 -22.6858
15.8359 -8.55624 -22.6871
15.8568 -8.45258 -22.6885
15.8777 -8.34892 -22.6898
16.1005 -8.27294 -22.6864
16.2224 -8.18313 -22.6853
16.3443 -8.09331 -22.6843
16.3652 -7.98965 -22.6856
16.3861 -7.88599 -22.687
16.407 -7.78233 -22.6884
16.5289 -7.69252 -22.6873
16.5498 -7.58886 -22.6887
16.5707 -7.4852 -22.69
16.5916 -7.38154 -22.6914
16.6125 -7.27787 -22.6928
16.7344 -7.18806 -22.6917
16.7553 -7.0844 -22.6931
16.7762 -6.98074 -22.6944
16.7972 -6.87708 -22.6958
16.8181 -6.77342 -22.6972
16.738 -6.65591 -22.701
16.759 -6.55225 -22.7023
16.7799 -6.4486 -22.7037
16.8008 -6.34493 -22.7051
16.8217 -6.24127 -22.7064
16.8426 -6.13761 -22.7078
16.8635 -6.03395 -22.7092
16.8844 -5.93029 -22.7105
16.9054 -5.82663 -22.7119
16.9263 -5.72297 -22.7133
16.9472 -5.61931 -22.7146
16.8672 -5.50181 -22.7184
16.8881 -5.39815 -22.7198
16.909 -5.29449 -22.7211
16.9299 -5.19083 -22.7225
16.8499 -5.07333 -22.7263
16.8708 -4.96966 -22.7277
16.8917 -4.866 -22.729
16.8117 -4.7485 -22.7328
16.8326 -4.64484 -22.7342
16.8535 -4.54118 -22.7355
16.7734 -4.42367 -22.7393
16.7944 -4.32001 -22.7407
16.7143 -4.20251 -22.7445
16.7352 -4.09885 -22.7459
15.8476 -3.87059 -22.769
15.6666 -3.73924 -22.7753
15.5866 -3.62174 -22.779
15.5065 -3.50423 -22.7828
15.3255 -3.37288 -22.789
15.2455 -3.25538 -22.7928
15.1655 -3.13787 -22.7966
15.0854 -3.02037 -22.8004
15.1063 -2.91671 -22.8018
15.0263 -2.7992 -22.8056
15.0472 -2.69554 -22.8069
14.9672 -2.57804 -22.8107
14.8872 -2.46054 -22.8145
14.7062 -2.32919 -22.8207
14.6261 -2.21168 -22.8245
14.5461 -2.09418 -22.8283
14.466 -1.97667 -22.8321
14.386 -1.85917 -22.8359
14.4069 -1.75551 -22.8372
14.3269 -1.638 -22.841
14.3478 -1.53434 -22.8424
14.2678 -1.41684 -22.8462
14.2887 -1.31318 -22.8475
14.2086 -1.19567 -22.8513
14.1286 -1.07817 -22.8551
14.0486 -0.960664 -22.8589
14.0695 -0.857006 -22.8603
13.9895 -0.739501 -22.8641
14.0104 -0.635842 -22.8654
13.9303 -0.518337 -22.8692
13.8503 -0.400831 -22.873
13.7703 -0.283328 -22.8768
13.6902 -0.165822 -22.8806
13.6102 -0.0483196 -22.8844
13.5301 0.0691836 -22.8882
13.5511 0.172846 -22.8895
13.471 0.290352 -22.8933
13.4919 0.394013 -22.8947
13.4119 0.511514 -22.8985
13.4328 0.615173 -22.8998
13.4537 0.718835 -22.9012
13.4747 0.822495 -22.9026
13.4956 0.926156 -22.9039
13.5165 1.02982 -22.9053
13.4364 1.14732 -22.9091
13.4574 1.25098 -22.9105
13.3773 1.36848 -22.9143
13.3982 1.47215 -22.9156
13.4192 1.57581 -22.917
13.3391 1.69331 -22.9208
13.36 1.79697 -22.9221
13.3809 1.90063 -22.9235
13.4019 2.00429 -22.9249
13.3218 2.12179 -22.9287
13.3427 2.22545 -22.93
13.2627 2.34296 -22.9338
13.2836 2.44662 -22.9352
13.3045 2.55028 -22.9366
13.3254 2.65394 -22.9379
13.3464 2.7576 -22.9393
13.2663 2.87511 -22.9431
13.2872 2.97876 -22.9444
13.2072 3.09627 -22.9482
13.2281 3.19993 -22.9496
13.1481 3.31743 -22.9534
13.169 3.42109 -22.9548
13.1899 3.52475 -22.9561
13.2108 3.62842 -22.9575
13.2317 3.73208 -22.9588
13.2527 3.83574 -22.9602
13.1726 3.95324 -22.964
13.1935 4.0569 -22.9654
13.2145 4.16056 -22.9667
13.2354 4.26422 -22.9681
13.2563 4.36788 -22.9695
13.2772 4.47154 -22.9708
13.2981 4.5752 -22.9722
13.319 4.67886 -22.9736
13.3399 4.78252 -22.9749
13.3609 4.88618 -22.9763
13.3818 4.98984 -22.9777
13.3017 5.10734 -22.9814
13.3226 5.21101 -22.9828
13.3436 5.31466 -22.9842
13.2635 5.43217 -22.988
13.2844 5.53583 -22.9893
13.3054 5.63949 -22.9907
13.2253 5.757 -22.9945
13.2462 5.86066 -22.9959
13.2672 5.96432 -22.9972
13.1871 6.08182 -23.001
13.208 6.18548 -23.0024
13.2289 6.28914 -23.0038
13.2499 6.3928 -23.0051
13.2708 6.49646 -23.0065
13.2917 6.60012 -23.0078
13.3126 6.70378 -23.0092
13.3335 6.80744 -23.0106
13.3544 6.9111 -23.0119
13.2744 7.02861 -23.0157
13.2953 7.13227 -23.0171
13.2153 7.24977 -23.0209
13.2362 7.35343 -23.0222
13.2571 7.45709 -23.0236
13.278 7.56075 -23.025
13.198 7.67825 -23.0288
13.2189 7.78192 -23.0301
13.2398 7.88558 -23.0315
13.2607 7.98923 -23.0329
13.1807 8.10674 -23.0367
12.1921 8.34884 -23.0623
15.9318 -8.99529 -22.702
15.8981 -8.89506 -22.7034
15.9587 -8.75634 -22.7023
16.0193 -8.61762 -22.7013
16.08 -8.47891 -22.7002
16.1406 -8.34019 -22.6992
16.673 -8.00904 -22.686
16.7336 -7.87033 -22.685
16.7942 -7.73161 -22.6839
16.7605 -7.63138 -22.6853
16.7268 -7.53115 -22.6866
17.1648 -7.23849 -22.6759
17.2255 -7.09977 -22.6748
17.2861 -6.96106 -22.6738
17.2524 -6.86083 -22.6751
17.313 -6.72211 -22.6741
17.2793 -6.62188 -22.6754
17.2456 -6.52165 -22.6768
17.3062 -6.38293 -22.6757
17.3668 -6.24422 -22.6747
17.3331 -6.14399 -22.6761
17.3938 -6.00527 -22.675
17.36 -5.90504 -22.6764
17.3263 -5.80481 -22.6777
17.2926 -5.70458 -22.6791
17.3532 -5.56586 -22.678
17.3195 -5.46564 -22.6794
17.2858 -5.36541 -22.6808
17.2521 -5.26518 -22.6821
17.2184 -5.16495 -22.6835
17.1847 -5.06471 -22.6849
17.1509 -4.96449 -22.6862
17.1172 -4.86426 -22.6876
17.0835 -4.76403 -22.689
17.0498 -4.6638 -22.6903
17.0161 -4.56357 -22.6917
16.9824 -4.46334 -22.6931
17.043 -4.32462 -22.692
17.0093 -4.22439 -22.6934
16.9756 -4.12416 -22.6947
16.8475 -4.06242 -22.6985
16.8138 -3.96219 -22.6999
16.7801 -3.86196 -22.7012
16.7463 -3.76173 -22.7026
16.7126 -3.6615 -22.704
16.6789 -3.56127 -22.7054
16.6452 -3.46104 -22.7067
16.5171 -3.39929 -22.7105
16.4834 -3.29906 -22.7119
16.3553 -3.23732 -22.7157
16.3216 -3.13709 -22.717
16.0992 -3.11383 -22.7232
16.0655 -3.0136 -22.7246
15.9374 -2.95186 -22.7284
15.6207 -2.96709 -22.737
15.4926 -2.90535 -22.7408
15.4589 -2.80512 -22.7422
15.4252 -2.70489 -22.7436
15.3914 -2.60465 -22.7449
15.3577 -2.50442 -22.7463
15.2297 -2.44268 -22.7501
15.1959 -2.34245 -22.7514
15.1622 -2.24222 -22.7528
15.0342 -2.18048 -22.7566
15.0004 -2.08025 -22.758
14.9667 -1.98002 -22.7593
14.933 -1.87979 -22.7607
14.8049 -1.81805 -22.7645
14.7712 -1.71782 -22.7659
14.7375 -1.61759 -22.7672
14.7038 -1.51736 -22.7686
14.6701 -1.41713 -22.7699
14.7307 -1.27841 -22.7689
14.697 -1.17818 -22.7702
14.6633 -1.07795 -22.7716
14.6296 -0.97772 -22.773
14.5958 -0.87749 -22.7744
14.4678 -0.815747 -22.7781
14.4341 -0.715518 -22.7795
14.4003 -0.615288 -22.7809
14.3666 -0.515057 -22.7822
14.3329 -0.414828 -22.7836
14.2992 -0.314598 -22.785
14.2655 -0.214368 -22.7863
14.2317 -0.114139 -22.7877
14.198 -0.0139079 -22.7891
14.1643 0.0863218 -22.7904
14.1306 0.186552 -22.7918
14.0969 0.286781 -22.7932
14.0632 0.387012 -22.7945
14.0294 0.487241 -22.7959
14.0901 0.62596 -22.7948
14.0564 0.72619 -22.7962
14.0226 0.826418 -22.7976
13.9889 0.926649 -22.7989
13.9552 1.02688 -22.8003
13.9215 1.12711 -22.8017
13.8878 1.22734 -22.803
13.8541 1.32757 -22.8044
13.8203 1.4278 -22.8058
13.7866 1.52803 -22.8071
13.7529 1.62826 -22.8085
13.7192 1.72849 -22.8099
13.7798 1.8672 -22.8088
13.7461 1.96743 -22.8102
13.7124 2.06767 -22.8115
13.773 2.20638 -22.8105
13.7393 2.30661 -22.8119
13.7056 2.40684 -22.8132
13.6719 2.50707 -22.8146
13.6382 2.6073 -22.8159
13.6044 2.70753 -22.8173
13.6651 2.84625 -22.8163
13.6314 2.94648 -22.8176
13.5976 3.04671 -22.819
13.5639 3.14694 -22.8204
13.5302 3.24717 -22.8217
13.4965 3.3474 -22.8231
13.4628 3.44763 -22.8245
13.4291 3.54786 -22.8258
13.3953 3.64809 -22.8272
13.3616 3.74832 -22.8286
13.3279 3.84854 -22.8299
13.2942 3.94878 -22.8313
13.3548 4.08749 -22.8302
13.3211 4.18772 -22.8316
13.2874 4.28795 -22.833
13.348 4.42667 -22.8319
13.3143 4.5269 -22.8333
13.2806 4.62713 -22.8346
13.2469 4.72736 -22.836
13.3075 4.86607 -22.8349
13.2738 4.9663 -22.8363
13.2401 5.06653 -22.8377
13.2063 5.16676 -22.8391
13.267 5.30548 -22.838
13.2333 5.40571 -22.8394
13.1995 5.50594 -22.8407
13.1658 5.60617 -22.8421
13.1321 5.7064 -22.8434
13.1927 5.84512 -22.8424
13.159 5.94535 -22.8438
13.1253 6.04558 -22.8451
13.1859 6.18429 -22.8441
13.1522 6.28452 -22.8454
13.1185 6.38475 -22.8468
13.1791 6.52347 -22.8457
13.1454 6.6237 -22.8471
13.1117 6.72393 -22.8485
13.078 6.82416 -22.8498
13.0443 6.92439 -22.8512
13.1049 7.06311 -22.8501
13.0712 7.16333 -22.8515
13.1318 7.30205 -22.8505
13.0981 7.40228 -22.8518
13.0644 7.50251 -22.8532
13.125 7.64123 -22.8521
13.0913 7.74146 -22.8535
13.1519 7.88017 -22.8524
13.1182 7.9804 -22.8538
13.0845 8.08063 -22.8552
13.0508 8.18086 -22.8565
13.0171 8.28109 -22.8579
12.9833 8.38132 -22.8593
12.9496 8.48155 -22.8606
12.9159 8.58178 -22.862
12.8822 8.68201 -22.8634
12.8485 8.78224 -22.8647
12.8148 8.88247 -22.8661
12.6867 8.94421 -22.8699
12.5586 9.00596 -22.8737
12.4306 9.0677 -22.8775
12.3968 9.16793 -22.8788
12.2688 9.22968 -22.8826
12.2351 9.3299 -22.884
11.8239 9.27619 -22.8951
11.6959 9.33794 -22.8988
11.2848 9.28422 -22.9099
11.2511 9.38445 -22.9113
11.2173 9.48468 -22.9126
11.0893 9.54642 -22.9164
11.0556 9.64665 -22.9178
10.9275 9.7084 -22.9216
10.8938 9.80862 -22.9229
10.7657 9.87037 -22.9267
10.6376 9.93211 -22.9305
10.3209 9.91688 -22.9391
10.0041 9.90165 -22.9478
9.97039 10.0019 -22.9492
9.84232 10.0636 -22.9529
9.80861 10.1639 -22.9543
9.58619 10.1871 -22.9605
9.08073 10.0949 -22.974
9.04701 10.1951 -22.9754
8.91895 10.2569 -22.9792
8.88523 10.3571 -22.9805
8.85151 10.4573 -22.9819
8.72345 10.5191 -22.9857
8.59538 10.5808 -22.9895
8.46731 10.6426 -22.9933
17.0198 -4.39448 -22.7806
17.0654 -4.16353 -22.7771
17.0486 -4.01308 -22.776
17.0317 -3.86263 -22.775
16.9524 -3.79269 -22.7764
16.9355 -3.64224 -22.7753
16.8562 -3.5723 -22.7767
16.8394 -3.42185 -22.7756
16.7601 -3.3519 -22.777
16.7432 -3.20146 -22.7759
16.6639 -3.13152 -22.7773
16.5846 -3.06158 -22.7787
16.5053 -2.99163 -22.78
16.4259 -2.92169 -22.7814
16.3466 -2.85174 -22.7827
16.2049 -2.8623 -22.7865
16.1255 -2.79236 -22.7879
16.0462 -2.72242 -22.7893
15.9669 -2.65247 -22.7906
15.8876 -2.58253 -22.792
15.8707 -2.43209 -22.7909
15.7914 -2.36214 -22.7923
15.7121 -2.2922 -22.7937
15.6328 -2.22226 -22.795
15.5535 -2.15231 -22.7964
15.4742 -2.08237 -22.7978
15.3949 -2.01243 -22.7991
15.3155 -1.94248 -22.8005
15.2362 -1.87254 -22.8019
15.1569 -1.8026 -22.8032
15.0151 -1.81316 -22.807
14.9358 -1.74321 -22.8084
14.8565 -1.67327 -22.8098
14.8397 -1.52282 -22.8087
14.8853 -1.29187 -22.8052
14.8684 -1.14142 -22.8042
14.7891 -1.07148 -22.8055
14.7723 -0.921031 -22.8045
14.6929 -0.85109 -22.8058
14.6761 -0.700641 -22.8048
14.5968 -0.630698 -22.8062
14.5799 -0.480249 -22.8051
14.5631 -0.3298 -22.804
14.4838 -0.25986 -22.8054
14.4044 -0.189917 -22.8068
14.3876 -0.0394683 -22.8057
14.3083 0.0304751 -22.8071
14.229 0.10042 -22.8084
14.1497 0.170361 -22.8098
14.1328 0.320811 -22.8087
14.0535 0.390755 -22.8101
14.0366 0.541201 -22.8091
13.9573 0.611144 -22.8104
13.9405 0.76159 -22.8094
13.9236 0.912041 -22.8083
13.9068 1.06249 -22.8073
13.8275 1.13243 -22.8086
13.8106 1.28288 -22.8076
13.7938 1.43333 -22.8065
13.7769 1.58378 -22.8055
13.6976 1.65372 -22.8068
13.6808 1.80417 -22.8058
13.6014 1.87411 -22.8071
13.5221 1.94405 -22.8085
13.4428 2.014 -22.8099
13.426 2.16444 -22.8088
13.3466 2.23439 -22.8102
13.4547 2.54584 -22.8043
13.5628 2.8573 -22.7984
13.546 3.00775 -22.7973
13.4666 3.07769 -22.7987
13.4498 3.22814 -22.7976
13.4329 3.37859 -22.7966
13.4161 3.52904 -22.7955
13.3992 3.67948 -22.7944
13.3824 3.82994 -22.7934
13.3031 3.89988 -22.7948
13.2862 4.05032 -22.7937
13.2069 4.12027 -22.7951
13.1901 4.27072 -22.794
13.1732 4.42117 -22.7929
13.1564 4.57161 -22.7919
13.0771 4.64155 -22.7933
12.9977 4.7115 -22.7946
12.9184 4.78144 -22.796
12.8391 4.85138 -22.7973
12.9472 5.16284 -22.7914
12.9303 5.31329 -22.7904
13.1009 5.70525 -22.7821
13.084 5.8557 -22.781
13.0672 6.00615 -22.78
13.0503 6.15659 -22.7789
12.971 6.22654 -22.7803
12.9542 6.37699 -22.7792
12.8749 6.44693 -22.7806
12.9205 6.67788 -22.7771
12.9661 6.90883 -22.7736
12.9492 7.05928 -22.7726
12.8699 7.12923 -22.7739
12.8531 7.27967 -22.7729
12.8362 7.43012 -22.7718
12.8819 7.66107 -22.7683
12.865 7.81152 -22.7673
12.8482 7.96197 -22.7662
12.8938 8.19292 -22.7627
12.8769 8.34337 -22.7617
12.8601 8.49382 -22.7606
12.8432 8.64427 -22.7596
12.7639 8.71421 -22.7609
12.6846 8.78415 -22.7623
12.6053 8.85409 -22.7637
12.5884 9.00455 -22.7626
12.5091 9.07449 -22.764
12.4298 9.14443 -22.7653
12.3505 9.21438 -22.7667
12.2712 9.28432 -22.7681
12.2543 9.43476 -22.767
12.175 9.50471 -22.7684
12.0957 9.57465 -22.7697
12.0164 9.64459 -22.7711
11.9371 9.71453 -22.7725
11.8577 9.78448 -22.7738
11.7784 9.85442 -22.7752
11.6367 9.84386 -22.779
11.5573 9.91381 -22.7803
11.478 9.98375 -22.7817
11.3362 9.97319 -22.7855
11.2569 10.0431 -22.7869
11.1151 10.0326 -22.7907
10.9734 10.022 -22.7944
10.894 10.0919 -22.7958
10.8147 10.1619 -22.7972
10.673 10.1513 -22.801
10.5936 10.2213 -22.8023
10.5143 10.2912 -22.8037
10.435 10.3612 -22.8051
10.2932 10.3506 -22.8089
10.2139 10.4205 -22.8102
10.0721 10.41 -22.814
9.93036 10.3994 -22.8178
9.78857 10.3889 -22.8216
9.70926 10.4588 -22.823
9.56748 10.4482 -22.8268
9.48816 10.5182 -22.8281
9.34639 10.5076 -22.8319
9.26707 10.5776 -22.8333
9.12529 10.567 -22.8371
9.04598 10.6369 -22.8384
8.90419 10.6264 -22.8422
8.82488 10.6963 -22.8436
8.6831 10.6858 -22.8474
8.54132 10.6752 -22.8512
8.39954 10.6646 -22.8549
8.32022 10.7346 -22.8563
8.24091 10.8045 -22.8577
8.09913 10.794 -22.8615
8.01981 10.8639 -22.8628
7.9405 10.9339 -22.8642
7.79872 10.9233 -22.868
7.71941 10.9932 -22.8694
7.57763 10.9827 -22.8732
7.43584 10.9721 -22.8769
7.29406 10.9616 -22.8807
7.21475 11.0315 -22.8821
7.13544 11.1014 -22.8835
7.05612 11.1714 -22.8848
6.91434 11.1608 -22.8886
6.77256 11.1503 -22.8924
6.63078 11.1397 -22.8962
6.489 11.1291 -22.9
6.34722 11.1186 -22.9038
6.20544 11.108 -22.9076
6.12612 11.178 -22.9089
5.98434 11.1674 -22.9127
5.78009 11.0763 -22.9189
5.57585 10.9853 -22.9251
5.43407 10.9747 -22.9289
5.35475 11.0446 -22.9303
5.21298 11.0341 -22.9341
12.6391 9.09862 -22.761
12.5493 9.22049 -22.76
12.4595 9.34235 -22.7589
12.3558 9.36327 -22.7603
12.2799 9.58609 -22.7568
12.1901 9.70796 -22.7558
12.1002 9.82983 -22.7547
11.9966 9.85074 -22.7561
11.8929 9.87165 -22.7574
11.7893 9.89257 -22.7588
11.6856 9.91349 -22.7602
11.5958 10.0354 -22.7591
11.506 10.1572 -22.758
11.4162 10.2791 -22.757
11.3125 10.3 -22.7583
11.2088 10.3209 -22.7597
11.1052 10.3418 -22.7611
11.0015 10.3627 -22.7625
10.8979 10.3837 -22.7638
10.7942 10.4046 -22.7652
10.6905 10.4255 -22.7666
10.5869 10.4464 -22.7679
10.4832 10.4673 -22.7693
10.3934 10.5892 -22.7682
10.2897 10.6101 -22.7696
10.1999 10.732 -22.7685
10.0963 10.7529 -22.7699
9.9926 10.7738 -22.7713
9.88894 10.7947 -22.7726
9.78528 10.8156 -22.774
9.66778 10.7356 -22.7778
9.57796 10.8575 -22.7767
9.4743 10.8784 -22.7781
9.38448 11.0002 -22.777
9.28082 11.0212 -22.7784
9.17716 11.0421 -22.7798
9.0735 11.063 -22.7811
8.96984 11.0839 -22.7825
8.86618 11.1048 -22.7839
8.76252 11.1257 -22.7852
8.65886 11.1466 -22.7866
8.5552 11.1676 -22.788
8.46539 11.2894 -22.7869
8.36173 11.3104 -22.7883
8.25807 11.3313 -22.7896
8.15441 11.3522 -22.791
8.05075 11.3731 -22.7924
7.94709 11.394 -22.7937
7.84343 11.4149 -22.7951
7.73977 11.4358 -22.7965
7.6361 11.4568 -22.7978
7.53244 11.4777 -22.7992
7.42879 11.4986 -22.8006
7.32513 11.5195 -22.8019
7.22146 11.5404 -22.8033
7.1178 11.5613 -22.8047
7.01414 11.5822 -22.806
6.91048 11.6032 -22.8074
6.80682 11.6241 -22.8088
6.68932 11.544 -22.8126
6.58566 11.565 -22.8139
6.482 11.5859 -22.8153
6.37834 11.6068 -22.8167
6.26083 11.5267 -22.8204
6.15717 11.5477 -22.8218
6.05351 11.5686 -22.8232
5.94985 11.5895 -22.8245
5.84619 11.6104 -22.8259
5.74253 11.6313 -22.8273
5.63887 11.6522 -22.8286
5.52137 11.5722 -22.8324
5.41771 11.5931 -22.8338
5.3002 11.5131 -22.8376
5.19654 11.534 -22.8389
5.07904 11.454 -22.8427
4.96153 11.3739 -22.8465
4.85787 11.3948 -22.8479
4.74037 11.3148 -22.8517
4.63671 11.3357 -22.853
4.53305 11.3566 -22.8544
4.41555 11.2766 -22.8582
4.32573 11.3985 -22.8571
4.22207 11.4194 -22.8585
4.11841 11.4403 -22.8599
4.01475 11.4612 -22.8612
3.89724 11.3812 -22.865
3.79359 11.4021 -22.8664
3.67608 11.322 -22.8702
3.55858 11.242 -22.874
3.44107 11.162 -22.8778
3.32357 11.0819 -22.8816
3.21991 11.1029 -22.8829
3.11625 11.1238 -22.8843
3.01259 11.1447 -22.8857
2.90893 11.1656 -22.887
2.80527 11.1865 -22.8884
2.68776 11.1065 -22.8922
2.5841 11.1274 -22.8935
2.4666 11.0474 -22.8973
2.34909 10.9673 -22.9011
2.23159 10.8873 -22.9049
2.11408 10.8072 -22.9087
1.99658 10.7272 -22.9125
1.87907 10.6472 -22.9163
1.76157 10.5671 -22.9201
1.65791 10.588 -22.9214
1.5404 10.508 -22.9252
1.43674 10.5289 -22.9266
1.3054 10.3479 -22.9328
1.18789 10.2679 -22.9366
1.07039 10.1879 -22.9404
0.952884 10.1078 -22.9442
0.835378 10.0278 -22.948
0.717875 9.94775 -22.9517
0.586523 9.76676 -22.958
0.469021 9.68673 -22.9617
0.337669 9.50574 -22.968
0.164791 9.02189 -22.9814
0.0611297 9.04281 -22.9828
-0.0563754 8.96277 -22.9866
-0.160035 8.98369 -22.988
-0.277541 8.90365 -22.9917
-0.395044 8.82362 -22.9955
-0.498703 8.84453 -22.9969
-0.616209 8.76449 -23.0007
-0.761402 8.48255 -23.0093
11.2042 10.2371 -22.8488
11.0655 10.2978 -22.8477
10.9653 10.264 -22.8491
10.8266 10.3247 -22.848
10.6879 10.3853 -22.847
10.5491 10.4459 -22.8459
10.4104 10.5066 -22.8449
10.2717 10.5672 -22.8438
10.0945 10.7222 -22.8403
9.91731 10.8772 -22.8369
9.77859 10.9378 -22.8358
9.67836 10.9041 -22.8372
9.53964 10.9647 -22.8361
9.40093 11.0253 -22.8351
9.26221 11.086 -22.834
9.1235 11.1466 -22.8329
8.98478 11.2072 -22.8319
8.84606 11.2679 -22.8308
8.74583 11.2342 -22.8322
8.6456 11.2004 -22.8336
8.50689 11.2611 -22.8325
8.40666 11.2274 -22.8339
8.26794 11.288 -22.8328
8.12922 11.3486 -22.8317
7.99051 11.4093 -22.8307
7.85179 11.4699 -22.8296
7.75156 11.4362 -22.831
7.65133 11.4024 -22.8324
7.51262 11.4631 -22.8313
7.41238 11.4294 -22.8327
7.31216 11.3956 -22.834
7.17344 11.4563 -22.833
7.03472 11.5169 -22.8319
6.93449 11.4832 -22.8333
6.79577 11.5438 -22.8322
6.69555 11.5101 -22.8336
6.59532 11.4764 -22.835
6.49509 11.4427 -22.8363
6.39486 11.409 -22.8377
6.29463 11.3752 -22.8391
6.15591 11.4359 -22.838
6.01719 11.4965 -22.8369
5.87848 11.5571 -22.8359
5.73976 11.6178 -22.8348
5.60105 11.6784 -22.8338
5.50082 11.6447 -22.8351
5.40059 11.611 -22.8365
5.33884 11.4829 -22.8403
5.23861 11.4492 -22.8417
5.0999 11.5098 -22.8406
4.99967 11.4761 -22.842
4.86095 11.5367 -22.8409
4.76072 11.503 -22.8423
4.622 11.5636 -22.8412
4.52177 11.5299 -22.8426
4.38306 11.5906 -22.8415
4.24434 11.6512 -22.8405
4.10562 11.7118 -22.8394
4.00539 11.6781 -22.8408
3.90517 11.6444 -22.8421
3.80493 11.6107 -22.8435
3.70471 11.577 -22.8449
3.60447 11.5432 -22.8463
3.50425 11.5095 -22.8476
3.40402 11.4758 -22.849
3.30379 11.4421 -22.8503
3.24204 11.314 -22.8541
3.14181 11.2803 -22.8555
3.04158 11.2466 -22.8569
2.94135 11.2129 -22.8582
2.84112 11.1792 -22.8596
2.74089 11.1454 -22.861
2.64066 11.1117 -22.8623
2.54043 11.078 -22.8637
2.47869 10.9499 -22.8675
2.37846 10.9162 -22.8689
2.27823 10.8825 -22.8702
2.178 10.8488 -22.8716
2.07777 10.8151 -22.873
1.93905 10.8757 -22.8719
1.83882 10.842 -22.8733
1.77708 10.7139 -22.877
1.67685 10.6802 -22.8784
1.57662 10.6465 -22.8798
1.47639 10.6128 -22.8811
1.37616 10.5791 -22.8825
1.27593 10.5453 -22.8839
1.1757 10.5116 -22.8853
1.07547 10.4779 -22.8866
1.01373 10.3498 -22.8904
0.913495 10.3161 -22.8918
0.851753 10.1881 -22.8956
0.751524 10.1543 -22.8969
0.651294 10.1206 -22.8983
0.551063 10.0869 -22.8997
0.450833 10.0532 -22.901
0.389089 9.92512 -22.9048
0.327346 9.79705 -22.9086
0.265602 9.66898 -22.9124
0.165372 9.63527 -22.9138
0.0651417 9.60155 -22.9151
-0.0350869 9.56783 -22.9165
-0.135317 9.53411 -22.9178
-0.235547 9.5004 -22.9192
-0.335778 9.46668 -22.9206
-0.436008 9.43297 -22.922
-0.536236 9.39925 -22.9233
-0.597981 9.27118 -22.9271
-0.69821 9.23746 -22.9285
-0.79844 9.20375 -22.9298
-0.860186 9.07568 -22.9336
-0.960414 9.04196 -22.935
-1.02216 8.9139 -22.9388
-1.12239 8.88018 -22.9402
-1.22262 8.84647 -22.9415
-1.32285 8.81275 -22.9429
-1.42308 8.77903 -22.9442
-1.48482 8.65096 -22.948
-1.54657 8.5229 -22.9518
-1.56982 8.30048 -22.958
-1.63157 8.17242 -22.9618
-1.7318 8.1387 -22.9632
-1.79354 8.01063 -22.967
-1.85528 7.88257 -22.9708
-1.95551 7.84885 -22.9721
-2.01726 7.72078 -22.9759
-2.079 7.59272 -22.9797
-2.14074 7.46465 -22.9835
-2.24097 7.43094 -22.9849
-2.3412 7.39722 -22.9862
-2.40294 7.26915 -22.99
-2.46469 7.14109 -22.9938
-2.52643 7.01302 -22.9976
-2.58818 6.88495 -23.0014
-2.68841 6.85124 -23.0028
-2.75015 6.72317 -23.0065
-2.81189 6.5951 -23.0103
-2.91212 6.56139 -23.0117
-2.97387 6.43332 -23.0155
-3.0741 6.39961 -23.0169
-3.21281 6.46023 -23.0158
-3.27456 6.33217 -23.0196
-3.37479 6.29845 -23.021
-3.43653 6.17039 -23.0247
-3.53676 6.13667 -23.0261
-3.5985 6.0086 -23.0299
-3.69873 5.97489 -23.0313
-3.79896 5.94117 -23.0326
-3.86071 5.81311 -23.0364
-3.92245 5.68503 -23.0402
-3.9842 5.55697 -23.044
-4.04594 5.42891 -23.0478
-4.10768 5.30084 -23.0516
-4.09245 4.98408 -23.0602
-4.1542 4.85601 -23.064
-4.25443 4.82229 -23.0654
-4.31617 4.69423 -23.0692
-4.4164 4.66051 -23.0705
-4.51663 4.62679 -23.0719
-4.61686 4.59307 -23.0733
-4.6786 4.46501 -23.077
-4.66337 4.14825 -23.0857
4.00134 12.115 -22.9041
3.85089 12.0981 -22.9031
3.53943 12.2062 -22.8972
3.46949 12.1269 -22.8985
3.31905 12.1101 -22.8975
3.2491 12.0307 -22.8988
3.17916 11.9514 -22.9002
3.10921 11.8721 -22.9016
3.03927 11.7928 -22.9029
2.96933 11.7135 -22.9043
2.81888 11.6966 -22.9033
2.74894 11.6173 -22.9046
2.59849 11.6005 -22.9036
2.44804 11.5836 -22.9025
2.2976 11.5668 -22.9014
2.22765 11.4875 -22.9028
2.0772 11.4706 -22.9018
1.92676 11.4538 -22.9007
1.7763 11.4369 -22.8996
1.62586 11.4201 -22.8986
1.47541 11.4032 -22.8975
1.40547 11.3239 -22.8989
1.25502 11.3071 -22.8978
1.18508 11.2277 -22.8992
1.11513 11.1484 -22.9006
1.04519 11.0691 -22.9019
0.975247 10.9898 -22.9033
0.905303 10.9105 -22.9047
0.835362 10.8312 -22.906
0.765418 10.7519 -22.9074
0.695475 10.6725 -22.9088
0.54503 10.6557 -22.9077
0.394579 10.6388 -22.9066
0.324637 10.5595 -22.908
0.17419 10.5427 -22.907
0.104245 10.4634 -22.9083
0.0343018 10.384 -22.9097
-0.0356421 10.3047 -22.9111
-0.105583 10.2254 -22.9124
-0.256031 10.2086 -22.9114
-0.406479 10.1917 -22.9103
-0.476423 10.1124 -22.9117
-0.546364 10.0331 -22.913
-0.616307 9.95377 -22.9144
-0.686251 9.87446 -22.9158
-0.756195 9.79515 -22.9171
-0.826138 9.71583 -22.9185
-0.896079 9.63651 -22.9199
-0.966023 9.5572 -22.9212
-1.03597 9.47789 -22.9226
-1.10591 9.39857 -22.924
-1.17585 9.31926 -22.9253
-1.24579 9.23994 -22.9267
-1.31574 9.16063 -22.9281
-1.38568 9.08131 -22.9294
-1.45563 9.002 -22.9308
-1.60608 8.98515 -22.9297
-1.67602 8.90583 -22.9311
-1.74596 8.82652 -22.9325
-1.89641 8.80967 -22.9314
-1.96635 8.73036 -22.9328
-2.1168 8.7135 -22.9317
-2.18674 8.63419 -22.9331
-2.25668 8.55487 -22.9345
-2.32663 8.47556 -22.9358
-2.31607 8.33378 -22.9396
-2.38601 8.25447 -22.941
-2.45596 8.17515 -22.9424
-2.5259 8.09584 -22.9437
-2.59584 8.01653 -22.9451
-2.58528 7.87474 -22.9489
-2.65522 7.79543 -22.9502
-2.72516 7.71611 -22.9516
-2.79511 7.6368 -22.953
-2.86505 7.55748 -22.9543
-2.93499 7.47817 -22.9557
-3.00494 7.39885 -22.9571
-3.07488 7.31954 -22.9584
-3.14482 7.24022 -22.9598
-3.21477 7.16091 -22.9612
-3.28471 7.08159 -22.9625
-3.35465 7.00228 -22.9639
-3.4246 6.92297 -22.9653
-3.49454 6.84365 -22.9666
-3.56448 6.76434 -22.968
-3.63442 6.68502 -22.9694
-3.70437 6.60571 -22.9707
-3.77431 6.52639 -22.9721
-3.84425 6.44708 -22.9734
-3.9142 6.36776 -22.9748
-3.98414 6.28845 -22.9762
-4.13459 6.2716 -22.9751
-4.20453 6.19229 -22.9765
-4.27448 6.11297 -22.9779
-4.34442 6.03366 -22.9792
-4.41436 5.95434 -22.9806
-4.48431 5.87503 -22.982
-4.55425 5.79571 -22.9833
-4.62419 5.7164 -22.9847
-4.69414 5.63708 -22.9861
-4.76408 5.55777 -22.9874
-4.75352 5.41599 -22.9912
-4.82346 5.33667 -22.9926
-4.8934 5.25736 -22.9939
-4.96334 5.17804 -22.9953
-5.03329 5.09873 -22.9967
-5.10323 5.01941 -22.998
-5.17317 4.9401 -22.9994
-5.24312 4.86078 -23.0008
-5.31306 4.78147 -23.0021
-5.3025 4.63969 -23.0059
-5.37244 4.56038 -23.0073
-5.44239 4.48106 -23.0087
-5.43183 4.33928 -23.0125
-5.50177 4.25996 -23.0138
-5.49121 4.11819 -23.0176
-5.56115 4.03887 -23.019
-5.63109 3.95956 -23.0203
-5.70104 3.88024 -23.0217
-5.77098 3.80093 -23.0231
-5.76042 3.65915 -23.0269
-5.83036 3.57983 -23.0282
-5.8198 3.43805 -23.032
-5.80924 3.29627 -23.0358
-5.87918 3.21696 -23.0372
-5.86862 3.07518 -23.041
-5.93856 2.99586 -23.0423
-6.00851 2.91655 -23.0437
-5.99794 2.77476 -23.0475
-6.06789 2.69545 -23.0488
-6.13783 2.61614 -23.0502
-6.20777 2.53682 -23.0516
-6.19721 2.39504 -23.0554
-3.45701 7.17821 -22.9786
-3.47793 7.07455 -22.98
-3.49884 6.97089 -22.9814
-3.51976 6.86723 -22.9827
-3.74258 6.79126 -22.9793
-3.9654 6.71529 -22.9758
-4.08726 6.62547 -22.9747
-4.61294 6.59103 -22.964
-4.63385 6.48737 -22.9653
-4.75572 6.39756 -22.9643
-4.77663 6.29389 -22.9657
-4.79755 6.19023 -22.967
-4.81846 6.08657 -22.9684
-4.83938 5.98291 -22.9697
-4.96125 5.8931 -22.9687
-4.98216 5.78944 -22.9701
-5.00308 5.68578 -22.9714
-5.02399 5.58212 -22.9728
-5.04491 5.47846 -22.9742
-5.16678 5.38864 -22.9731
-5.18769 5.28498 -22.9745
-5.30956 5.19517 -22.9734
-5.33047 5.09151 -22.9748
-5.45234 5.00169 -22.9737
-5.47325 4.89803 -22.9751
-5.59512 4.80821 -22.974
-5.81794 4.73224 -22.9706
-5.93981 4.64243 -22.9695
-6.06168 4.55261 -22.9684
-6.08259 4.44895 -22.9698
-6.1035 4.34529 -22.9712
-6.12442 4.24163 -22.9725
-6.14534 4.13797 -22.9739
-6.16625 4.03431 -22.9753
-6.18716 3.93065 -22.9766
-6.40998 3.85468 -22.9731
-6.4309 3.75102 -22.9745
-6.55277 3.6612 -22.9734
-6.57368 3.55754 -22.9748
-6.59459 3.45388 -22.9762
-6.51456 3.33638 -22.98
-6.53547 3.23272 -22.9813
-6.55639 3.12906 -22.9827
-6.57731 3.0254 -22.9841
-6.69917 2.93558 -22.983
-6.72009 2.83192 -22.9844
-6.84196 2.74211 -22.9833
-6.86287 2.63844 -22.9847
-6.88379 2.53478 -22.9861
-6.9047 2.43113 -22.9874
-6.92562 2.32746 -22.9888
-6.94653 2.2238 -22.9902
-6.96745 2.12014 -22.9915
-6.98836 2.01648 -22.9929
-7.00928 1.91283 -22.9942
-7.03019 1.80916 -22.9956
-6.95015 1.69166 -22.9994
-6.97107 1.588 -23.0008
-6.99198 1.48434 -23.0021
-6.91195 1.36683 -23.0059
-6.93286 1.26317 -23.0073
-6.95378 1.15951 -23.0087
-6.97469 1.05585 -23.01
-6.89465 0.938349 -23.0138
-6.91557 0.834689 -23.0152
-6.93649 0.731028 -23.0166
-6.85645 0.613524 -23.0203
-6.87737 0.509864 -23.0217
-6.89828 0.406204 -23.0231
-6.81824 0.288701 -23.0269
-6.83916 0.185039 -23.0282
-6.75912 0.0675335 -23.032
-6.57813 -0.0638152 -23.0382
-6.39715 -0.195162 -23.0444
-6.62999 3.67094 -22.9809
-6.69063 3.53222 -22.9799
-6.75126 3.39351 -22.9788
-6.71754 3.29328 -22.9802
-6.77817 3.15456 -22.9791
-7.31055 2.82341 -22.966
-7.46553 2.64621 -22.9625
-7.52616 2.50749 -22.9614
-7.49244 2.40726 -22.9628
-7.55308 2.26855 -22.9617
-7.51936 2.16832 -22.9631
-7.48565 2.06809 -22.9645
-7.45193 1.96786 -22.9658
-7.51256 1.82914 -22.9648
-7.47884 1.72891 -22.9661
-7.44512 1.62868 -22.9675
-7.41141 1.52845 -22.9689
-7.47204 1.38974 -22.9678
-7.43832 1.28951 -22.9692
-7.4046 1.18928 -22.9706
-7.37089 1.08905 -22.9719
-7.43152 0.950328 -22.9709
-7.3978 0.8501 -22.9722
-7.45843 0.711383 -22.9712
-7.42472 0.611152 -22.9725
-7.391 0.510922 -22.9739
-7.45163 0.372206 -22.9728
-7.41791 0.271978 -22.9742
-7.3842 0.171747 -22.9756
-7.35048 0.0715172 -22.9769
-7.31677 -0.0287123 -22.9783
-7.28305 -0.128944 -22.9797
-7.24933 -0.229172 -22.981
-7.21561 -0.329403 -22.9824
-7.1819 -0.429633 -22.9838
-7.14818 -0.529863 -22.9851
-7.11446 -0.630093 -22.9865
-7.08075 -0.730322 -22.9879
-7.04703 -0.830553 -22.9892
-7.01331 -0.930782 -22.9906
-6.88525 -0.992528 -22.9944
-6.85153 -1.09276 -22.9958
-6.81781 -1.19298 -22.9971
-6.7841 -1.29322 -22.9985
-6.75038 -1.39345 -22.9998
-6.71666 -1.49368 -23.0012
-6.68294 -1.59391 -23.0026
-6.64923 -1.69413 -23.004
-6.61551 -1.79437 -23.0053
-6.58179 -1.8946 -23.0067
-6.45373 -1.95634 -23.0105
-6.42001 -2.05657 -23.0118
-6.38629 -2.1568 -23.0132
-6.35258 -2.25703 -23.0146
-6.31886 -2.35726 -23.0159
-6.19079 -2.419 -23.0197
-6.15707 -2.51923 -23.0211
-6.12336 -2.61946 -23.0224
-6.08964 -2.71969 -23.0238
-6.05592 -2.81992 -23.0252
-5.92786 -2.88167 -23.029
-5.89414 -2.98189 -23.0303
-5.86043 -3.08212 -23.0317
-5.73236 -3.14387 -23.0355
-5.69864 -3.2441 -23.0369
-5.66492 -3.34433 -23.0382
-5.63121 -3.44456 -23.0396
-5.59749 -3.54479 -23.041
-5.56378 -3.64502 -23.0423
-5.53006 -3.74525 -23.0437
-5.49634 -3.84548 -23.0451
-5.46262 -3.94571 -23.0464
-5.33455 -4.00745 -23.0502
-5.30084 -4.10768 -23.0516
-5.26712 -4.20791 -23.0529
-5.2334 -4.30814 -23.0543
-5.19969 -4.40837 -23.0557
-5.16597 -4.5086 -23.057
-5.13225 -4.60883 -23.0584
-5.09854 -4.70906 -23.0598
-5.06482 -4.80929 -23.0611
-5.0311 -4.90952 -23.0625
-4.99739 -5.00975 -23.0639
-4.86932 -5.0715 -23.0677
-4.8356 -5.17172 -23.069
-4.80189 -5.27195 -23.0704
-4.76817 -5.37218 -23.0718
-4.73446 -5.47242 -23.0731
-4.60639 -5.53416 -23.0769
-4.57267 -5.63439 -23.0783
-4.53895 -5.73462 -23.0797
-4.50523 -5.83485 -23.081
-4.47152 -5.93508 -23.0824
-4.4378 -6.03531 -23.0837
-4.30973 -6.09705 -23.0875
-4.27602 -6.19728 -23.0889
-4.14795 -6.25902 -23.0927
-4.11424 -6.35925 -23.0941
-4.08052 -6.45948 -23.0954
-4.0468 -6.55971 -23.0968
-4.01308 -6.65994 -23.0982
-3.97937 -6.76017 -23.0995
-3.94565 -6.8604 -23.1009
-3.91193 -6.96063 -23.1022
-3.78387 -7.02238 -23.106
-3.75015 -7.12261 -23.1074
-3.71643 -7.22284 -23.1088
-3.58837 -7.28458 -23.1126
-3.55465 -7.38481 -23.1139
-3.52093 -7.48504 -23.1153
-3.39287 -7.54678 -23.1191
-3.35915 -7.64701 -23.1205
-3.32543 -7.74724 -23.1218
-3.29171 -7.84747 -23.1232
-3.16365 -7.90922 -23.127
-3.12993 -8.00945 -23.1283
-3.09622 -8.10968 -23.1297
-3.0625 -8.20991 -23.1311
-2.93443 -8.27165 -23.1349
-2.90072 -8.37188 -23.1362
-2.77265 -8.43362 -23.14
-2.73893 -8.53385 -23.1414
-2.70521 -8.63408 -23.1427
-2.6715 -8.73431 -23.1441
-2.63778 -8.83454 -23.1455
-2.60406 -8.93477 -23.1469
-2.57035 -9.035 -23.1482
-2.53663 -9.13523 -23.1496
-2.40857 -9.19698 -23.1534
-2.37485 -9.29721 -23.1547
-2.34113 -9.39744 -23.1561
-2.30742 -9.49767 -23.1575
-2.2737 -9.5979 -23.1588
-2.23998 -9.69813 -23.1602
-2.20626 -9.79836 -23.1616
-2.0782 -9.8601 -23.1653
-2.04448 -9.96033 -23.1667
-2.01076 -10.0606 -23.1681
-1.97705 -10.1608 -23.1694
-1.84898 -10.2225 -23.1732
-1.81526 -10.3228 -23.1746
-1.78155 -10.423 -23.176
-1.74783 -10.5232 -23.1773
-1.61976 -10.585 -23.1811
-1.58605 -10.6852 -23.1825
-1.45798 -10.7469 -23.1863
-1.42426 -10.8472 -23.1876
-1.20185 -10.8704 -23.1939
-0.979433 -10.8937 -23.2001
-0.945716 -10.9939 -23.2014
-0.817651 -11.0557 -23.2052
-0.689579 -11.1174 -23.209
-0.561517 -11.1791 -23.2128
-0.527801 -11.2794 -23.2142
-0.494085 -11.3796 -23.2155
-0.366017 -11.4413 -23.2193
-0.332296 -11.5416 -23.2207
-0.204232 -11.6033 -23.2245
-0.07617 -11.6651 -23.2283
0.146247 -11.6883 -23.2345
0.179964 -11.7886 -23.2358
0.308033 -11.8503 -23.2396
0.341748 -11.9505 -23.241
0.469813 -12.0123 -23.2448
0.597878 -12.074 -23.2486
0.725951 -12.1358 -23.2524
0.759668 -12.236 -23.2537
1.26513 -12.1438 -23.2672
