ply
format ascii 1.0
element vertex 1193
property float x
property float y
property float z
element face 0
property list uchar uint vertex_indices
end_header
2.891561 -11.986367 -147.838979
3.042009 -11.969518 -147.837922
3.192457 -11.952669 -147.836865
3.342905 -11.935820 -147.835807
3.573857 -11.981436 -147.832327
3.804810 -12.027053 -147.828847
3.874753 -11.947738 -147.830213
4.025201 -11.930889 -147.829156
4.256153 -11.976505 -147.825676
4.406601 -11.959656 -147.824619
4.476544 -11.880342 -147.825985
4.626992 -11.863492 -147.824927
4.696935 -11.784178 -147.826294
4.847383 -11.767329 -147.825236
5.158840 -11.875410 -147.819333
5.389793 -11.921027 -147.815853
5.540241 -11.904178 -147.814796
5.690689 -11.887329 -147.813739
5.841136 -11.870479 -147.812681
5.911080 -11.791165 -147.814047
5.981023 -11.711850 -147.815414
6.131471 -11.695001 -147.814356
6.201414 -11.615686 -147.815722
6.351862 -11.598837 -147.814665
6.421805 -11.519522 -147.816031
6.572253 -11.502673 -147.814974
6.722700 -11.485824 -147.813917
6.873148 -11.468975 -147.812860
6.943091 -11.389660 -147.814226
7.093539 -11.372811 -147.813169
7.163482 -11.293496 -147.814535
7.233426 -11.214182 -147.815901
7.383873 -11.197333 -147.814844
7.453817 -11.118018 -147.816210
7.523760 -11.038703 -147.817576
7.674208 -11.021854 -147.816519
7.744151 -10.942539 -147.817885
7.894599 -10.925690 -147.816828
7.964542 -10.846376 -147.818194
8.034485 -10.767061 -147.819560
8.184933 -10.750212 -147.818503
8.254876 -10.670897 -147.819869
8.324819 -10.591582 -147.821235
8.394762 -10.512268 -147.822601
8.545210 -10.495419 -147.821544
8.615153 -10.416104 -147.822910
8.685096 -10.336789 -147.824276
8.755040 -10.257475 -147.825642
8.824983 -10.178160 -147.827008
8.894926 -10.098845 -147.828374
8.964869 -10.019530 -147.829740
9.115317 -10.002681 -147.828683
9.185260 -9.923367 -147.830049
9.255203 -9.844052 -147.831415
9.325146 -9.764737 -147.832781
9.395089 -9.685423 -147.834147
9.465033 -9.606108 -147.835513
9.534976 -9.526793 -147.836879
9.604919 -9.447479 -147.838245
9.674862 -9.368164 -147.839611
9.825310 -9.351315 -147.838554
9.895253 -9.272000 -147.839920
9.965196 -9.192685 -147.841286
10.035139 -9.113371 -147.842652
10.024578 -8.971590 -147.846441
10.094521 -8.892276 -147.847807
10.164464 -8.812961 -147.849173
10.234407 -8.733646 -147.850539
10.304351 -8.654332 -147.851905
10.374294 -8.575017 -147.853271
10.363732 -8.433237 -147.857060
10.433675 -8.353922 -147.858426
10.503618 -8.274607 -147.859792
10.573562 -8.195293 -147.861158
10.643505 -8.115978 -147.862524
10.713448 -8.036663 -147.863890
10.783391 -7.957349 -147.865256
10.772830 -7.815568 -147.869045
10.842773 -7.736254 -147.870411
10.912716 -7.656939 -147.871777
10.982659 -7.577624 -147.873143
10.972098 -7.435844 -147.876932
11.042041 -7.356529 -147.878298
11.031479 -7.214749 -147.882088
11.020918 -7.072969 -147.885877
11.090861 -6.993654 -147.887243
11.080299 -6.851874 -147.891032
11.069738 -6.710094 -147.894821
11.139681 -6.630779 -147.896187
11.209624 -6.551464 -147.897553
11.199063 -6.409684 -147.901342
11.269006 -6.330370 -147.902708
11.258444 -6.188589 -147.906497
11.328387 -6.109275 -147.907863
11.317826 -5.967494 -147.911652
11.387769 -5.888180 -147.913018
11.377207 -5.746400 -147.916808
11.366646 -5.604619 -147.920597
11.356084 -5.462839 -147.924386
11.345523 -5.321059 -147.928175
11.334961 -5.179279 -147.931964
11.324400 -5.037498 -147.935753
11.313838 -4.895718 -147.939542
11.303277 -4.753938 -147.943332
11.292715 -4.612158 -147.947121
11.201649 -4.407912 -147.953333
11.110583 -4.203666 -147.959545
11.100021 -4.061886 -147.963334
10.928450 -3.795175 -147.971970
10.837384 -3.590929 -147.978182
10.826823 -3.449149 -147.981971
10.896766 -3.369834 -147.983337
10.886204 -3.228054 -147.987126
10.875643 -3.086273 -147.990915
10.865081 -2.944493 -147.994705
10.854520 -2.802713 -147.998494
10.843958 -2.660933 -148.002283
7.208696 -11.208143 -147.826945
7.532467 -11.146016 -147.821042
7.755285 -11.070044 -147.817562
7.877153 -10.980228 -147.816505
7.999020 -10.890413 -147.815448
8.120887 -10.800597 -147.814391
8.141802 -10.696937 -147.815757
8.263669 -10.607121 -147.814699
8.688392 -10.558838 -147.806373
8.810259 -10.469022 -147.805316
8.831174 -10.365362 -147.806682
8.953041 -10.275546 -147.805625
8.973956 -10.171886 -147.806991
8.994871 -10.068226 -147.808357
9.116738 -9.978410 -147.807300
9.339557 -9.902438 -147.803819
9.562376 -9.826467 -147.800339
9.684243 -9.736651 -147.799282
9.705158 -9.632991 -147.800648
9.827025 -9.543175 -147.799591
9.948892 -9.453359 -147.798534
10.070759 -9.363543 -147.797477
10.091674 -9.259883 -147.798843
10.213541 -9.170068 -147.797786
10.335409 -9.080252 -147.796729
10.356324 -8.976592 -147.798095
10.478191 -8.886776 -147.797037
10.600058 -8.796960 -147.795980
10.620973 -8.693300 -147.797346
10.742840 -8.603484 -147.796289
10.763755 -8.499824 -147.797655
10.784670 -8.396164 -147.799021
10.906537 -8.306348 -147.797964
10.927452 -8.202688 -147.799330
10.948367 -8.099027 -147.800696
10.969283 -7.995367 -147.802062
10.990198 -7.891707 -147.803428
11.011113 -7.788047 -147.804794
11.032028 -7.684387 -147.806160
11.153895 -7.594571 -147.805103
11.174810 -7.490911 -147.806469
11.195725 -7.387251 -147.807835
11.216640 -7.283590 -147.809201
11.237556 -7.179930 -147.810567
11.359423 -7.090114 -147.809510
11.380338 -6.986454 -147.810876
11.401253 -6.882794 -147.812242
11.422168 -6.779134 -147.813608
11.443083 -6.675474 -147.814974
11.463998 -6.571814 -147.816340
11.484913 -6.468153 -147.817706
11.505829 -6.364493 -147.819072
11.526744 -6.260833 -147.820438
11.648611 -6.171017 -147.819381
11.669526 -6.067357 -147.820747
11.589489 -5.949853 -147.824536
11.610404 -5.846193 -147.825902
11.631319 -5.742532 -147.827268
11.652234 -5.638872 -147.828634
11.572198 -5.521368 -147.832424
11.593113 -5.417708 -147.833790
11.614028 -5.314047 -147.835156
11.634943 -5.210387 -147.836522
11.655858 -5.106727 -147.837888
11.676773 -5.003067 -147.839254
11.596737 -4.885562 -147.843043
11.617652 -4.781902 -147.844409
11.638567 -4.678242 -147.845775
11.659482 -4.574582 -147.847141
11.680397 -4.470922 -147.848507
11.701312 -4.367262 -147.849873
11.621275 -4.249757 -147.853662
11.642191 -4.146097 -147.855028
11.663106 -4.042437 -147.856394
11.684021 -3.938777 -147.857760
11.603984 -3.821272 -147.861549
11.523947 -3.703768 -147.865338
11.544862 -3.600108 -147.866704
11.464826 -3.482603 -147.870493
11.485741 -3.378943 -147.871859
11.405704 -3.261438 -147.875649
11.325667 -3.143934 -147.879438
11.245630 -3.026429 -147.883227
11.266546 -2.922769 -147.884593
11.287461 -2.819109 -147.885959
11.308376 -2.715449 -147.887325
11.228339 -2.597944 -147.891114
11.249254 -2.494284 -147.892480
11.270169 -2.390624 -147.893846
11.190132 -2.273120 -147.897635
11.211048 -2.169460 -147.899001
11.131011 -2.051955 -147.902790
11.151926 -1.948295 -147.904156
11.172841 -1.844635 -147.905522
11.092804 -1.727130 -147.909312
11.113719 -1.623470 -147.910678
11.134635 -1.519810 -147.912044
11.054598 -1.402305 -147.915833
11.075513 -1.298645 -147.917199
10.995476 -1.181141 -147.920988
11.016391 -1.077481 -147.922354
10.936354 -0.959976 -147.926143
10.957270 -0.856316 -147.927509
10.877233 -0.738811 -147.931298
10.898148 -0.635151 -147.932664
10.818111 -0.517647 -147.936453
10.839026 -0.413987 -147.937819
10.859941 -0.310327 -147.939185
10.880857 -0.206666 -147.940551
10.901772 -0.103006 -147.941917
10.922687 0.000654 -147.943283
10.842650 0.118158 -147.947073
10.863565 0.221819 -147.948439
10.884480 0.325479 -147.949805
10.804444 0.442983 -147.953594
10.724407 0.560488 -147.957383
10.644370 0.677992 -147.961172
10.665285 0.781652 -147.962538
10.585248 0.899157 -147.966327
10.606163 1.002817 -147.967693
10.526127 1.120322 -147.971482
10.446090 1.237826 -147.975271
10.366053 1.355330 -147.979061
10.286016 1.472835 -147.982850
10.306931 1.576495 -147.984216
10.226895 1.694000 -147.988005
10.146858 1.811504 -147.991794
10.066821 1.929009 -147.995583
9.986784 2.046513 -147.999372
9.906748 2.164018 -148.003161
9.927663 2.267678 -148.004528
9.847626 2.385182 -148.008317
9.868541 2.488842 -148.009683
9.788504 2.606347 -148.013472
9.809419 2.710007 -148.014838
9.729383 2.827512 -148.018627
9.750298 2.931172 -148.019993
9.670261 3.048676 -148.023782
9.590224 3.166181 -148.027571
9.409235 3.297529 -148.033784
9.329199 3.415034 -148.037573
9.350114 3.518694 -148.038939
9.270077 3.636199 -148.042728
9.190040 3.753703 -148.046517
9.210955 3.857363 -148.047883
9.130919 3.974868 -148.051672
9.151834 4.078528 -148.053038
9.071797 4.196032 -148.056827
8.890808 4.327381 -148.063040
8.810771 4.444886 -148.066829
8.831687 4.548546 -148.068195
8.751650 4.666050 -148.071984
11.644974 -7.096466 -147.828133
11.705606 -6.957750 -147.827076
11.766238 -6.819034 -147.826019
11.826870 -6.680317 -147.824962
11.887502 -6.541601 -147.823904
11.948134 -6.402885 -147.822847
11.914417 -6.302655 -147.824213
11.975049 -6.163939 -147.823156
12.035681 -6.025222 -147.822099
12.096314 -5.886506 -147.821042
12.156946 -5.747790 -147.819985
12.123229 -5.647560 -147.821351
12.089512 -5.547330 -147.822717
12.055795 -5.447100 -147.824083
12.116427 -5.308384 -147.823026
12.082710 -5.208154 -147.824392
12.048993 -5.107924 -147.825758
12.109625 -4.969207 -147.824701
12.075908 -4.868978 -147.826067
12.042191 -4.768748 -147.827433
12.102823 -4.630031 -147.826376
12.069106 -4.529801 -147.827742
12.035389 -4.429571 -147.829108
12.001672 -4.329342 -147.830474
12.062304 -4.190625 -147.829417
12.028587 -4.090395 -147.830783
12.089219 -3.951679 -147.829726
12.055502 -3.851449 -147.831092
12.021785 -3.751219 -147.832458
11.988068 -3.650989 -147.833824
11.954351 -3.550759 -147.835190
11.920634 -3.450529 -147.836556
11.886917 -3.350299 -147.837922
11.853200 -3.250070 -147.839288
11.819483 -3.149840 -147.840654
11.785766 -3.049610 -147.842020
11.846398 -2.910893 -147.840963
11.812681 -2.810664 -147.842329
11.778964 -2.710434 -147.843695
11.839596 -2.571717 -147.842638
11.805879 -2.471487 -147.844004
11.772162 -2.371257 -147.845370
11.738445 -2.271028 -147.846736
11.704728 -2.170798 -147.848102
11.671011 -2.070568 -147.849468
11.731644 -1.931851 -147.848411
11.697927 -1.831621 -147.849777
11.664210 -1.731392 -147.851143
11.630493 -1.631162 -147.852509
11.596776 -1.530932 -147.853875
11.563059 -1.430702 -147.855241
11.623691 -1.291985 -147.854183
11.589974 -1.191756 -147.855550
11.556257 -1.091526 -147.856916
11.522540 -0.991296 -147.858282
11.583172 -0.852579 -147.857224
11.549455 -0.752349 -147.858590
11.515738 -0.652120 -147.859956
11.482021 -0.551890 -147.861322
11.448304 -0.451660 -147.862689
11.414587 -0.351430 -147.864055
11.380870 -0.251200 -147.865421
11.347153 -0.150970 -147.866787
11.313436 -0.050740 -147.868153
11.279719 0.049490 -147.869519
11.246002 0.149720 -147.870885
11.306634 0.288436 -147.869827
11.272917 0.388666 -147.871194
11.239200 0.488896 -147.872560
11.205483 0.589126 -147.873926
11.171766 0.689356 -147.875292
11.138049 0.789586 -147.876658
11.104332 0.889816 -147.878024
11.070615 0.990046 -147.879390
11.131247 1.128762 -147.878332
11.097530 1.228992 -147.879699
11.063813 1.329222 -147.881065
11.030096 1.429452 -147.882431
10.996379 1.529682 -147.883797
10.962662 1.629911 -147.885163
10.928945 1.730141 -147.886529
10.895228 1.830371 -147.887895
10.861511 1.930601 -147.889261
10.827794 2.030831 -147.890627
10.794077 2.131061 -147.891993
10.760360 2.231291 -147.893359
10.726643 2.331521 -147.894725
10.692926 2.431751 -147.896091
10.659209 2.531981 -147.897457
10.625492 2.632211 -147.898823
10.591775 2.732441 -147.900189
10.558058 2.832671 -147.901555
10.429992 2.894414 -147.905344
10.396275 2.994644 -147.906710
10.362558 3.094874 -147.908076
10.328841 3.195104 -147.909442
10.295124 3.295334 -147.910808
10.167058 3.357077 -147.914597
10.133341 3.457307 -147.915963
10.099624 3.557537 -147.917329
10.065907 3.657767 -147.918695
10.032190 3.757997 -147.920061
9.998473 3.858227 -147.921427
9.964756 3.958457 -147.922793
9.931039 4.058687 -147.924159
9.897322 4.158917 -147.925525
9.863605 4.259147 -147.926891
9.829888 4.359377 -147.928257
9.796171 4.459607 -147.929623
9.762454 4.559836 -147.930989
9.728737 4.660066 -147.932355
9.600671 4.721810 -147.936144
9.566954 4.822040 -147.937510
9.533237 4.922270 -147.938876
9.499520 5.022500 -147.940243
9.371454 5.084243 -147.944032
9.337737 5.184473 -147.945398
9.209671 5.246217 -147.949187
9.175954 5.346447 -147.950553
9.047887 5.408190 -147.954342
9.014170 5.508420 -147.955708
8.886104 5.570164 -147.959497
8.758038 5.631907 -147.963286
8.724321 5.732137 -147.964652
8.596255 5.793881 -147.968441
8.562538 5.894111 -147.969807
8.434472 5.955854 -147.973597
8.306406 6.017598 -147.977386
8.178340 6.079341 -147.981175
8.050274 6.141085 -147.984964
7.922207 6.202828 -147.988753
7.794141 6.264572 -147.992542
7.760424 6.364802 -147.993908
7.726707 6.465032 -147.995274
7.692990 6.565262 -147.996640
7.659273 6.665492 -147.998006
11.371582 0.721930 -147.876513
11.417199 0.952883 -147.873033
11.400349 1.103331 -147.871976
11.321035 1.173274 -147.873342
11.304185 1.323722 -147.872285
11.287336 1.474170 -147.871228
11.208021 1.544113 -147.872594
11.191172 1.694561 -147.871537
11.111857 1.764504 -147.872903
11.095008 1.914952 -147.871845
11.015693 1.984895 -147.873211
10.998844 2.135343 -147.872154
10.919529 2.205286 -147.873520
10.840214 2.275230 -147.874886
10.823365 2.425678 -147.873829
10.744050 2.495621 -147.875195
10.727201 2.646069 -147.874138
10.710352 2.796517 -147.873081
10.693503 2.946965 -147.872024
10.614188 3.016908 -147.873390
10.534873 3.086851 -147.874756
10.518024 3.237299 -147.873699
10.438709 3.307242 -147.875065
10.421860 3.457690 -147.874008
10.342545 3.527633 -147.875374
10.263230 3.597576 -147.876740
10.183915 3.667519 -147.878106
10.104600 3.737463 -147.879472
10.087751 3.887910 -147.878415
10.070902 4.038358 -147.877358
10.054053 4.188806 -147.876301
9.974738 4.258750 -147.877667
9.957889 4.409197 -147.876609
9.941039 4.559645 -147.875552
9.924190 4.710093 -147.874495
9.844875 4.780037 -147.875861
9.828026 4.930484 -147.874804
9.748711 5.000428 -147.876170
9.731862 5.150876 -147.875113
9.715013 5.301324 -147.874056
9.635698 5.371267 -147.875422
9.618849 5.521715 -147.874365
9.539534 5.591658 -147.875731
9.460219 5.661601 -147.877097
9.380904 5.731544 -147.878463
9.301590 5.801487 -147.879829
9.222275 5.871430 -147.881195
9.205426 6.021878 -147.880138
9.126111 6.091822 -147.881504
9.046796 6.161765 -147.882870
8.967481 6.231708 -147.884236
8.888166 6.301651 -147.885602
8.808852 6.371594 -147.886968
8.729537 6.441537 -147.888334
8.650222 6.511480 -147.889700
8.633373 6.661928 -147.888643
8.554058 6.731872 -147.890009
8.474743 6.801815 -147.891375
8.395428 6.871758 -147.892741
8.316114 6.941701 -147.894107
8.236799 7.011644 -147.895473
8.157484 7.081587 -147.896839
8.078169 7.151531 -147.898205
7.998854 7.221474 -147.899571
7.919540 7.291417 -147.900937
7.840225 7.361360 -147.902303
7.760910 7.431303 -147.903669
7.681595 7.501246 -147.905035
7.539815 7.490685 -147.908824
7.460500 7.560628 -147.910190
7.381185 7.630571 -147.911556
7.301871 7.700514 -147.912922
7.222556 7.770457 -147.914288
7.143241 7.840401 -147.915654
7.063926 7.910344 -147.917020
6.984611 7.980287 -147.918386
6.905297 8.050230 -147.919752
6.763516 8.039668 -147.923541
6.684202 8.109612 -147.924907
6.604887 8.179555 -147.926273
6.525572 8.249498 -147.927639
6.383792 8.238936 -147.931429
6.304477 8.308879 -147.932795
6.225162 8.378823 -147.934161
6.083382 8.368261 -147.937950
6.004067 8.438204 -147.939316
5.862287 8.427642 -147.943105
5.533110 8.175566 -147.954163
5.391329 8.165005 -147.957953
5.312014 8.234948 -147.959319
5.170234 8.224386 -147.963108
4.778592 7.891806 -147.976589
4.636811 7.881244 -147.980379
4.557497 7.951187 -147.981745
4.478182 8.021130 -147.983111
4.398867 8.091073 -147.984477
4.257087 8.080512 -147.988266
4.115306 8.069950 -147.992055
3.973526 8.059389 -147.995844
3.769280 7.968322 -148.002056
3.627500 7.957761 -148.005845
3.548185 8.027704 -148.007211
3.406405 8.017142 -148.011001
8.077399 6.906667 -147.888368
7.973739 6.927582 -147.889734
7.883923 7.049449 -147.888677
7.863329 7.676076 -147.875504
7.773513 7.797943 -147.874447
7.669853 7.818858 -147.875813
7.566193 7.839773 -147.877179
7.476377 7.961640 -147.876122
7.372717 7.982555 -147.877488
7.269057 8.003471 -147.878854
7.179241 8.125338 -147.877797
7.075581 8.146253 -147.879163
6.985765 8.268120 -147.878106
6.882105 8.289035 -147.879472
6.778445 8.309950 -147.880838
6.674785 8.330865 -147.882204
6.584969 8.452732 -147.881147
6.481309 8.473647 -147.882513
6.377648 8.494563 -147.883879
6.273988 8.515478 -147.885245
6.170328 8.536393 -147.886611
6.080512 8.658260 -147.885554
5.976852 8.679175 -147.886920
5.873192 8.700090 -147.888286
5.769532 8.721005 -147.889652
5.665872 8.741920 -147.891018
5.562212 8.762836 -147.892384
5.458551 8.783751 -147.893750
5.354891 8.804666 -147.895116
5.251231 8.825581 -147.896482
5.147571 8.846496 -147.897848
5.043911 8.867411 -147.899214
4.926406 8.787374 -147.903003
4.822746 8.808290 -147.904369
4.719086 8.829205 -147.905735
4.601581 8.749168 -147.909524
4.497921 8.770083 -147.910890
4.394261 8.790998 -147.912256
4.290601 8.811913 -147.913622
4.186941 8.832828 -147.914988
4.083281 8.853744 -147.916354
3.979620 8.874659 -147.917720
3.875960 8.895574 -147.919086
3.758456 8.815537 -147.922875
3.654796 8.836452 -147.924241
3.537291 8.756415 -147.928031
3.419787 8.676379 -147.931820
3.316127 8.697294 -147.933186
3.212466 8.718209 -147.934552
3.094962 8.638172 -147.938341
2.991302 8.659087 -147.939707
2.887642 8.680002 -147.941073
2.770137 8.599966 -147.944862
2.666477 8.620881 -147.946228
2.548972 8.540844 -147.950017
2.445312 8.561759 -147.951383
2.327808 8.481722 -147.955172
2.224148 8.502637 -147.956538
2.120487 8.523552 -147.957904
2.002983 8.443516 -147.961694
1.899323 8.464431 -147.963060
1.781818 8.384394 -147.966849
1.664314 8.304357 -147.970638
1.532965 8.123369 -147.976850
4.959526 8.780198 -147.916210
4.820810 8.840831 -147.915153
4.720580 8.807114 -147.916519
4.620350 8.773397 -147.917885
4.481634 8.834029 -147.916828
4.342917 8.894661 -147.915771
4.165715 9.049642 -147.912290
4.026998 9.110274 -147.911233
3.888282 9.170906 -147.910176
3.788052 9.137189 -147.911542
3.687822 9.103472 -147.912908
3.587592 9.069755 -147.914274
3.487362 9.036038 -147.915640
3.387132 9.002321 -147.917006
3.286902 8.968604 -147.918372
3.148186 9.029236 -147.917315
3.047956 8.995519 -147.918681
2.947726 8.961802 -147.920047
2.809010 9.022434 -147.918990
2.708780 8.988717 -147.920356
2.608550 8.955000 -147.921722
2.508320 8.921283 -147.923088
2.369604 8.981916 -147.922031
2.269374 8.948199 -147.923397
2.169144 8.914482 -147.924763
2.068914 8.880765 -147.926129
1.968684 8.847048 -147.927495
1.868454 8.813331 -147.928861
1.768224 8.779614 -147.930227
1.667995 8.745897 -147.931593
1.567765 8.712180 -147.932959
1.467535 8.678463 -147.934325
1.367305 8.644746 -147.935691
1.267075 8.611029 -147.937057
1.166845 8.577312 -147.938423
1.066615 8.543595 -147.939789
0.927899 8.604227 -147.938732
0.827669 8.570510 -147.940098
0.727439 8.536793 -147.941464
0.627209 8.503076 -147.942830
0.565465 8.375010 -147.946619
0.465235 8.341293 -147.947985
0.365006 8.307576 -147.949351
0.264776 8.273859 -147.950717
0.164546 8.240142 -147.952083
0.064316 8.206425 -147.953449
-0.035914 8.172708 -147.954815
-0.136144 8.138991 -147.956181
-0.236374 8.105274 -147.957547
-0.336604 8.071557 -147.958913
-0.436834 8.037840 -147.960279
-0.537064 8.004123 -147.961645
-0.637294 7.970406 -147.963011
-0.737524 7.936689 -147.964377
-0.837754 7.902972 -147.965743
-0.937983 7.869255 -147.967109
-0.999727 7.741188 -147.970899
-1.099957 7.707471 -147.972265
-1.200187 7.673754 -147.973631
-1.300417 7.640037 -147.974997
-1.362160 7.511971 -147.978786
-1.462390 7.478254 -147.980152
-1.562620 7.444537 -147.981518
-1.624364 7.316471 -147.985307
-1.724594 7.282754 -147.986673
-1.824824 7.249037 -147.988039
-1.886567 7.120971 -147.991828
-1.948311 6.992905 -147.995617
-2.048541 6.959188 -147.996983
-2.110284 6.831122 -148.000772
-2.210514 6.797405 -148.002138
-2.310744 6.763688 -148.003504
-2.372488 6.635622 -148.007294
-2.472717 6.601905 -148.008660
-2.534461 6.473839 -148.012449
-2.596205 6.345773 -148.016238
-2.657948 6.217706 -148.020027
-2.681205 5.995291 -148.026239
-0.419626 8.331724 -147.958508
-0.731083 8.439806 -147.952605
-0.881531 8.422957 -147.951548
-1.031979 8.406107 -147.950491
-1.101922 8.326793 -147.951857
-1.171865 8.247478 -147.953223
-1.241808 8.168163 -147.954589
-1.311751 8.088849 -147.955955
-1.462199 8.072000 -147.954898
-1.532142 7.992685 -147.956264
-1.602085 7.913370 -147.957630
-1.752533 7.896521 -147.956573
-1.822476 7.817206 -147.957939
-1.892419 7.737892 -147.959305
-1.962363 7.658577 -147.960671
-2.112810 7.641728 -147.959613
-2.182754 7.562413 -147.960979
-2.252697 7.483098 -147.962345
-2.322640 7.403784 -147.963712
-2.392583 7.324469 -147.965078
-2.462526 7.245154 -147.966444
-2.532469 7.165840 -147.967810
-2.602413 7.086525 -147.969176
-2.672356 7.007210 -147.970542
-2.742299 6.927896 -147.971908
-2.892747 6.911047 -147.970850
-2.962690 6.831732 -147.972217
-3.032633 6.752417 -147.973583
-3.102576 6.673102 -147.974949
-3.172519 6.593788 -147.976315
-3.242462 6.514473 -147.977681
-3.392910 6.497624 -147.976623
-3.462853 6.418309 -147.977989
-3.532797 6.338995 -147.979356
-3.602740 6.259680 -147.980722
-3.672683 6.180365 -147.982088
-3.742626 6.101051 -147.983454
-3.812569 6.021736 -147.984820
-3.882512 5.942421 -147.986186
-3.952456 5.863106 -147.987552
-4.022399 5.783792 -147.988918
-4.092342 5.704477 -147.990284
-4.162285 5.625162 -147.991650
-4.151724 5.483382 -147.995439
-4.221667 5.404067 -147.996805
-4.291610 5.324753 -147.998171
-4.361553 5.245438 -147.999537
-4.350991 5.103658 -148.003326
-4.420935 5.024343 -148.004692
-4.490878 4.945029 -148.006058
-4.560821 4.865714 -148.007424
-4.630764 4.786399 -148.008790
-4.700707 4.707084 -148.010156
-4.690146 4.565304 -148.013945
-4.760089 4.485990 -148.015311
-4.830032 4.406675 -148.016677
-4.819471 4.264895 -148.020466
-4.889414 4.185580 -148.021832
-4.878852 4.043800 -148.025622
-4.948795 3.964485 -148.026988
-4.938234 3.822705 -148.030777
-5.008177 3.743390 -148.032143
-4.997615 3.601610 -148.035932
-5.067559 3.522295 -148.037298
-4.895988 3.255584 -148.045933
-4.885426 3.113804 -148.049722
-4.955369 3.034489 -148.051088
-4.944808 2.892709 -148.054878
-4.934246 2.750929 -148.058667
-5.048530 4.946311 -147.983405
-5.069445 4.842651 -147.984771
-5.191312 4.752835 -147.983714
-5.212227 4.649175 -147.985080
-5.233142 4.545515 -147.986446
-5.254057 4.441855 -147.987812
-5.274973 4.338195 -147.989178
-5.396840 4.248379 -147.988121
-5.417755 4.144719 -147.989487
-5.438670 4.041058 -147.990853
-5.560537 3.951243 -147.989796
-5.581452 3.847582 -147.991162
-5.602367 3.743922 -147.992528
-5.623282 3.640262 -147.993894
-5.644197 3.536602 -147.995260
-5.766064 3.446786 -147.994203
-5.786980 3.343126 -147.995569
-5.807895 3.239466 -147.996935
-5.727858 3.121961 -148.000724
-5.748773 3.018301 -148.002090
-5.769688 2.914641 -148.003456
-5.790603 2.810981 -148.004822
-5.811518 2.707321 -148.006188
-5.832434 2.603661 -148.007554
-5.752397 2.486156 -148.011344
-5.773312 2.382496 -148.012710
-5.794227 2.278836 -148.014076
-5.815142 2.175176 -148.015442
-5.836057 2.071515 -148.016808
-5.756021 1.954011 -148.020597
-5.776936 1.850351 -148.021963
-5.797851 1.746691 -148.023329
-5.818766 1.643030 -148.024695
-5.839681 1.539370 -148.026061
-5.860596 1.435710 -148.027427
-5.881511 1.332050 -148.028793
-5.801475 1.214546 -148.032582
-5.822390 1.110885 -148.033948
-5.843305 1.007225 -148.035314
-5.763268 0.889721 -148.039103
-5.683231 0.772216 -148.042892
-5.704146 0.668556 -148.044258
-5.725062 0.564896 -148.045624
-5.745977 0.461236 -148.046990
-5.867844 0.371420 -148.045933
-5.787807 0.253915 -148.049722
-5.808722 0.150255 -148.051088
-5.829637 0.046595 -148.052454
-5.850552 -0.057065 -148.053820
-5.770516 -0.174570 -148.057610
-5.791431 -0.278230 -148.058976
-5.812346 -0.381890 -148.060342
-5.732309 -0.499394 -148.064131
-5.652272 -0.616899 -148.067920
-5.673187 -0.720559 -148.069286
-6.299329 1.412166 -147.999928
-6.454310 1.234963 -147.996448
-6.514942 1.096247 -147.995391
-6.575575 0.957530 -147.994334
-6.541858 0.857300 -147.995700
-6.508141 0.757071 -147.997066
-6.568773 0.618354 -147.996008
-6.535056 0.518124 -147.997374
-6.595688 0.379408 -147.996317
-6.561971 0.279178 -147.997683
-6.622603 0.140462 -147.996626
-6.588886 0.040232 -147.997992
-6.649518 -0.098484 -147.996935
-6.615801 -0.198714 -147.998301
-6.582084 -0.298944 -147.999667
-6.548367 -0.399174 -148.001033
-6.514650 -0.499404 -148.002399
-6.480933 -0.599634 -148.003765
-6.541565 -0.738350 -148.002708
-6.507848 -0.838580 -148.004074
-6.474131 -0.938810 -148.005440
-6.440414 -1.039040 -148.006806
-6.406697 -1.139270 -148.008172
-6.467329 -1.277986 -148.007115
-6.433612 -1.378216 -148.008481
-6.399895 -1.478446 -148.009847
-6.366178 -1.578676 -148.011213
-6.332461 -1.678906 -148.012579
-6.298744 -1.779136 -148.013945
-6.265027 -1.879366 -148.015311
-6.231310 -1.979596 -148.016677
-6.197593 -2.079826 -148.018043
-6.163876 -2.180056 -148.019409
-6.130159 -2.280286 -148.020775
-6.096442 -2.380515 -148.022141
-6.062725 -2.480745 -148.023507
-6.029008 -2.580975 -148.024873
-5.995291 -2.681205 -148.026239
-5.961574 -2.781435 -148.027605
-5.927857 -2.881665 -148.028971
-5.894140 -2.981895 -148.030337
-5.860423 -3.082125 -148.031703
-5.826706 -3.182355 -148.033069
-5.792989 -3.282585 -148.034435
-5.664923 -3.344328 -148.038225
-5.631206 -3.444558 -148.039591
-5.597489 -3.544788 -148.040957
-5.563772 -3.645018 -148.042323
-5.530055 -3.745248 -148.043689
-5.496338 -3.845478 -148.045055
-5.462621 -3.945708 -148.046421
-5.428904 -4.045938 -148.047787
-5.395187 -4.146168 -148.049153
-5.361470 -4.246398 -148.050519
-5.327753 -4.346628 -148.051885
-5.294036 -4.446857 -148.053251
-5.260319 -4.547087 -148.054617
-5.132253 -4.608831 -148.058406
-5.098536 -4.709061 -148.059772
-5.064819 -4.809291 -148.061138
-5.031102 -4.909521 -148.062504
-4.903036 -4.971264 -148.066293
-4.869319 -5.071494 -148.067659
-4.835602 -5.171724 -148.069025
-4.707536 -5.233468 -148.072814
-4.673819 -5.333698 -148.074180
-4.640102 -5.433928 -148.075546
-4.606385 -5.534157 -148.076912
-4.572668 -5.634387 -148.078278
-4.538951 -5.734617 -148.079644
-4.505234 -5.834847 -148.081010
-4.471517 -5.935077 -148.082376
-4.437800 -6.035307 -148.083742
-4.309734 -6.097051 -148.087532
-4.276017 -6.197281 -148.088898
-4.147951 -6.259024 -148.092687
-4.114234 -6.359254 -148.094053
-4.080517 -6.459484 -148.095419
-4.046800 -6.559714 -148.096785
-3.918733 -6.621457 -148.100574
-3.790667 -6.683201 -148.104363
-3.756950 -6.783431 -148.105729
-6.596663 -0.593783 -148.001864
-6.579814 -0.744231 -148.000807
-6.625430 -0.975183 -147.997326
-6.608581 -1.125631 -147.996269
-6.591732 -1.276079 -147.995212
-6.574883 -1.426527 -147.994155
-6.495568 -1.496470 -147.995521
-6.478719 -1.646918 -147.994464
-6.461870 -1.797366 -147.993407
-6.382555 -1.867309 -147.994773
-6.365706 -2.017757 -147.993716
-6.348857 -2.168205 -147.992659
-6.332008 -2.318652 -147.991602
-6.252693 -2.388596 -147.992968
-6.235844 -2.539043 -147.991910
-6.156529 -2.608987 -147.993276
-6.139680 -2.759434 -147.992219
-6.060365 -2.829378 -147.993585
-6.043516 -2.979825 -147.992528
-5.964201 -3.049769 -147.993894
-5.947352 -3.200216 -147.992837
-5.868037 -3.270160 -147.994203
-5.788723 -3.340103 -147.995569
-5.709408 -3.410046 -147.996935
-5.630093 -3.479989 -147.998301
-5.613244 -3.630437 -147.997244
-5.783792 -4.022399 -147.988918
-5.766943 -4.172847 -147.987861
-5.687628 -4.242790 -147.989227
-5.608313 -4.312733 -147.990593
-5.591464 -4.463181 -147.989535
-5.512149 -4.533124 -147.990901
-5.432835 -4.603067 -147.992267
-5.415986 -4.753515 -147.991210
-5.336671 -4.823458 -147.992576
-5.319822 -4.973906 -147.991519
-5.240507 -5.043849 -147.992885
-5.161192 -5.113792 -147.994251
-5.081878 -5.183735 -147.995617
-5.002563 -5.253679 -147.996983
-4.985714 -5.404126 -147.995926
-4.906399 -5.474070 -147.997292
-4.889550 -5.624517 -147.996235
-4.810235 -5.694461 -147.997601
-4.730921 -5.764404 -147.998967
-4.714072 -5.914852 -147.997910
-4.634757 -5.984795 -147.999276
-4.555442 -6.054738 -148.000642
-4.538593 -6.205186 -147.999585
-4.459278 -6.275129 -148.000951
-4.442429 -6.425577 -147.999894
-4.425580 -6.576025 -147.998837
-4.408731 -6.726472 -147.997780
-4.329416 -6.796415 -147.999146
-4.312567 -6.946863 -147.998089
-4.233252 -7.016806 -147.999455
-4.153938 -7.086750 -148.000821
-4.074623 -7.156693 -148.002187
-3.995308 -7.226636 -148.003553
-3.978459 -7.377084 -148.002496
-3.899144 -7.447027 -148.003862
-3.819830 -7.516970 -148.005228
-3.802981 -7.667418 -148.004170
-3.723666 -7.737361 -148.005536
-3.706817 -7.887809 -148.004479
-3.627502 -7.957752 -148.005845
-3.548187 -8.027695 -148.007211
-3.531338 -8.178143 -148.006154
-3.452024 -8.248086 -148.007520
-3.372709 -8.318029 -148.008886
-3.293394 -8.387973 -148.010252
-3.214080 -8.457916 -148.011618
-3.134765 -8.527859 -148.012984
-3.117916 -8.678307 -148.011927
-3.038601 -8.748250 -148.013293
-2.959286 -8.818193 -148.014659
-2.879972 -8.888136 -148.016025
-2.800657 -8.958079 -148.017391
-2.721342 -9.028023 -148.018757
-2.642028 -9.097966 -148.020123
-2.562713 -9.167909 -148.021489
-2.483398 -9.237852 -148.022855
-2.404084 -9.307795 -148.024221
-2.324769 -9.377738 -148.025587
-2.245454 -9.447681 -148.026953
-2.166140 -9.517625 -148.028319
-2.086825 -9.587568 -148.029685
-2.007510 -9.657511 -148.031051
-1.928195 -9.727454 -148.032417
-1.848881 -9.797397 -148.033784
-1.769566 -9.867340 -148.035150
-1.690251 -9.937284 -148.036516
-1.610937 -10.007227 -148.037882
-1.531622 -10.077170 -148.039248
-1.389842 -10.066608 -148.043037
-1.310527 -10.136552 -148.044403
-1.231212 -10.206495 -148.045769
-1.151898 -10.276438 -148.047135
-1.072583 -10.346381 -148.048501
-0.993268 -10.416324 -148.049867
-0.913954 -10.486267 -148.051233
-0.834639 -10.556210 -148.052599
-0.755324 -10.626154 -148.053965
-0.676010 -10.696097 -148.055331
-0.534229 -10.685535 -148.059120
-0.454915 -10.755478 -148.060486
-0.375600 -10.825422 -148.061852
-0.296285 -10.895365 -148.063218
-0.154505 -10.884803 -148.067007
-0.075190 -10.954746 -148.068373
0.066590 -10.944185 -148.072162
0.333301 -10.772614 -148.080798
0.475081 -10.762052 -148.084587
0.554396 -10.831996 -148.085953
0.696176 -10.821434 -148.089742
0.837956 -10.810873 -148.093531
0.979737 -10.800311 -148.097320
1.059051 -10.870254 -148.098686
1.200832 -10.859693 -148.102475
1.280146 -10.929636 -148.103841
1.359461 -10.999579 -148.105207
1.501241 -10.989017 -148.108997
1.580556 -11.058961 -148.110363
1.722336 -11.048399 -148.114152
1.801651 -11.118342 -148.115518
1.943431 -11.107781 -148.119307
2.085211 -11.097219 -148.123096
-3.170933 -8.415353 -147.941821
-3.081118 -8.537220 -147.940764
-2.991302 -8.659087 -147.939707
-2.901486 -8.780954 -147.938650
-2.811670 -8.902821 -147.937593
-2.708010 -8.923736 -147.938959
-2.618194 -9.045603 -147.937902
-2.514534 -9.066519 -147.939268
-2.424718 -9.188386 -147.938211
-2.334902 -9.310253 -147.937153
-2.231242 -9.331168 -147.938519
-2.141426 -9.453035 -147.937462
-2.051610 -9.574902 -147.936405
-2.003328 -9.999625 -147.928079
-1.899667 -10.020540 -147.929445
-1.809852 -10.142407 -147.928388
-1.706191 -10.163322 -147.929754
-1.602531 -10.184237 -147.931120
-1.512715 -10.306104 -147.930063
-1.409055 -10.327019 -147.931429
-1.305395 -10.347934 -147.932795
-1.215579 -10.469801 -147.931738
-1.125763 -10.591668 -147.930680
-1.035948 -10.713536 -147.929623
-0.932287 -10.734451 -147.930989
-0.842472 -10.856318 -147.929932
-0.738811 -10.877233 -147.931298
-0.635151 -10.898148 -147.932664
-0.545335 -11.020015 -147.931607
-0.441675 -11.040930 -147.932973
-0.338015 -11.061845 -147.934339
-0.234355 -11.082760 -147.935705
-0.130695 -11.103676 -147.937071
-0.027035 -11.124591 -147.938437
0.062781 -11.246458 -147.937380
0.166441 -11.267373 -147.938746
0.270101 -11.288288 -147.940112
0.373762 -11.309203 -147.941478
0.477422 -11.330118 -147.942844
0.581082 -11.351033 -147.944210
0.684742 -11.371949 -147.945576
0.788402 -11.392864 -147.946942
0.892062 -11.413779 -147.948308
0.995723 -11.434694 -147.949674
1.099383 -11.455609 -147.951040
1.203043 -11.476524 -147.952406
1.306703 -11.497439 -147.953772
1.396519 -11.619306 -147.952715
1.500179 -11.640221 -147.954081
1.603839 -11.661137 -147.955447
1.707499 -11.682052 -147.956813
1.825004 -11.602015 -147.960602
1.928664 -11.622930 -147.961968
2.032324 -11.643845 -147.963334
2.135984 -11.664760 -147.964700
2.239644 -11.685675 -147.966066
2.343305 -11.706591 -147.967432
2.446965 -11.727506 -147.968798
2.550625 -11.748421 -147.970164
2.654285 -11.769336 -147.971530
2.757945 -11.790251 -147.972897
2.861605 -11.811166 -147.974263
2.965266 -11.832081 -147.975629
3.068926 -11.852997 -147.976995
3.172586 -11.873912 -147.978361
3.276246 -11.894827 -147.979727
3.393751 -11.814790 -147.983516
3.497411 -11.835705 -147.984882
3.601071 -11.856620 -147.986248
3.704731 -11.877535 -147.987614
3.822236 -11.797499 -147.991403
3.925896 -11.818414 -147.992769
4.043400 -11.738377 -147.996558
4.147060 -11.759292 -147.997924
4.250720 -11.780207 -147.999290
4.395914 -11.498267 -148.007925
4.513418 -11.418230 -148.011715
4.617078 -11.439145 -148.013081
4.720738 -11.460060 -148.014447
4.824399 -11.480975 -148.015813
4.941903 -11.400938 -148.019602
5.045563 -11.421854 -148.020968
5.163068 -11.341817 -148.024757
5.280572 -11.261780 -148.028546
5.411921 -11.080791 -148.034758
5.543270 -10.899803 -148.040971
5.660774 -10.819766 -148.044760
5.764434 -10.840681 -148.046126
5.881939 -10.760644 -148.049915
6.013288 -10.579655 -148.056127
6.158481 -10.297715 -148.064763
6.262141 -10.318630 -148.066129
6.365801 -10.339545 -148.067495
6.483306 -10.259508 -148.071284
6.586966 -10.280424 -148.072650
6.704470 -10.200387 -148.076439
6.808131 -10.221302 -148.077805
-0.304915 -10.969756 -147.876479
-0.166199 -11.030388 -147.875422
-0.027483 -11.091021 -147.874365
0.111233 -11.151653 -147.873308
0.249950 -11.212285 -147.872251
0.388666 -11.272917 -147.871194
0.488896 -11.239200 -147.872560
0.627612 -11.299832 -147.871502
0.727842 -11.266115 -147.872868
0.866558 -11.326747 -147.871811
1.005275 -11.387379 -147.870754
1.143991 -11.448011 -147.869697
1.282707 -11.508644 -147.868640
1.421424 -11.569276 -147.867583
1.598626 -11.724257 -147.864103
1.775829 -11.879238 -147.860622
1.914545 -11.939870 -147.859565
2.053262 -12.000502 -147.858508
2.191978 -12.061134 -147.857451
2.330694 -12.121767 -147.856394
2.469411 -12.182399 -147.855337
2.569640 -12.148682 -147.856703
2.669870 -12.114965 -147.858069
2.808587 -12.175597 -147.857012
2.908817 -12.141880 -147.858378
3.009047 -12.108163 -147.859744
3.109276 -12.074446 -147.861110
3.209506 -12.040729 -147.862476
3.309736 -12.007012 -147.863842
3.448453 -12.067644 -147.862785
3.548683 -12.033927 -147.864151
3.648912 -12.000210 -147.865517
3.749142 -11.966493 -147.866883
3.849372 -11.932776 -147.868249
3.949602 -11.899059 -147.869615
4.049832 -11.865342 -147.870981
4.150062 -11.831625 -147.872347
4.250292 -11.797908 -147.873713
4.350522 -11.764191 -147.875079
4.450752 -11.730474 -147.876445
4.589468 -11.791106 -147.875388
4.689698 -11.757389 -147.876754
4.789928 -11.723672 -147.878120
4.890158 -11.689955 -147.879486
4.990388 -11.656238 -147.880852
5.090618 -11.622521 -147.882218
5.190848 -11.588804 -147.883584
5.291078 -11.555087 -147.884950
5.391307 -11.521370 -147.886316
5.491537 -11.487653 -147.887682
5.591767 -11.453936 -147.889048
5.691997 -11.420219 -147.890414
5.792227 -11.386502 -147.891780
5.892457 -11.352785 -147.893146
5.992687 -11.319068 -147.894512
6.092917 -11.285351 -147.895878
6.193147 -11.251634 -147.897244
6.293377 -11.217917 -147.898610
6.393607 -11.184200 -147.899976
6.493837 -11.150483 -147.901342
6.594067 -11.116766 -147.902708
6.694296 -11.083049 -147.904074
6.794526 -11.049332 -147.905440
6.894756 -11.015615 -147.906806
6.956500 -10.887549 -147.910595
7.056730 -10.853832 -147.911961
7.156960 -10.820115 -147.913327
7.257190 -10.786398 -147.914693
7.357420 -10.752681 -147.916059
7.457649 -10.718964 -147.917425
7.557879 -10.685247 -147.918791
7.658109 -10.651530 -147.920157
7.758339 -10.617813 -147.921523
7.820083 -10.489747 -147.925313
7.920313 -10.456030 -147.926679
8.020543 -10.422313 -147.928045
8.120773 -10.388596 -147.929411
8.182516 -10.260530 -147.933200
8.282746 -10.226813 -147.934566
8.382976 -10.193096 -147.935932
8.483206 -10.159379 -147.937298
8.544949 -10.031313 -147.941087
8.606693 -9.903246 -147.944876
8.668437 -9.775180 -147.948665
8.768666 -9.741463 -147.950031
8.830410 -9.613397 -147.953820
8.930640 -9.579680 -147.955186
8.992383 -9.451614 -147.958976
9.092613 -9.417897 -147.960342
9.154357 -9.289831 -147.964131
9.254587 -9.256114 -147.965497
9.316330 -9.128048 -147.969286
9.416560 -9.094331 -147.970652
9.439818 -8.871916 -147.976864
9.463075 -8.649500 -147.983076
9.524818 -8.521434 -147.986866
9.625048 -8.487717 -147.988232
9.686792 -8.359651 -147.992021
9.787022 -8.325934 -147.993387
9.848765 -8.197868 -147.997176
9.910509 -8.069802 -148.000965
9.933766 -7.847387 -148.007177
9.918537 -7.530622 -148.015813
9.980280 -7.402556 -148.019602
10.042024 -7.274490 -148.023391
10.103767 -7.146424 -148.027180
10.165511 -7.018358 -148.030969
10.227254 -6.890292 -148.034758
10.288998 -6.762226 -148.038548
10.350742 -6.634160 -148.042337
10.373999 -6.411744 -148.048549
10.397256 -6.189329 -148.054761
10.228081 -5.495168 -148.073089
