ply
format ascii 1.0
element vertex 1152
property float x
property float y
property float z
element face 0
property list uchar uint vertex_indices
end_header
2.198704 -11.849518 -146.849419
2.349152 -11.832669 -146.848362
2.821618 -12.065682 -146.837613
3.052571 -12.111299 -146.834133
3.283523 -12.156915 -146.830652
3.514476 -12.202531 -146.827172
3.664924 -12.185682 -146.826115
3.815371 -12.168833 -146.825058
3.965819 -12.151984 -146.824001
4.116267 -12.135135 -146.822944
4.186210 -12.055820 -146.824310
4.336658 -12.038971 -146.823253
4.487106 -12.022122 -146.822195
4.637554 -12.005273 -146.821138
4.707497 -11.925958 -146.822504
4.938449 -11.971574 -146.819024
5.088897 -11.954725 -146.817967
5.239345 -11.937876 -146.816910
5.389793 -11.921027 -146.815853
5.459736 -11.841712 -146.817219
5.610184 -11.824863 -146.816162
5.760632 -11.808014 -146.815105
5.830575 -11.728699 -146.816471
5.981023 -11.711850 -146.815414
6.131471 -11.695001 -146.814356
6.281918 -11.678152 -146.813299
6.432366 -11.661303 -146.812242
6.502309 -11.581988 -146.813608
6.572253 -11.502673 -146.814974
6.642196 -11.423359 -146.816340
6.792644 -11.406509 -146.815283
6.862587 -11.327195 -146.816649
7.013035 -11.310346 -146.815592
7.082978 -11.231031 -146.816958
7.233426 -11.214182 -146.815901
7.303369 -11.134867 -146.817267
7.453817 -11.118018 -146.816210
7.523760 -11.038703 -146.817576
7.593703 -10.959389 -146.818942
7.663646 -10.880074 -146.820308
7.814094 -10.863225 -146.819251
7.884037 -10.783910 -146.820617
7.953980 -10.704595 -146.821983
8.023923 -10.625281 -146.823349
8.174371 -10.608432 -146.822292
8.244314 -10.529117 -146.823658
8.314258 -10.449802 -146.825024
8.464705 -10.432953 -146.823967
8.534649 -10.353638 -146.825333
8.604592 -10.274324 -146.826699
8.674535 -10.195009 -146.828065
8.744478 -10.115694 -146.829431
8.894926 -10.098845 -146.828374
8.964869 -10.019530 -146.829740
9.034812 -9.940216 -146.831106
9.104755 -9.860901 -146.832472
9.174698 -9.781586 -146.833838
9.244642 -9.702272 -146.835204
9.314585 -9.622957 -146.836570
9.384528 -9.543642 -146.837936
9.534976 -9.526793 -146.836879
9.604919 -9.447479 -146.838245
9.674862 -9.368164 -146.839611
9.744805 -9.288849 -146.840977
9.814748 -9.209534 -146.842343
9.884692 -9.130220 -146.843709
9.954635 -9.050905 -146.845075
10.024578 -8.971590 -146.846441
10.094521 -8.892276 -146.847807
10.083960 -8.750495 -146.851596
10.153903 -8.671181 -146.852962
10.223846 -8.591866 -146.854328
10.293789 -8.512551 -146.855694
10.363732 -8.433237 -146.857060
10.353171 -8.291457 -146.860849
10.423114 -8.212142 -146.862215
10.493057 -8.132827 -146.863581
10.563000 -8.053512 -146.864947
10.632943 -7.974198 -146.866313
10.622382 -7.832418 -146.870102
10.692325 -7.753103 -146.871468
10.762268 -7.673788 -146.872834
10.751707 -7.532008 -146.876623
10.821650 -7.452693 -146.877989
10.891593 -7.373379 -146.879355
10.961536 -7.294064 -146.880722
10.950974 -7.152284 -146.884511
11.020918 -7.072969 -146.885877
11.010356 -6.931189 -146.889666
11.080299 -6.851874 -146.891032
11.069738 -6.710094 -146.894821
11.059176 -6.568314 -146.898610
11.129119 -6.488999 -146.899976
11.118558 -6.347219 -146.903765
11.188501 -6.267904 -146.905131
11.177939 -6.126124 -146.908920
11.167378 -5.984344 -146.912710
11.156816 -5.842563 -146.916499
11.146255 -5.700783 -146.920288
11.135693 -5.559003 -146.924077
11.205637 -5.479688 -146.925443
11.195075 -5.337908 -146.929232
11.184513 -5.196128 -146.933021
11.254457 -5.116813 -146.934387
11.243895 -4.975033 -146.938176
11.233334 -4.833253 -146.941966
11.222772 -4.691472 -146.945755
11.212211 -4.549692 -146.949544
11.121144 -4.345446 -146.955756
11.110583 -4.203666 -146.959545
11.100021 -4.061886 -146.963334
11.089460 -3.920106 -146.967124
11.078898 -3.778325 -146.970913
11.068337 -3.636545 -146.974702
11.057775 -3.494765 -146.978491
10.322671 -2.790795 -147.004088
10.312110 -2.649015 -147.007877
10.382053 -2.569700 -147.009243
10.371492 -2.427920 -147.013033
10.360930 -2.286140 -147.016822
8.385536 -10.517305 -146.813642
8.608355 -10.441333 -146.810162
8.629270 -10.337673 -146.811528
8.751137 -10.247857 -146.810471
8.873004 -10.158042 -146.809414
9.095823 -10.082070 -146.805934
9.318642 -10.006099 -146.802453
9.339557 -9.902438 -146.803819
9.461424 -9.812623 -146.802762
9.583291 -9.722807 -146.801705
9.705158 -9.632991 -146.800648
9.827025 -9.543175 -146.799591
9.847940 -9.439515 -146.800957
9.969807 -9.349699 -146.799900
10.192626 -9.273728 -146.796420
10.415445 -9.197756 -146.792939
10.537312 -9.107940 -146.791882
10.558227 -9.004280 -146.793248
10.579143 -8.900620 -146.794614
10.701010 -8.810804 -146.793557
10.721925 -8.707144 -146.794923
10.742840 -8.603484 -146.796289
10.763755 -8.499824 -146.797655
10.784670 -8.396164 -146.799021
10.906537 -8.306348 -146.797964
10.927452 -8.202688 -146.799330
10.948367 -8.099027 -146.800696
10.969283 -7.995367 -146.802062
10.990198 -7.891707 -146.803428
11.011113 -7.788047 -146.804794
11.032028 -7.684387 -146.806160
11.052943 -7.580727 -146.807526
11.073858 -7.477066 -146.808892
11.195725 -7.387251 -146.807835
11.216640 -7.283590 -146.809201
11.237556 -7.179930 -146.810567
11.258471 -7.076270 -146.811933
11.279386 -6.972610 -146.813299
11.300301 -6.868950 -146.814665
11.321216 -6.765290 -146.816031
11.342131 -6.661629 -146.817397
11.363046 -6.557969 -146.818763
11.383962 -6.454309 -146.820129
11.404877 -6.350649 -146.821495
11.425792 -6.246989 -146.822861
11.547659 -6.157173 -146.821804
11.568574 -6.053513 -146.823170
11.488537 -5.936008 -146.826959
11.509452 -5.832348 -146.828325
11.530367 -5.728688 -146.829691
11.551283 -5.625028 -146.831058
11.572198 -5.521368 -146.832424
11.593113 -5.417708 -146.833790
11.614028 -5.314047 -146.835156
11.634943 -5.210387 -146.836522
11.655858 -5.106727 -146.837888
11.676773 -5.003067 -146.839254
11.596737 -4.885562 -146.843043
11.617652 -4.781902 -146.844409
11.638567 -4.678242 -146.845775
11.659482 -4.574582 -146.847141
11.680397 -4.470922 -146.848507
11.600360 -4.353417 -146.852296
11.621275 -4.249757 -146.853662
11.541239 -4.132253 -146.857451
11.562154 -4.028593 -146.858817
11.482117 -3.911088 -146.862606
11.503032 -3.807428 -146.863972
11.422995 -3.689923 -146.867761
11.443910 -3.586263 -146.869127
11.363874 -3.468759 -146.872917
11.384789 -3.365099 -146.874283
11.304752 -3.247594 -146.878072
11.325667 -3.143934 -146.879438
11.346582 -3.040274 -146.880804
11.266546 -2.922769 -146.884593
11.287461 -2.819109 -146.885959
11.207424 -2.701605 -146.889748
11.127387 -2.584100 -146.893537
11.047350 -2.466596 -146.897326
11.068265 -2.362936 -146.898692
10.988229 -2.245431 -146.902481
11.009144 -2.141771 -146.903848
11.030059 -2.038111 -146.905214
11.050974 -1.934451 -146.906580
10.970937 -1.816946 -146.910369
10.991852 -1.713286 -146.911735
10.911816 -1.595781 -146.915524
10.831779 -1.478277 -146.919313
10.852694 -1.374617 -146.920679
10.772657 -1.257112 -146.924468
10.910586 -8.421886 -146.842493
10.971219 -8.283169 -146.841436
10.937502 -8.182940 -146.842802
10.998134 -8.044223 -146.841745
10.964417 -7.943993 -146.843111
11.402445 -7.651331 -146.832361
11.463077 -7.512615 -146.831304
11.523709 -7.373899 -146.830247
11.584342 -7.235183 -146.829190
11.550625 -7.134953 -146.830556
11.611257 -6.996236 -146.829499
11.577540 -6.896006 -146.830865
11.638172 -6.757290 -146.829808
11.698804 -6.618574 -146.828751
12.042483 -6.364398 -146.820424
12.008766 -6.264168 -146.821790
12.069398 -6.125452 -146.820733
12.035681 -6.025222 -146.822099
12.001964 -5.924992 -146.823465
12.062597 -5.786276 -146.822408
12.028880 -5.686046 -146.823774
12.089512 -5.547330 -146.822717
12.055795 -5.447100 -146.824083
12.022078 -5.346870 -146.825449
12.082710 -5.208154 -146.824392
12.048993 -5.107924 -146.825758
12.109625 -4.969207 -146.824701
12.075908 -4.868978 -146.826067
12.042191 -4.768748 -146.827433
12.102823 -4.630031 -146.826376
12.069106 -4.529801 -146.827742
12.035389 -4.429571 -146.829108
12.001672 -4.329342 -146.830474
11.967955 -4.229112 -146.831840
11.934238 -4.128882 -146.833206
11.900521 -4.028652 -146.834572
11.961153 -3.889935 -146.833515
11.927436 -3.789706 -146.834881
11.893719 -3.689476 -146.836247
11.860002 -3.589246 -146.837613
11.920634 -3.450529 -146.836556
11.886917 -3.350299 -146.837922
11.853200 -3.250070 -146.839288
11.819483 -3.149840 -146.840654
11.785766 -3.049610 -146.842020
11.752049 -2.949380 -146.843386
11.718332 -2.849150 -146.844752
11.684615 -2.748920 -146.846118
11.650898 -2.648690 -146.847484
11.617181 -2.548460 -146.848850
11.677813 -2.409744 -146.847793
11.644096 -2.309514 -146.849159
11.516030 -2.247770 -146.852948
11.482313 -2.147540 -146.854314
11.448596 -2.047311 -146.855680
11.509228 -1.908594 -146.854623
11.475511 -1.808364 -146.855989
11.441794 -1.708134 -146.857355
11.408077 -1.607904 -146.858721
11.468709 -1.469188 -146.857664
11.434992 -1.368958 -146.859030
11.495625 -1.230242 -146.857973
11.461908 -1.130012 -146.859339
11.428191 -1.029782 -146.860705
11.394474 -0.929552 -146.862071
11.455106 -0.790836 -146.861014
11.421389 -0.690606 -146.862380
11.387672 -0.590376 -146.863746
11.353955 -0.490146 -146.865112
11.320238 -0.389916 -146.866478
11.380870 -0.251200 -146.865421
11.347153 -0.150970 -146.866787
11.313436 -0.050740 -146.868153
11.279719 0.049490 -146.869519
11.246002 0.149720 -146.870885
11.212285 0.249950 -146.872251
11.178568 0.350180 -146.873617
11.144851 0.450410 -146.874983
11.111134 0.550640 -146.876349
11.077417 0.650869 -146.877715
11.138049 0.789586 -146.876658
11.104332 0.889816 -146.878024
11.070615 0.990046 -146.879390
11.036898 1.090276 -146.880756
11.003181 1.190505 -146.882122
10.969464 1.290735 -146.883488
10.935747 1.390965 -146.884854
10.902030 1.491195 -146.886220
10.868313 1.591425 -146.887586
10.834596 1.691655 -146.888952
10.800879 1.791885 -146.890318
10.767162 1.892115 -146.891684
10.733445 1.992345 -146.893050
10.699728 2.092575 -146.894416
10.666011 2.192805 -146.895782
10.632294 2.293035 -146.897148
10.598577 2.393265 -146.898514
10.564860 2.493494 -146.899880
10.531143 2.593724 -146.901246
10.497426 2.693954 -146.902612
10.463709 2.794184 -146.903978
10.429992 2.894414 -146.905344
10.301926 2.956158 -146.909133
10.268209 3.056388 -146.910499
10.234492 3.156618 -146.911865
10.106426 3.218361 -146.915654
10.072709 3.318591 -146.917020
10.038992 3.418821 -146.918386
10.005275 3.519051 -146.919752
9.971558 3.619281 -146.921118
9.937841 3.719511 -146.922484
9.904124 3.819741 -146.923850
9.870407 3.919971 -146.925216
9.836690 4.020200 -146.926582
9.802973 4.120430 -146.927948
9.769256 4.220660 -146.929314
9.735539 4.320890 -146.930680
9.607473 4.382634 -146.934470
9.573756 4.482864 -146.935836
9.540039 4.583094 -146.937202
9.506322 4.683324 -146.938568
9.378256 4.745067 -146.942357
9.344539 4.845297 -146.943723
9.310822 4.945527 -146.945089
9.277105 5.045757 -146.946455
9.149038 5.107500 -146.950244
9.115321 5.207730 -146.951610
9.081604 5.307960 -146.952976
9.047887 5.408190 -146.954342
8.919821 5.469934 -146.958131
8.886104 5.570164 -146.959497
8.758038 5.631907 -146.963286
8.724321 5.732137 -146.964652
8.596255 5.793881 -146.968441
8.468189 5.855624 -146.972231
8.434472 5.955854 -146.973597
8.306406 6.017598 -146.977386
8.272689 6.117828 -146.978752
8.144623 6.179571 -146.982541
8.110906 6.279801 -146.983907
7.982840 6.341545 -146.987696
7.949123 6.441775 -146.989062
7.821056 6.503518 -146.992851
7.504292 6.488289 -147.001487
7.376226 6.550032 -147.005276
7.248160 6.611776 -147.009065
7.120094 6.673520 -147.012854
6.992028 6.735263 -147.016643
6.958311 6.835493 -147.018009
6.830245 6.897237 -147.021798
6.796528 6.997466 -147.023164
6.762811 7.097696 -147.024530
6.634744 7.159440 -147.028319
6.601027 7.259670 -147.029685
11.280350 0.260025 -146.883474
11.263501 0.410473 -146.882417
11.246651 0.560921 -146.881359
11.229802 0.711369 -146.880302
11.150487 0.781312 -146.881668
11.196104 1.012264 -146.878188
11.179254 1.162712 -146.877131
11.162405 1.313160 -146.876074
11.083090 1.383104 -146.877440
11.066241 1.533551 -146.876383
11.049392 1.683999 -146.875326
10.970077 1.753943 -146.876692
10.953228 1.904391 -146.875635
10.936378 2.054838 -146.874577
10.919529 2.205286 -146.873520
10.902680 2.355734 -146.872463
10.823365 2.425678 -146.873829
10.806516 2.576125 -146.872772
10.789667 2.726573 -146.871715
10.710352 2.796517 -146.873081
10.693503 2.946965 -146.872024
10.614188 3.016908 -146.873390
10.597339 3.167356 -146.872333
10.518024 3.237299 -146.873699
10.438709 3.307242 -146.875065
10.421860 3.457690 -146.874008
10.342545 3.527633 -146.875374
10.325696 3.678081 -146.874317
10.246381 3.748024 -146.875683
10.229532 3.898472 -146.874626
10.150217 3.968415 -146.875992
10.133368 4.118863 -146.874935
10.054053 4.188806 -146.876301
9.974738 4.258750 -146.877667
9.895423 4.328693 -146.879033
9.878574 4.479141 -146.877975
9.799259 4.549084 -146.879341
9.719944 4.619027 -146.880707
9.703095 4.769475 -146.879650
9.623780 4.839418 -146.881016
9.606931 4.989866 -146.879959
9.590082 5.140314 -146.878902
9.510767 5.210257 -146.880268
9.493918 5.360705 -146.879211
9.414603 5.430648 -146.880577
9.397754 5.581096 -146.879520
9.318439 5.651039 -146.880886
9.239124 5.720982 -146.882252
9.159809 5.790926 -146.883618
9.080495 5.860869 -146.884984
9.063645 6.011317 -146.883927
8.984330 6.081260 -146.885293
8.905016 6.151203 -146.886659
8.888166 6.301651 -146.885602
8.808852 6.371594 -146.886968
8.729537 6.441537 -146.888334
8.650222 6.511480 -146.889700
8.570907 6.581424 -146.891066
8.491592 6.651367 -146.892432
8.474743 6.801815 -146.891375
8.395428 6.871758 -146.892741
8.316114 6.941701 -146.894107
8.236799 7.011644 -146.895473
8.157484 7.081587 -146.896839
8.078169 7.151531 -146.898205
7.936389 7.140969 -146.901994
7.857074 7.210912 -146.903360
7.777759 7.280855 -146.904726
7.698445 7.350798 -146.906092
7.619130 7.420742 -146.907458
7.539815 7.490685 -146.908824
7.460500 7.560628 -146.910190
7.318720 7.550066 -146.913979
7.239405 7.620009 -146.915345
7.160090 7.689953 -146.916711
7.080775 7.759896 -146.918077
7.001461 7.829839 -146.919443
6.922146 7.899782 -146.920809
6.842831 7.969725 -146.922175
6.763516 8.039668 -146.923541
6.621736 8.029107 -146.927331
6.542421 8.099050 -146.928697
6.463106 8.168993 -146.930063
6.383792 8.238936 -146.931429
6.242011 8.228375 -146.935218
6.162696 8.298318 -146.936584
6.020916 8.287756 -146.940373
5.879136 8.277194 -146.944162
5.612424 8.105623 -146.952797
5.470644 8.095062 -146.956587
5.328864 8.084500 -146.960376
5.249549 8.154443 -146.961742
5.107769 8.143882 -146.965531
5.028454 8.213825 -146.966897
4.886674 8.203263 -146.970686
4.744893 8.192701 -146.974475
8.091244 7.007619 -146.885945
8.015272 7.230438 -146.882465
7.911612 7.251353 -146.883831
7.807952 7.272268 -146.885197
7.704292 7.293183 -146.886563
7.628320 7.516002 -146.883082
7.552349 7.738821 -146.879602
7.462533 7.860688 -146.878545
7.372717 7.982555 -146.877488
7.282901 8.104423 -146.876431
7.179241 8.125338 -146.877797
7.089425 8.247205 -146.876740
6.985765 8.268120 -146.878106
6.882105 8.289035 -146.879472
6.778445 8.309950 -146.880838
6.674785 8.330865 -146.882204
6.571124 8.351780 -146.883570
6.467464 8.372696 -146.884936
6.363804 8.393611 -146.886302
6.273988 8.515478 -146.885245
6.170328 8.536393 -146.886611
6.066668 8.557308 -146.887977
5.976852 8.679175 -146.886920
5.873192 8.700090 -146.888286
5.769532 8.721005 -146.889652
5.665872 8.741920 -146.891018
5.562212 8.762836 -146.892384
5.458551 8.783751 -146.893750
5.354891 8.804666 -146.895116
5.251231 8.825581 -146.896482
5.133727 8.745544 -146.900271
5.030066 8.766459 -146.901637
4.926406 8.787374 -146.903003
4.822746 8.808290 -146.904369
4.719086 8.829205 -146.905735
4.601581 8.749168 -146.909524
4.497921 8.770083 -146.910890
4.394261 8.790998 -146.912256
4.290601 8.811913 -146.913622
4.186941 8.832828 -146.914988
4.083281 8.853744 -146.916354
3.979620 8.874659 -146.917720
3.875960 8.895574 -146.919086
3.772300 8.916489 -146.920452
3.654796 8.836452 -146.924241
3.551136 8.857367 -146.925607
3.447475 8.878282 -146.926973
3.329971 8.798246 -146.930763
3.226311 8.819161 -146.932129
3.108806 8.739124 -146.935918
3.005146 8.760039 -146.937284
2.887642 8.680002 -146.941073
2.783981 8.700917 -146.942439
2.666477 8.620881 -146.946228
2.562817 8.641796 -146.947594
2.445312 8.561759 -146.951383
2.341652 8.582674 -146.952749
2.224148 8.502637 -146.956538
2.106643 8.422601 -146.960328
2.002983 8.443516 -146.961694
1.885479 8.363479 -146.965483
1.781818 8.384394 -146.966849
1.664314 8.304357 -146.970638
1.560654 8.325272 -146.972004
1.443149 8.245236 -146.975793
1.339489 8.266151 -146.977159
1.221985 8.186114 -146.980948
1.104480 8.106077 -146.984737
0.986976 8.026040 -146.988526
0.883315 8.046956 -146.989892
0.765811 7.966919 -146.993682
0.662151 7.987834 -146.995048
0.530802 7.806845 -147.001260
0.413297 7.726808 -147.005049
5.475905 8.632019 -146.918015
5.298702 8.787000 -146.914535
5.159986 8.847632 -146.913478
5.021270 8.908265 -146.912421
4.882553 8.968897 -146.911364
4.782323 8.935180 -146.912730
4.682093 8.901463 -146.914096
4.581864 8.867746 -146.915462
4.443147 8.928378 -146.914405
4.265945 9.083359 -146.910924
4.127228 9.143991 -146.909867
3.988512 9.204623 -146.908810
3.888282 9.170906 -146.910176
3.788052 9.137189 -146.911542
3.649336 9.197821 -146.910485
3.549106 9.164104 -146.911851
3.487362 9.036038 -146.915640
3.387132 9.002321 -146.917006
3.248416 9.062953 -146.915949
3.148186 9.029236 -146.917315
3.047956 8.995519 -146.918681
2.947726 8.961802 -146.920047
2.847496 8.928085 -146.921413
2.708780 8.988717 -146.920356
2.608550 8.955000 -146.921722
2.508320 8.921283 -146.923088
2.408090 8.887566 -146.924454
2.307860 8.853849 -146.925820
2.207631 8.820132 -146.927186
2.068914 8.880765 -146.926129
1.968684 8.847048 -146.927495
1.868454 8.813331 -146.928861
1.768224 8.779614 -146.930227
1.667995 8.745897 -146.931593
1.567765 8.712180 -146.932959
1.467535 8.678463 -146.934325
1.367305 8.644746 -146.935691
1.267075 8.611029 -146.937057
1.166845 8.577312 -146.938423
1.066615 8.543595 -146.939789
0.966385 8.509878 -146.941155
0.866155 8.476161 -146.942521
0.765925 8.442444 -146.943887
0.665695 8.408727 -146.945253
0.565465 8.375010 -146.946619
0.465235 8.341293 -146.947985
0.365006 8.307576 -146.949351
0.264776 8.273859 -146.950717
0.164546 8.240142 -146.952083
0.064316 8.206425 -146.953449
-0.035914 8.172708 -146.954815
-0.136144 8.138991 -146.956181
-0.236374 8.105274 -146.957547
-0.336604 8.071557 -146.958913
-0.398347 7.943490 -146.962703
-0.498577 7.909773 -146.964069
-0.598807 7.876056 -146.965435
-0.699037 7.842339 -146.966801
-0.799267 7.808622 -146.968167
-0.899497 7.774905 -146.969533
-0.999727 7.741188 -146.970899
-1.099957 7.707471 -146.972265
-1.161700 7.579405 -146.976054
-1.261930 7.545688 -146.977420
-1.362160 7.511971 -146.978786
-1.462390 7.478254 -146.980152
-1.524134 7.350188 -146.983941
-1.624364 7.316471 -146.985307
-1.724594 7.282754 -146.986673
-1.824824 7.249037 -146.988039
-1.925053 7.215320 -146.989405
-1.986797 7.087254 -146.993194
-2.087027 7.053537 -146.994560
-2.148771 6.925471 -146.998349
-2.249000 6.891754 -146.999715
-2.349230 6.858037 -147.001081
-2.410974 6.729971 -147.004871
-2.511204 6.696254 -147.006237
-2.534461 6.473839 -147.012449
0.461938 8.716379 -146.957273
0.311491 8.699530 -146.956215
0.241547 8.620215 -146.957581
0.171604 8.540901 -146.958948
0.021156 8.524051 -146.957890
-0.048787 8.444737 -146.959256
-0.199235 8.427888 -146.958199
-0.349682 8.411038 -146.957142
-0.500130 8.394189 -146.956085
-0.570073 8.314875 -146.957451
-0.720521 8.298026 -146.956394
-0.790464 8.218711 -146.957760
-0.940912 8.201862 -146.956703
-1.091360 8.185013 -146.955646
-1.241808 8.168163 -146.954589
-1.311751 8.088849 -146.955955
-1.381694 8.009534 -146.957321
-1.451637 7.930219 -146.958687
-1.602085 7.913370 -146.957630
-1.672028 7.834055 -146.958996
-1.822476 7.817206 -146.957939
-1.892419 7.737892 -146.959305
-1.962363 7.658577 -146.960671
-2.032306 7.579262 -146.962037
-2.182754 7.562413 -146.960979
-2.252697 7.483098 -146.962345
-2.322640 7.403784 -146.963712
-2.392583 7.324469 -146.965078
-2.543031 7.307620 -146.964020
-2.612974 7.228305 -146.965386
-2.682917 7.148991 -146.966752
-2.752860 7.069676 -146.968118
-2.822804 6.990361 -146.969484
-2.892747 6.911047 -146.970850
-2.962690 6.831732 -146.972217
-3.032633 6.752417 -146.973583
-3.183081 6.735568 -146.972525
-3.253024 6.656253 -146.973891
-3.322967 6.576939 -146.975257
-3.392910 6.497624 -146.976623
-3.462853 6.418309 -146.977989
-3.532797 6.338995 -146.979356
-3.602740 6.259680 -146.980722
-3.672683 6.180365 -146.982088
-3.742626 6.101051 -146.983454
-3.812569 6.021736 -146.984820
-3.882512 5.942421 -146.986186
-3.952456 5.863106 -146.987552
-4.022399 5.783792 -146.988918
-4.092342 5.704477 -146.990284
-4.162285 5.625162 -146.991650
-4.232228 5.545848 -146.993016
-4.302171 5.466533 -146.994382
-4.372115 5.387218 -146.995748
-4.442058 5.307904 -146.997114
-4.431496 5.166123 -147.000903
-4.501439 5.086809 -147.002269
-4.571382 5.007494 -147.003635
-4.641326 4.928179 -147.005001
-4.711269 4.848865 -147.006367
-4.781212 4.769550 -147.007733
-4.851155 4.690235 -147.009099
-4.921098 4.610921 -147.010465
-4.910537 4.469140 -147.014254
-4.980480 4.389826 -147.015620
-5.050423 4.310511 -147.016986
-5.120366 4.231196 -147.018352
-5.190309 4.151882 -147.019718
-5.179748 4.010101 -147.023507
-5.169186 3.868321 -147.027296
-4.884833 5.243447 -146.981730
-5.006700 5.153632 -146.980673
-5.128567 5.063816 -146.979616
-5.149482 4.960156 -146.980982
-5.069445 4.842651 -146.984771
-5.090360 4.738991 -146.986137
-5.111275 4.635331 -146.987503
-5.233142 4.545515 -146.986446
-5.355009 4.455699 -146.985389
-5.476876 4.365883 -146.984332
-5.497792 4.262223 -146.985698
-5.518707 4.158563 -146.987064
-5.640574 4.068747 -146.986007
-5.661489 3.965087 -146.987373
-5.682404 3.861427 -146.988739
-5.703319 3.757767 -146.990105
-5.724234 3.654107 -146.991471
-5.745149 3.550446 -146.992837
-5.766064 3.446786 -146.994203
-5.887932 3.356970 -146.993146
-5.908847 3.253310 -146.994512
-5.929762 3.149650 -146.995878
-5.950677 3.045990 -146.997244
-5.971592 2.942330 -146.998610
-5.891555 2.824825 -147.002399
-5.912470 2.721165 -147.003765
-5.933386 2.617505 -147.005131
-5.954301 2.513845 -147.006497
-5.975216 2.410185 -147.007863
-5.996131 2.306524 -147.009229
-6.017046 2.202864 -147.010595
-5.937009 2.085360 -147.014384
-5.957924 1.981700 -147.015751
-5.978840 1.878039 -147.017117
-5.999755 1.774379 -147.018483
-5.919718 1.656875 -147.022272
-5.940633 1.553215 -147.023638
-5.961548 1.449555 -147.025004
-5.881511 1.332050 -147.028793
-5.902426 1.228390 -147.030159
-5.923342 1.124730 -147.031525
-5.944257 1.021070 -147.032891
-5.965172 0.917409 -147.034257
-5.986087 0.813749 -147.035623
-6.007002 0.710089 -147.036989
-5.926965 0.592585 -147.040778
-5.947880 0.488924 -147.042144
-5.968796 0.385264 -147.043510
-5.989711 0.281604 -147.044876
-5.909674 0.164100 -147.048665
-5.829637 0.046595 -147.052454
-5.850552 -0.057065 -147.053820
-5.770516 -0.174570 -147.057610
-5.791431 -0.278230 -147.058976
-6.393678 1.373679 -146.997505
-6.454310 1.234963 -146.996448
-6.420593 1.134733 -146.997814
-6.481225 0.996017 -146.996757
-6.541858 0.857300 -146.995700
-6.602490 0.718584 -146.994642
-6.568773 0.618354 -146.996008
-6.535056 0.518124 -146.997374
-6.595688 0.379408 -146.996317
-6.561971 0.279178 -146.997683
-6.528254 0.178948 -146.999049
-6.494537 0.078718 -147.000415
-6.555169 -0.059998 -146.999358
-6.521452 -0.160228 -147.000724
-6.582084 -0.298944 -146.999667
-6.548367 -0.399174 -147.001033
-6.608999 -0.537891 -146.999976
-6.575282 -0.638120 -147.001342
-6.541565 -0.738350 -147.002708
-6.507848 -0.838580 -147.004074
-6.474131 -0.938810 -147.005440
-6.440414 -1.039040 -147.006806
-6.406697 -1.139270 -147.008172
-6.467329 -1.277986 -147.007115
-6.433612 -1.378216 -147.008481
-6.399895 -1.478446 -147.009847
-6.460527 -1.617162 -147.008790
-6.426810 -1.717392 -147.010156
-6.393093 -1.817622 -147.011522
-6.359376 -1.917852 -147.012888
-6.325659 -2.018082 -147.014254
-6.291942 -2.118312 -147.015620
-6.163876 -2.180056 -147.019409
-6.130159 -2.280286 -147.020775
-6.096442 -2.380515 -147.022141
-6.062725 -2.480745 -147.023507
-6.029008 -2.580975 -147.024873
-5.995291 -2.681205 -147.026239
-5.961574 -2.781435 -147.027605
-5.927857 -2.881665 -147.028971
-5.894140 -2.981895 -147.030337
-5.860423 -3.082125 -147.031703
-5.826706 -3.182355 -147.033069
-5.792989 -3.282585 -147.034435
-5.759272 -3.382815 -147.035801
-5.725555 -3.483045 -147.037167
-5.691838 -3.583275 -147.038533
-5.658121 -3.683504 -147.039899
-5.624404 -3.783734 -147.041266
-5.590687 -3.883964 -147.042632
-5.462621 -3.945708 -147.046421
-5.428904 -4.045938 -147.047787
-5.395187 -4.146168 -147.049153
-5.361470 -4.246398 -147.050519
-5.327753 -4.346628 -147.051885
-5.294036 -4.446857 -147.053251
-5.165970 -4.508601 -147.057040
-5.132253 -4.608831 -147.058406
-5.098536 -4.709061 -147.059772
-4.970470 -4.770804 -147.063561
-4.936753 -4.871034 -147.064927
-4.903036 -4.971264 -147.066293
-4.869319 -5.071494 -147.067659
-4.835602 -5.171724 -147.069025
-4.707536 -5.233468 -147.072814
-4.673819 -5.333698 -147.074180
-4.640102 -5.433928 -147.075546
-4.606385 -5.534157 -147.076912
-4.572668 -5.634387 -147.078278
-4.538951 -5.734617 -147.079644
-4.505234 -5.834847 -147.081010
-4.377168 -5.896591 -147.084800
-4.343451 -5.996821 -147.086166
-4.309734 -6.097051 -147.087532
-4.276017 -6.197281 -147.088898
-4.242300 -6.297510 -147.090264
-4.208583 -6.397740 -147.091630
-4.174866 -6.497970 -147.092996
-4.046800 -6.559714 -147.096785
-4.013083 -6.659944 -147.098151
-3.979366 -6.760174 -147.099517
-3.945649 -6.860404 -147.100883
-3.911932 -6.960634 -147.102249
-3.783865 -7.022377 -147.106038
-3.750148 -7.122607 -147.107404
-3.716431 -7.222837 -147.108770
-3.682714 -7.323067 -147.110136
-3.648997 -7.423297 -147.111502
-3.520931 -7.485040 -147.115291
-3.487214 -7.585270 -147.116657
-3.359148 -7.647014 -147.120446
-3.325431 -7.747244 -147.121812
-3.291714 -7.847474 -147.123178
-3.257997 -7.947704 -147.124544
-3.129931 -8.009447 -147.128333
-3.096214 -8.109677 -147.129700
-3.062497 -8.209907 -147.131066
-3.028780 -8.310137 -147.132432
-2.900714 -8.371880 -147.136221
-6.659128 -0.674288 -146.999441
-6.642279 -0.824736 -146.998383
-6.625430 -0.975183 -146.997326
-6.608581 -1.125631 -146.996269
-6.591732 -1.276079 -146.995212
-6.512417 -1.346022 -146.996578
-6.495568 -1.496470 -146.995521
-6.478719 -1.646918 -146.994464
-6.399404 -1.716861 -146.995830
-6.382555 -1.867309 -146.994773
-6.365706 -2.017757 -146.993716
-6.286391 -2.087700 -146.995082
-6.269542 -2.238148 -146.994025
-6.252693 -2.388596 -146.992968
-6.235844 -2.539043 -146.991910
-6.218995 -2.689491 -146.990853
-6.202145 -2.839939 -146.989796
-6.185296 -2.990387 -146.988739
-6.105982 -3.060330 -146.990105
-6.026667 -3.130273 -146.991471
-6.009818 -3.280721 -146.990414
-5.930503 -3.350664 -146.991780
-5.851188 -3.420607 -146.993146
-5.771874 -3.490551 -146.994512
-5.692559 -3.560494 -146.995878
-5.613244 -3.630437 -146.997244
-5.596395 -3.780885 -146.996187
-5.642012 -4.011837 -146.992707
-5.625162 -4.162285 -146.991650
-5.608313 -4.312733 -146.990593
-5.528999 -4.382676 -146.991959
-5.449684 -4.452619 -146.993325
-5.370369 -4.522562 -146.994691
-5.291055 -4.592506 -146.996057
-5.274205 -4.742953 -146.994999
-5.194891 -4.812897 -146.996366
-5.178042 -4.963344 -146.995308
-5.161192 -5.113792 -146.994251
-5.081878 -5.183735 -146.995617
-5.002563 -5.253679 -146.996983
-4.923248 -5.323622 -146.998349
-4.843934 -5.393565 -146.999715
-4.764619 -5.463508 -147.001081
-4.685304 -5.533451 -147.002447
-4.668455 -5.683899 -147.001390
-4.714072 -5.914852 -146.997910
-4.697222 -6.065299 -146.996853
-4.680373 -6.215747 -146.995796
-4.601059 -6.285690 -146.997162
-4.521744 -6.355634 -146.998528
-4.504895 -6.506081 -146.997471
-4.425580 -6.576025 -146.998837
-4.346265 -6.645968 -147.000203
-4.329416 -6.796415 -146.999146
-4.250102 -6.866359 -147.000512
-4.233252 -7.016806 -146.999455
-4.153938 -7.086750 -147.000821
-4.137089 -7.237197 -146.999764
-4.057774 -7.307141 -147.001130
-3.978459 -7.377084 -147.002496
-3.961610 -7.527532 -147.001438
-3.882295 -7.597475 -147.002804
-3.802981 -7.667418 -147.004170
-3.786132 -7.817866 -147.003113
-3.706817 -7.887809 -147.004479
-3.627502 -7.957752 -147.005845
-3.610653 -8.108200 -147.004788
-3.531338 -8.178143 -147.006154
-3.452024 -8.248086 -147.007520
-3.372709 -8.318029 -147.008886
-3.293394 -8.387973 -147.010252
-3.214080 -8.457916 -147.011618
-3.134765 -8.527859 -147.012984
-3.117916 -8.678307 -147.011927
-3.038601 -8.748250 -147.013293
-2.959286 -8.818193 -147.014659
-2.879972 -8.888136 -147.016025
-2.800657 -8.958079 -147.017391
-2.721342 -9.028023 -147.018757
-2.642028 -9.097966 -147.020123
-2.562713 -9.167909 -147.021489
-2.483398 -9.237852 -147.022855
-2.466549 -9.388300 -147.021798
-2.387234 -9.458243 -147.023164
-2.307920 -9.528186 -147.024530
-2.228605 -9.598129 -147.025896
-2.086825 -9.587568 -147.029685
-2.007510 -9.657511 -147.031051
-1.928195 -9.727454 -147.032417
-1.848881 -9.797397 -147.033784
-1.769566 -9.867340 -147.035150
-1.690251 -9.937284 -147.036516
-1.610937 -10.007227 -147.037882
-1.531622 -10.077170 -147.039248
-1.452307 -10.147113 -147.040614
-1.372993 -10.217056 -147.041980
-1.293678 -10.286999 -147.043346
-1.214363 -10.356943 -147.044712
-1.072583 -10.346381 -147.048501
-0.993268 -10.416324 -147.049867
-0.913954 -10.486267 -147.051233
-0.834639 -10.556210 -147.052599
-0.755324 -10.626154 -147.053965
-0.676010 -10.696097 -147.055331
-0.596695 -10.766040 -147.056697
-0.454915 -10.755478 -147.060486
-0.375600 -10.825422 -147.061852
-0.296285 -10.895365 -147.063218
-0.154505 -10.884803 -147.067007
-0.075190 -10.954746 -147.068373
-2.797826 -8.801869 -146.940016
-2.708010 -8.923736 -146.938959
-2.604350 -8.944652 -146.940325
-2.500690 -8.965567 -146.941691
-2.410874 -9.087434 -146.940634
-2.307214 -9.108349 -146.942000
-2.245086 -9.432120 -146.936096
-2.155271 -9.553987 -146.935039
-2.065455 -9.675854 -146.933982
-1.975639 -9.797721 -146.932925
-1.885823 -9.919588 -146.931868
-1.796007 -10.041455 -146.930811
-1.706191 -10.163322 -146.929754
-1.616376 -10.285189 -146.928697
-1.512715 -10.306104 -146.930063
-1.422900 -10.427971 -146.929005
-1.319239 -10.448886 -146.930371
-1.243268 -10.671705 -146.926891
-1.139608 -10.692620 -146.928257
-1.049792 -10.814487 -146.927200
-0.946132 -10.835403 -146.928566
-0.842472 -10.856318 -146.929932
-0.752656 -10.978185 -146.928875
-0.648996 -10.999100 -146.930241
-0.545335 -11.020015 -146.931607
-0.441675 -11.040930 -146.932973
-0.338015 -11.061845 -146.934339
-0.248199 -11.183712 -146.933282
-0.144539 -11.204627 -146.934648
-0.040879 -11.225543 -146.936014
0.062781 -11.246458 -146.937380
0.166441 -11.267373 -146.938746
0.270101 -11.288288 -146.940112
0.373762 -11.309203 -146.941478
0.477422 -11.330118 -146.942844
0.581082 -11.351033 -146.944210
0.684742 -11.371949 -146.945576
0.788402 -11.392864 -146.946942
0.892062 -11.413779 -146.948308
0.995723 -11.434694 -146.949674
1.099383 -11.455609 -146.951040
1.203043 -11.476524 -146.952406
1.292859 -11.598391 -146.951349
1.396519 -11.619306 -146.952715
1.500179 -11.640221 -146.954081
1.603839 -11.661137 -146.955447
1.707499 -11.682052 -146.956813
1.811160 -11.702967 -146.958179
1.928664 -11.622930 -146.961968
2.032324 -11.643845 -146.963334
2.135984 -11.664760 -146.964700
2.239644 -11.685675 -146.966066
2.343305 -11.706591 -146.967432
2.446965 -11.727506 -146.968798
2.550625 -11.748421 -146.970164
2.654285 -11.769336 -146.971530
2.757945 -11.790251 -146.972897
2.861605 -11.811166 -146.974263
2.965266 -11.832081 -146.975629
3.068926 -11.852997 -146.976995
3.172586 -11.873912 -146.978361
3.276246 -11.894827 -146.979727
3.379906 -11.915742 -146.981093
3.497411 -11.835705 -146.984882
3.601071 -11.856620 -146.986248
3.704731 -11.877535 -146.987614
3.822236 -11.797499 -146.991403
3.925896 -11.818414 -146.992769
4.029556 -11.839329 -146.994135
4.133216 -11.860244 -146.995501
4.250720 -11.780207 -146.999290
4.354381 -11.801122 -147.000656
4.471885 -11.721086 -147.004445
4.589390 -11.641049 -147.008234
4.706894 -11.561012 -147.012024
4.810554 -11.581927 -147.013390
4.928059 -11.501890 -147.017179
5.045563 -11.421854 -147.020968
5.163068 -11.341817 -147.024757
5.335950 -10.857972 -147.038239
5.439610 -10.878887 -147.039605
5.557114 -10.798851 -147.043394
5.660774 -10.819766 -147.044760
5.764434 -10.840681 -147.046126
5.881939 -10.760644 -147.049915
5.985599 -10.781559 -147.051281
6.103104 -10.701523 -147.055070
6.206764 -10.722438 -147.056436
6.338113 -10.541449 -147.062648
6.469461 -10.360460 -147.068861
6.573122 -10.381375 -147.070227
6.690626 -10.301339 -147.074016
-1.152442 -10.289199 -146.891457
-1.013726 -10.349831 -146.890400
-0.875010 -10.410464 -146.889343
-0.774780 -10.376747 -146.890709
-0.636064 -10.437379 -146.889652
-0.497347 -10.498011 -146.888595
-0.166199 -11.030388 -146.875422
-0.027483 -11.091021 -146.874365
0.111233 -11.151653 -146.873308
0.211463 -11.117936 -146.874674
0.350180 -11.178568 -146.873617
0.488896 -11.239200 -146.872560
0.589126 -11.205483 -146.873926
0.727842 -11.266115 -146.872868
0.866558 -11.326747 -146.871811
1.005275 -11.387379 -146.870754
1.143991 -11.448011 -146.869697
1.282707 -11.508644 -146.868640
1.421424 -11.569276 -146.867583
1.598626 -11.724257 -146.864103
1.775829 -11.879238 -146.860622
1.914545 -11.939870 -146.859565
2.053262 -12.000502 -146.858508
2.153492 -11.966785 -146.859874
2.292208 -12.027417 -146.858817
2.392438 -11.993700 -146.860183
2.569640 -12.148682 -146.856703
2.669870 -12.114965 -146.858069
2.808587 -12.175597 -146.857012
2.908817 -12.141880 -146.858378
3.009047 -12.108163 -146.859744
3.109276 -12.074446 -146.861110
3.209506 -12.040729 -146.862476
3.309736 -12.007012 -146.863842
3.448453 -12.067644 -146.862785
3.548683 -12.033927 -146.864151
3.648912 -12.000210 -146.865517
3.749142 -11.966493 -146.866883
3.849372 -11.932776 -146.868249
3.949602 -11.899059 -146.869615
4.049832 -11.865342 -146.870981
4.150062 -11.831625 -146.872347
4.250292 -11.797908 -146.873713
4.389008 -11.858540 -146.872656
4.489238 -11.824823 -146.874022
4.589468 -11.791106 -146.875388
4.689698 -11.757389 -146.876754
4.789928 -11.723672 -146.878120
4.890158 -11.689955 -146.879486
4.990388 -11.656238 -146.880852
5.090618 -11.622521 -146.882218
5.190848 -11.588804 -146.883584
5.291078 -11.555087 -146.884950
5.391307 -11.521370 -146.886316
5.491537 -11.487653 -146.887682
5.591767 -11.453936 -146.889048
5.691997 -11.420219 -146.890414
5.792227 -11.386502 -146.891780
5.892457 -11.352785 -146.893146
5.992687 -11.319068 -146.894512
6.092917 -11.285351 -146.895878
6.193147 -11.251634 -146.897244
6.293377 -11.217917 -146.898610
6.393607 -11.184200 -146.899976
6.493837 -11.150483 -146.901342
6.555580 -11.022417 -146.905131
6.655810 -10.988700 -146.906497
6.756040 -10.954983 -146.907863
6.856270 -10.921266 -146.909229
6.956500 -10.887549 -146.910595
7.056730 -10.853832 -146.911961
7.156960 -10.820115 -146.913327
7.257190 -10.786398 -146.914693
7.357420 -10.752681 -146.916059
7.457649 -10.718964 -146.917425
7.557879 -10.685247 -146.918791
7.619623 -10.557181 -146.922581
7.719853 -10.523464 -146.923947
7.820083 -10.489747 -146.925313
7.920313 -10.456030 -146.926679
8.020543 -10.422313 -146.928045
8.120773 -10.388596 -146.929411
8.221002 -10.354879 -146.930777
8.282746 -10.226813 -146.934566
8.382976 -10.193096 -146.935932
8.483206 -10.159379 -146.937298
8.429490 -9.748265 -146.948356
8.529720 -9.714548 -146.949722
8.629950 -9.680831 -146.951088
8.730180 -9.647114 -146.952454
8.791924 -9.519048 -146.956244
8.892154 -9.485331 -146.957610
8.953897 -9.357265 -146.961399
9.015641 -9.229199 -146.965188
9.077384 -9.101133 -146.968977
9.177614 -9.067416 -146.970343
9.239358 -8.939350 -146.974132
9.301101 -8.811284 -146.977921
9.362845 -8.683217 -146.981710
9.424588 -8.555151 -146.985500
9.486332 -8.427085 -146.989289
9.548075 -8.299019 -146.993078
9.648305 -8.265302 -146.994444
9.710049 -8.137236 -146.998233
9.771792 -8.009170 -147.002022
9.833536 -7.881104 -147.005811
9.895280 -7.753038 -147.009600
9.957023 -7.624972 -147.013390
9.826335 -7.025160 -147.029294
9.888078 -6.897094 -147.033083
9.949822 -6.769028 -147.036873
9.857620 -6.263565 -147.050354
9.919363 -6.135499 -147.054143
