ply
format ascii 1.0
element vertex 1157
property float x
property float y
property float z
element face 0
property list uchar uint vertex_indices
end_header
4.116267 -12.135135 -145.822944
4.186210 -12.055820 -145.824310
4.336658 -12.038971 -145.823253
4.487106 -12.022122 -145.822195
4.637554 -12.005273 -145.821138
4.788002 -11.988423 -145.820081
5.018954 -12.034040 -145.816601
5.088897 -11.954725 -145.817967
5.239345 -11.937876 -145.816910
5.309288 -11.858561 -145.818276
5.459736 -11.841712 -145.817219
5.529679 -11.762398 -145.818585
5.599622 -11.683083 -145.819951
5.750070 -11.666234 -145.818894
5.900518 -11.649385 -145.817837
6.050966 -11.632535 -145.816780
6.201414 -11.615686 -145.815722
6.351862 -11.598837 -145.814665
6.421805 -11.519522 -145.816031
6.491748 -11.440208 -145.817397
6.642196 -11.423359 -145.816340
6.712139 -11.344044 -145.817706
6.862587 -11.327195 -145.816649
7.013035 -11.310346 -145.815592
7.082978 -11.231031 -145.816958
7.233426 -11.214182 -145.815901
7.303369 -11.134867 -145.817267
7.453817 -11.118018 -145.816210
7.523760 -11.038703 -145.817576
7.593703 -10.959389 -145.818942
7.744151 -10.942539 -145.817885
7.814094 -10.863225 -145.819251
7.884037 -10.783910 -145.820617
7.953980 -10.704595 -145.821983
8.104428 -10.687746 -145.820926
8.174371 -10.608432 -145.822292
8.244314 -10.529117 -145.823658
8.394762 -10.512268 -145.822601
8.464705 -10.432953 -145.823967
8.534649 -10.353638 -145.825333
8.604592 -10.274324 -145.826699
8.674535 -10.195009 -145.828065
8.744478 -10.115694 -145.829431
8.814421 -10.036380 -145.830797
8.964869 -10.019530 -145.829740
9.034812 -9.940216 -145.831106
9.104755 -9.860901 -145.832472
9.174698 -9.781586 -145.833838
9.244642 -9.702272 -145.835204
9.314585 -9.622957 -145.836570
9.384528 -9.543642 -145.837936
9.454471 -9.464328 -145.839302
9.524414 -9.385013 -145.840668
9.594357 -9.305698 -145.842034
9.664301 -9.226384 -145.843400
9.734244 -9.147069 -145.844766
9.804187 -9.067754 -145.846132
9.874130 -8.988440 -145.847498
9.944073 -8.909125 -145.848864
10.014016 -8.829810 -145.850230
10.083960 -8.750495 -145.851596
10.153903 -8.671181 -145.852962
10.223846 -8.591866 -145.854328
10.213284 -8.450086 -145.858117
10.283227 -8.370771 -145.859483
10.353171 -8.291457 -145.860849
10.423114 -8.212142 -145.862215
10.493057 -8.132827 -145.863581
10.563000 -8.053512 -145.864947
10.552439 -7.911732 -145.868736
10.622382 -7.832418 -145.870102
10.692325 -7.753103 -145.871468
10.762268 -7.673788 -145.872834
10.832211 -7.594473 -145.874200
10.821650 -7.452693 -145.877989
10.891593 -7.373379 -145.879355
10.881031 -7.231598 -145.883145
10.950974 -7.152284 -145.884511
10.940413 -7.010503 -145.888300
10.929851 -6.868723 -145.892089
10.838785 -6.664477 -145.898301
10.828224 -6.522697 -145.902090
10.898167 -6.443383 -145.903456
10.887605 -6.301602 -145.907245
10.957548 -6.222288 -145.908612
11.027492 -6.142973 -145.909978
11.016930 -6.001193 -145.913767
11.006369 -5.859412 -145.917556
10.995807 -5.717632 -145.921345
10.985246 -5.575852 -145.925134
10.974684 -5.434072 -145.928923
10.883618 -5.229826 -145.935135
10.873056 -5.088046 -145.938925
10.862495 -4.946266 -145.942714
10.932438 -4.866951 -145.944080
10.921876 -4.725171 -145.947869
10.911315 -4.583390 -145.951658
10.900753 -4.441610 -145.955447
10.970696 -4.362296 -145.956813
10.960135 -4.220515 -145.960602
11.030078 -4.141201 -145.961968
11.019517 -3.999420 -145.965758
11.089460 -3.920106 -145.967124
11.078898 -3.778325 -145.970913
10.987832 -3.574080 -145.977125
10.896766 -3.369834 -145.983337
10.322671 -2.790795 -146.004088
7.877153 -10.980228 -145.816505
7.999020 -10.890413 -145.815448
8.120887 -10.800597 -145.814391
8.242754 -10.710781 -145.813333
8.263669 -10.607121 -145.814699
8.385536 -10.517305 -145.813642
8.406451 -10.413645 -145.815008
8.528318 -10.323829 -145.813951
8.549233 -10.220169 -145.815317
8.973956 -10.171886 -145.806991
9.196775 -10.095914 -145.803511
9.318642 -10.006099 -145.802453
9.440509 -9.916283 -145.801396
9.461424 -9.812623 -145.802762
9.583291 -9.722807 -145.801705
9.705158 -9.632991 -145.800648
9.726073 -9.529331 -145.802014
9.746988 -9.425671 -145.803380
9.868855 -9.335855 -145.802323
9.889771 -9.232195 -145.803689
10.011638 -9.142379 -145.802632
10.133505 -9.052563 -145.801575
10.255372 -8.962747 -145.800518
10.276287 -8.859087 -145.801884
10.398154 -8.769271 -145.800827
10.419069 -8.665611 -145.802193
10.540936 -8.575795 -145.801136
10.662803 -8.485979 -145.800078
10.683718 -8.382319 -145.801444
10.805585 -8.292503 -145.800387
10.826500 -8.188843 -145.801753
10.948367 -8.099027 -145.800696
10.969283 -7.995367 -145.802062
10.990198 -7.891707 -145.803428
11.011113 -7.788047 -145.804794
11.032028 -7.684387 -145.806160
11.052943 -7.580727 -145.807526
11.073858 -7.477066 -145.808892
11.195725 -7.387251 -145.807835
11.216640 -7.283590 -145.809201
11.237556 -7.179930 -145.810567
11.258471 -7.076270 -145.811933
11.279386 -6.972610 -145.813299
11.300301 -6.868950 -145.814665
11.321216 -6.765290 -145.816031
11.342131 -6.661629 -145.817397
11.363046 -6.557969 -145.818763
11.383962 -6.454309 -145.820129
11.404877 -6.350649 -145.821495
11.425792 -6.246989 -145.822861
11.446707 -6.143329 -145.824227
11.467622 -6.039669 -145.825593
11.488537 -5.936008 -145.826959
11.509452 -5.832348 -145.828325
11.530367 -5.728688 -145.829691
11.551283 -5.625028 -145.831058
11.471246 -5.507523 -145.834847
11.492161 -5.403863 -145.836213
11.513076 -5.300203 -145.837579
11.533991 -5.196543 -145.838945
11.554906 -5.092883 -145.840311
11.575821 -4.989223 -145.841677
11.596737 -4.885562 -145.843043
11.617652 -4.781902 -145.844409
11.537615 -4.664398 -145.848198
11.558530 -4.560738 -145.849564
11.579445 -4.457077 -145.850930
11.499408 -4.339573 -145.854719
11.520324 -4.235913 -145.856085
11.440287 -4.118408 -145.859874
11.461202 -4.014748 -145.861240
11.381165 -3.897244 -145.865029
11.402080 -3.793584 -145.866395
11.322043 -3.676079 -145.870185
11.342959 -3.572419 -145.871551
11.262922 -3.454914 -145.875340
11.283837 -3.351254 -145.876706
11.203800 -3.233750 -145.880495
11.224715 -3.130090 -145.881861
11.245630 -3.026429 -145.883227
11.165594 -2.908925 -145.887016
11.186509 -2.805265 -145.888382
11.106472 -2.687760 -145.892171
11.127387 -2.584100 -145.893537
11.047350 -2.466596 -145.897326
10.866362 -2.335247 -145.903539
10.685373 -2.203898 -145.909751
10.807240 -2.114082 -145.908694
10.828155 -2.010422 -145.910060
10.849070 -1.906762 -145.911426
10.869985 -1.803102 -145.912792
10.890900 -1.699442 -145.914158
10.810864 -1.581937 -145.917947
10.730827 -1.464433 -145.921736
10.751742 -1.360772 -145.923102
10.671705 -1.243268 -145.926891
10.187861 -1.070386 -145.940373
10.208776 -0.966726 -145.941739
10.431595 -0.890754 -145.938259
10.452510 -0.787094 -145.939625
10.473425 -0.683434 -145.940991
10.595292 -0.593618 -145.939934
10.515255 -0.476114 -145.943723
10.536171 -0.372454 -145.945089
10.557086 -0.268794 -145.946455
10.578001 -0.165133 -145.947821
10.497964 -0.047629 -145.951610
10.518879 0.056031 -145.952976
10.438842 0.173536 -145.956765
10.358806 0.291040 -145.960554
10.278769 0.408545 -145.964343
9.895876 0.567582 -145.975402
10.017743 0.657398 -145.974345
10.038659 0.761058 -145.975711
10.160526 0.850874 -145.974654
10.181441 0.954534 -145.976020
10.202356 1.058194 -145.977386
10.122319 1.175699 -145.981175
10.042282 1.293203 -145.984964
9.962245 1.410708 -145.988753
9.983161 1.514368 -145.990119
10.004076 1.618028 -145.991485
10.024991 1.721688 -145.992851
9.944954 1.839193 -145.996640
9.965869 1.942853 -145.998006
9.986784 2.046513 -145.999372
10.007699 2.150173 -146.000738
9.927663 2.267678 -146.004528
9.948578 2.371338 -146.005894
9.868541 2.488842 -146.009683
9.687552 2.620191 -146.015895
9.607516 2.737696 -146.019684
9.426527 2.869044 -146.025896
9.346490 2.986549 -146.029685
9.367405 3.090209 -146.031051
9.287368 3.207714 -146.034841
9.308284 3.311374 -146.036207
9.228247 3.428878 -146.039996
9.249162 3.532538 -146.041362
9.169125 3.650043 -146.045151
9.089088 3.767547 -146.048940
8.908100 3.898896 -146.055152
8.828063 4.016401 -146.058941
8.748026 4.133905 -146.062731
8.667989 4.251410 -146.066520
8.688904 4.355070 -146.067886
8.709820 4.458730 -146.069252
8.629783 4.576234 -146.073041
8.650698 4.679895 -146.074407
8.570661 4.797399 -146.078196
11.880700 -6.202425 -145.825579
11.941332 -6.063709 -145.824522
11.907615 -5.963479 -145.825888
11.968247 -5.824762 -145.824831
11.934530 -5.724533 -145.826197
11.900813 -5.624303 -145.827563
11.961446 -5.485586 -145.826506
12.022078 -5.346870 -145.825449
11.988361 -5.246640 -145.826815
11.954644 -5.146410 -145.828181
11.920927 -5.046180 -145.829547
11.981559 -4.907464 -145.828490
11.947842 -4.807234 -145.829856
11.914125 -4.707004 -145.831222
11.880408 -4.606774 -145.832588
11.846691 -4.506544 -145.833954
11.907323 -4.367828 -145.832897
11.873606 -4.267598 -145.834263
11.839889 -4.167368 -145.835629
11.900521 -4.028652 -145.834572
11.866804 -3.928422 -145.835938
11.833087 -3.828192 -145.837304
11.799370 -3.727962 -145.838670
11.765653 -3.627732 -145.840036
11.731936 -3.527502 -145.841402
11.698219 -3.427272 -145.842768
11.664502 -3.327042 -145.844134
11.725134 -3.188326 -145.843077
11.691417 -3.088096 -145.844443
11.657700 -2.987866 -145.845809
11.623983 -2.887636 -145.847175
11.590266 -2.787406 -145.848541
11.556549 -2.687176 -145.849907
11.522832 -2.586946 -145.851273
11.489115 -2.486717 -145.852639
11.455398 -2.386487 -145.854005
11.327332 -2.324743 -145.857794
11.293615 -2.224513 -145.859160
11.165549 -2.162770 -145.862949
11.226181 -2.024053 -145.861892
11.286813 -1.885337 -145.860835
11.347445 -1.746621 -145.859778
11.313728 -1.646391 -145.861144
11.374360 -1.507675 -145.860087
11.340643 -1.407445 -145.861453
11.306926 -1.307215 -145.862819
11.367558 -1.168498 -145.861762
11.333841 -1.068268 -145.863128
11.300124 -0.968039 -145.864494
11.266407 -0.867809 -145.865860
11.327040 -0.729092 -145.864803
11.293323 -0.628862 -145.866169
11.259606 -0.528632 -145.867535
11.225889 -0.428403 -145.868901
11.286521 -0.289686 -145.867844
11.252804 -0.189456 -145.869210
11.219087 -0.089226 -145.870576
11.185370 0.011004 -145.871942
11.151653 0.111233 -145.873308
11.117936 0.211463 -145.874674
11.084219 0.311693 -145.876040
11.050502 0.411923 -145.877406
11.111134 0.550640 -145.876349
11.077417 0.650869 -145.877715
11.043700 0.751099 -145.879081
11.009983 0.851329 -145.880447
10.976266 0.951559 -145.881813
10.942549 1.051789 -145.883179
10.908832 1.152019 -145.884545
10.875115 1.252249 -145.885911
10.935747 1.390965 -145.884854
10.902030 1.491195 -145.886220
10.868313 1.591425 -145.887586
10.834596 1.691655 -145.888952
10.800879 1.791885 -145.890318
10.767162 1.892115 -145.891684
10.733445 1.992345 -145.893050
10.699728 2.092575 -145.894416
10.666011 2.192805 -145.895782
10.537945 2.254548 -145.899571
10.504228 2.354778 -145.900937
10.470511 2.455008 -145.902303
10.436794 2.555238 -145.903669
10.403077 2.655468 -145.905035
10.369360 2.755698 -145.906401
10.241294 2.817441 -145.910190
10.207577 2.917671 -145.911556
10.173860 3.017901 -145.912922
10.140143 3.118131 -145.914288
10.106426 3.218361 -145.915654
10.072709 3.318591 -145.917020
10.038992 3.418821 -145.918386
10.005275 3.519051 -145.919752
9.971558 3.619281 -145.921118
9.937841 3.719511 -145.922484
9.809775 3.781254 -145.926273
9.776058 3.881484 -145.927639
9.742341 3.981714 -145.929005
9.708624 4.081944 -145.930371
9.674907 4.182174 -145.931738
9.641190 4.282404 -145.933104
9.607473 4.382634 -145.934470
9.479407 4.444377 -145.938259
9.445690 4.544607 -145.939625
9.411973 4.644837 -145.940991
9.283906 4.706581 -145.944780
9.250189 4.806811 -145.946146
9.216472 4.907041 -145.947512
9.182755 5.007270 -145.948878
9.054689 5.069014 -145.952667
9.020972 5.169244 -145.954033
8.987255 5.269474 -145.955399
8.953538 5.369704 -145.956765
8.919821 5.469934 -145.958131
8.791755 5.531677 -145.961920
8.758038 5.631907 -145.963286
8.629972 5.693651 -145.967075
8.596255 5.793881 -145.968441
8.468189 5.855624 -145.972231
8.434472 5.955854 -145.973597
8.306406 6.017598 -145.977386
8.272689 6.117828 -145.978752
8.144623 6.179571 -145.982541
8.016557 6.241315 -145.986330
7.982840 6.341545 -145.987696
7.854773 6.403288 -145.991485
7.632358 6.426545 -145.997697
7.504292 6.488289 -146.001487
7.376226 6.550032 -146.005276
7.342509 6.650262 -146.006642
7.214443 6.712006 -146.010431
7.180726 6.812236 -146.011797
7.052660 6.873979 -146.015586
6.924594 6.935723 -146.019375
6.702178 6.958980 -146.025587
6.574112 7.020724 -146.029377
6.446046 7.082467 -146.033166
6.317980 7.144211 -146.036955
10.845146 1.592933 -145.881538
10.765831 1.662876 -145.882904
10.748982 1.813324 -145.881847
10.669667 1.883267 -145.883213
10.590352 1.953210 -145.884579
10.573503 2.103658 -145.883522
10.494188 2.173602 -145.884888
10.664736 2.565564 -145.876561
10.647886 2.716012 -145.875504
10.631037 2.866460 -145.874447
10.614188 3.016908 -145.873390
10.534873 3.086851 -145.874756
10.518024 3.237299 -145.873699
10.438709 3.307242 -145.875065
10.359394 3.377185 -145.876431
10.280079 3.447128 -145.877797
10.200765 3.517071 -145.879163
10.121450 3.587015 -145.880529
10.104600 3.737463 -145.879472
10.025286 3.807406 -145.880838
10.008436 3.957854 -145.879781
9.929122 4.027797 -145.881147
9.912272 4.178245 -145.880090
9.832958 4.248188 -145.881456
9.753643 4.318131 -145.882822
9.736794 4.468579 -145.881765
9.595013 4.458017 -145.885554
9.578164 4.608465 -145.884497
9.623780 4.839418 -145.881016
9.606931 4.989866 -145.879959
9.590082 5.140314 -145.878902
9.573233 5.290762 -145.877845
9.493918 5.360705 -145.879211
9.414603 5.430648 -145.880577
9.397754 5.581096 -145.879520
9.318439 5.651039 -145.880886
9.239124 5.720982 -145.882252
9.159809 5.790926 -145.883618
9.080495 5.860869 -145.884984
9.001180 5.930812 -145.886350
8.984330 6.081260 -145.885293
8.905016 6.151203 -145.886659
8.825701 6.221146 -145.888025
8.746386 6.291089 -145.889391
8.729537 6.441537 -145.888334
8.650222 6.511480 -145.889700
8.570907 6.581424 -145.891066
8.491592 6.651367 -145.892432
8.412278 6.721310 -145.893798
8.332963 6.791253 -145.895164
8.253648 6.861196 -145.896530
8.174333 6.931139 -145.897896
8.095018 7.001083 -145.899262
8.015704 7.071026 -145.900628
7.936389 7.140969 -145.901994
7.857074 7.210912 -145.903360
7.777759 7.280855 -145.904726
7.698445 7.350798 -145.906092
7.619130 7.420742 -145.907458
7.477349 7.410180 -145.911247
7.398035 7.480123 -145.912613
7.318720 7.550066 -145.913979
7.239405 7.620009 -145.915345
7.160090 7.689953 -145.916711
7.080775 7.759896 -145.918077
7.001461 7.829839 -145.919443
6.922146 7.899782 -145.920809
6.842831 7.969725 -145.922175
6.763516 8.039668 -145.923541
6.684202 8.109612 -145.924907
6.542421 8.099050 -145.928697
6.463106 8.168993 -145.930063
6.383792 8.238936 -145.931429
6.304477 8.308879 -145.932795
6.162696 8.298318 -145.936584
6.020916 8.287756 -145.940373
5.754205 8.116185 -145.949008
5.425028 7.864109 -145.960067
5.345713 7.934052 -145.961433
5.266398 8.003995 -145.962799
5.124618 7.993434 -145.966588
5.045303 8.063377 -145.967954
4.903523 8.052815 -145.971743
4.761742 8.042254 -145.975532
4.682428 8.112197 -145.976898
4.540647 8.101635 -145.980687
4.398867 8.091073 -145.984477
4.257087 8.080512 -145.988266
4.052841 7.989445 -145.994478
3.911060 7.978884 -145.998267
3.769280 7.968322 -146.002056
3.689965 8.038265 -146.003422
3.548185 8.027704 -146.007211
3.468870 8.097647 -146.008577
9.196722 5.747118 -145.893784
9.106907 5.868985 -145.892727
9.017091 5.990853 -145.891670
8.927275 6.112720 -145.890613
8.823615 6.133635 -145.891979
8.733799 6.255502 -145.890922
8.630139 6.276417 -145.892288
8.526479 6.297332 -145.893654
8.436663 6.419199 -145.892596
8.346847 6.541066 -145.891539
8.243187 6.561981 -145.892905
8.153371 6.683848 -145.891848
8.063555 6.805715 -145.890791
7.959895 6.826630 -145.892157
7.856235 6.847546 -145.893523
7.766419 6.969413 -145.892466
7.662759 6.990328 -145.893832
7.559099 7.011243 -145.895198
7.455438 7.032158 -145.896564
7.365623 7.154025 -145.895507
7.261962 7.174940 -145.896873
7.255213 7.902519 -145.881277
7.165397 8.024386 -145.880220
7.061737 8.045301 -145.881586
6.958076 8.066216 -145.882952
6.854416 8.087131 -145.884318
6.750756 8.108046 -145.885684
6.647096 8.128961 -145.887050
6.557280 8.250828 -145.885993
6.453620 8.271744 -145.887359
6.349960 8.292659 -145.888725
6.246300 8.313574 -145.890091
6.156484 8.435441 -145.889034
6.052824 8.456356 -145.890400
5.949164 8.477271 -145.891766
5.845503 8.498186 -145.893132
5.741843 8.519101 -145.894498
5.638183 8.540017 -145.895864
5.534523 8.560932 -145.897230
5.430863 8.581847 -145.898596
5.327203 8.602762 -145.899962
5.223542 8.623677 -145.901328
5.119882 8.644592 -145.902694
5.016222 8.665507 -145.904060
4.912562 8.686422 -145.905426
4.808902 8.707338 -145.906792
4.691397 8.627301 -145.910581
4.587737 8.648216 -145.911947
4.484077 8.669131 -145.913313
4.380417 8.690046 -145.914679
4.276757 8.710961 -145.916045
4.173096 8.731876 -145.917411
4.069436 8.752792 -145.918777
3.965776 8.773707 -145.920143
3.862116 8.794622 -145.921509
3.744612 8.714585 -145.925299
3.640951 8.735500 -145.926665
3.537291 8.756415 -145.928031
3.419787 8.676379 -145.931820
3.316127 8.697294 -145.933186
3.198622 8.617257 -145.936975
3.094962 8.638172 -145.938341
2.991302 8.659087 -145.939707
2.887642 8.680002 -145.941073
2.783981 8.700917 -145.942439
2.666477 8.620881 -145.946228
2.562817 8.641796 -145.947594
2.445312 8.561759 -145.951383
2.341652 8.582674 -145.952749
2.224148 8.502637 -145.956538
2.106643 8.422601 -145.960328
1.989139 8.342564 -145.964117
1.885479 8.363479 -145.965483
1.781818 8.384394 -145.966849
5.236959 8.658934 -145.918324
5.098242 8.719566 -145.917267
4.959526 8.780198 -145.916210
4.859296 8.746481 -145.917576
4.720580 8.807114 -145.916519
4.581864 8.867746 -145.915462
4.481634 8.834029 -145.916828
4.342917 8.894661 -145.915771
4.242687 8.860944 -145.917137
4.103971 8.921576 -145.916079
3.965255 8.982208 -145.915022
3.865025 8.948491 -145.916388
3.726309 9.009123 -145.915331
3.626079 8.975406 -145.916697
3.525849 8.941689 -145.918063
3.425619 8.907972 -145.919429
3.286902 8.968604 -145.918372
3.186673 8.934887 -145.919738
3.047956 8.995519 -145.918681
2.947726 8.961802 -145.920047
2.809010 9.022434 -145.918990
2.708780 8.988717 -145.920356
2.608550 8.955000 -145.921722
2.508320 8.921283 -145.923088
2.408090 8.887566 -145.924454
2.307860 8.853849 -145.925820
2.207631 8.820132 -145.927186
2.107401 8.786415 -145.928552
2.007171 8.752698 -145.929918
1.906941 8.718981 -145.931284
1.806711 8.685264 -145.932650
1.706481 8.651547 -145.934016
1.606251 8.617830 -145.935382
1.506021 8.584113 -145.936748
1.367305 8.644746 -145.935691
1.267075 8.611029 -145.937057
1.166845 8.577312 -145.938423
1.066615 8.543595 -145.939789
0.966385 8.509878 -145.941155
0.866155 8.476161 -145.942521
0.765925 8.442444 -145.943887
0.665695 8.408727 -145.945253
0.565465 8.375010 -145.946619
0.465235 8.341293 -145.947985
0.365006 8.307576 -145.949351
0.264776 8.273859 -145.950717
0.164546 8.240142 -145.952083
0.064316 8.206425 -145.953449
-0.035914 8.172708 -145.954815
-0.136144 8.138991 -145.956181
-0.236374 8.105274 -145.957547
-0.336604 8.071557 -145.958913
-0.436834 8.037840 -145.960279
-0.537064 8.004123 -145.961645
-0.637294 7.970406 -145.963011
-0.737524 7.936689 -145.964377
-0.837754 7.902972 -145.965743
-0.899497 7.774905 -145.969533
-0.999727 7.741188 -145.970899
-1.099957 7.707471 -145.972265
-1.200187 7.673754 -145.973631
-1.300417 7.640037 -145.974997
-1.400647 7.606320 -145.976363
-1.500877 7.572603 -145.977729
-1.601107 7.538886 -145.979095
-1.701336 7.505169 -145.980461
-1.763080 7.377103 -145.984250
-1.863310 7.343386 -145.985616
-1.963540 7.309669 -145.986982
-2.025283 7.181603 -145.990771
-2.125513 7.147886 -145.992137
-2.187257 7.019820 -145.995926
-2.287487 6.986103 -145.997292
-2.349230 6.858037 -146.001081
-2.449460 6.824320 -146.002447
-2.472717 6.601905 -146.008660
-2.534461 6.473839 -146.012449
-2.634691 6.440122 -146.013815
-2.734921 6.406405 -146.015181
-2.796664 6.278339 -146.018970
-2.896894 6.244622 -146.020336
-2.997124 6.210905 -146.021702
-3.097354 6.177188 -146.023068
-3.159098 6.049121 -146.026857
-3.259328 6.015404 -146.028223
-3.282585 5.792989 -146.034435
-3.267356 5.476225 -146.043071
-3.367586 5.442508 -146.044437
-3.429329 5.314442 -146.048226
-3.491073 5.186376 -146.052015
-3.552816 5.058310 -146.055804
-1.301190 7.947068 -145.959744
-1.451637 7.930219 -145.958687
-1.521581 7.850905 -145.960053
-1.591524 7.771590 -145.961419
-1.661467 7.692275 -145.962785
-1.731410 7.612961 -145.964151
-1.881858 7.596111 -145.963094
-2.032306 7.579262 -145.962037
-2.182754 7.562413 -145.960979
-2.252697 7.483098 -145.962345
-2.403145 7.466249 -145.961288
-2.473088 7.386935 -145.962654
-2.543031 7.307620 -145.964020
-2.612974 7.228305 -145.965386
-2.682917 7.148991 -145.966752
-2.752860 7.069676 -145.968118
-2.822804 6.990361 -145.969484
-2.973251 6.973512 -145.968427
-3.043195 6.894197 -145.969793
-3.113138 6.814883 -145.971159
-3.183081 6.735568 -145.972525
-3.253024 6.656253 -145.973891
-3.322967 6.576939 -145.975257
-3.473415 6.560089 -145.974200
-3.543358 6.480775 -145.975566
-3.613301 6.401460 -145.976932
-3.683244 6.322145 -145.978298
-3.753188 6.242831 -145.979664
-3.823131 6.163516 -145.981030
-3.893074 6.084201 -145.982396
-3.963017 6.004887 -145.983762
-4.032960 5.925572 -145.985128
-4.102903 5.846257 -145.986494
-4.172847 5.766943 -145.987861
-4.242790 5.687628 -145.989227
-4.312733 5.608313 -145.990593
-4.382676 5.528999 -145.991959
-4.372115 5.387218 -145.995748
-4.442058 5.307904 -145.997114
-4.512001 5.228589 -145.998480
-4.581944 5.149274 -145.999846
-4.651887 5.069960 -146.001212
-4.721830 4.990645 -146.002578
-4.711269 4.848865 -146.006367
-4.781212 4.769550 -146.007733
-4.851155 4.690235 -146.009099
-4.840594 4.548455 -146.012888
-4.910537 4.469140 -146.014254
-4.980480 4.389826 -146.015620
-5.050423 4.310511 -146.016986
-5.120366 4.231196 -146.018352
-5.190309 4.151882 -146.019718
-5.179748 4.010101 -146.023507
-5.169186 3.868321 -146.027296
-5.158625 3.726541 -146.031086
-5.148063 3.584761 -146.034875
-5.137502 3.442981 -146.038664
-5.126940 3.301200 -146.042453
-4.578353 5.734060 -145.979747
-4.700220 5.644244 -145.978690
-4.721135 5.540584 -145.980056
-4.843002 5.450768 -145.978998
-4.863917 5.347108 -145.980364
-4.884833 5.243447 -145.981730
-4.905748 5.139787 -145.983097
-5.027615 5.049971 -145.982039
-5.048530 4.946311 -145.983405
-5.170397 4.856495 -145.982348
-5.191312 4.752835 -145.983714
-5.313179 4.663019 -145.982657
-5.334094 4.559359 -145.984023
-5.355009 4.455699 -145.985389
-5.476876 4.365883 -145.984332
-5.497792 4.262223 -145.985698
-5.619659 4.172407 -145.984641
-5.640574 4.068747 -145.986007
-5.762441 3.978931 -145.984950
-5.783356 3.875271 -145.986316
-5.804271 3.771611 -145.987682
-5.825186 3.667951 -145.989048
-5.846101 3.564291 -145.990414
-5.867016 3.460631 -145.991780
-5.887932 3.356970 -145.993146
-5.908847 3.253310 -145.994512
-5.929762 3.149650 -145.995878
-5.950677 3.045990 -145.997244
-5.971592 2.942330 -145.998610
-5.891555 2.824825 -146.002399
-5.912470 2.721165 -146.003765
-5.933386 2.617505 -146.005131
-5.954301 2.513845 -146.006497
-5.874264 2.396340 -146.010286
-5.895179 2.292680 -146.011652
-5.916094 2.189020 -146.013018
-5.937009 2.085360 -146.014384
-5.957924 1.981700 -146.015751
-5.978840 1.878039 -146.017117
-5.999755 1.774379 -146.018483
-6.020670 1.670719 -146.019849
-5.940633 1.553215 -146.023638
-5.961548 1.449555 -146.025004
-5.881511 1.332050 -146.028793
-5.902426 1.228390 -146.030159
-5.822390 1.110885 -146.033948
-5.843305 1.007225 -146.035314
-5.864220 0.903565 -146.036680
-5.885135 0.799905 -146.038046
-5.906050 0.696245 -146.039412
-5.926965 0.592585 -146.040778
-5.947880 0.488924 -146.042144
-5.968796 0.385264 -146.043510
-6.440999 2.152261 -145.992789
-6.501631 2.013545 -145.991732
-6.467914 1.913315 -145.993098
-6.434197 1.813085 -145.994464
-6.494829 1.674369 -145.993407
-6.555461 1.535653 -145.992350
-6.521744 1.435423 -145.993716
-6.582376 1.296707 -145.992659
-6.548659 1.196477 -145.994025
-6.514942 1.096247 -145.995391
-6.481225 0.996017 -145.996757
-6.541858 0.857300 -145.995700
-6.508141 0.757071 -145.997066
-6.568773 0.618354 -145.996008
-6.629405 0.479638 -145.994951
-6.595688 0.379408 -145.996317
-6.561971 0.279178 -145.997683
-6.528254 0.178948 -145.999049
-6.494537 0.078718 -146.000415
-6.555169 -0.059998 -145.999358
-6.615801 -0.198714 -145.998301
-6.676433 -0.337431 -145.997244
-6.642716 -0.437661 -145.998610
-6.608999 -0.537891 -145.999976
-6.575282 -0.638120 -146.001342
-6.635914 -0.776837 -146.000285
-6.602197 -0.877067 -146.001651
-6.568480 -0.977297 -146.003017
-6.534763 -1.077526 -146.004383
-6.501046 -1.177756 -146.005749
-6.467329 -1.277986 -146.007115
-6.433612 -1.378216 -146.008481
-6.494244 -1.516933 -146.007424
-6.460527 -1.617162 -146.008790
-6.426810 -1.717392 -146.010156
-6.393093 -1.817622 -146.011522
-6.359376 -1.917852 -146.012888
-6.325659 -2.018082 -146.014254
-6.291942 -2.118312 -146.015620
-6.258225 -2.218542 -146.016986
-6.224508 -2.318772 -146.018352
-6.190791 -2.419002 -146.019718
-6.062725 -2.480745 -146.023507
-6.029008 -2.580975 -146.024873
-5.995291 -2.681205 -146.026239
-5.961574 -2.781435 -146.027605
-5.927857 -2.881665 -146.028971
-5.894140 -2.981895 -146.030337
-5.860423 -3.082125 -146.031703
-5.826706 -3.182355 -146.033069
-5.792989 -3.282585 -146.034435
-5.759272 -3.382815 -146.035801
-5.725555 -3.483045 -146.037167
-5.691838 -3.583275 -146.038533
-5.658121 -3.683504 -146.039899
-5.624404 -3.783734 -146.041266
-5.590687 -3.883964 -146.042632
-5.462621 -3.945708 -146.046421
-5.428904 -4.045938 -146.047787
-5.395187 -4.146168 -146.049153
-5.361470 -4.246398 -146.050519
-5.327753 -4.346628 -146.051885
-5.294036 -4.446857 -146.053251
-5.260319 -4.547087 -146.054617
-5.226602 -4.647317 -146.055983
-5.192885 -4.747547 -146.057349
-5.159168 -4.847777 -146.058715
-5.125451 -4.948007 -146.060081
-4.997385 -5.009751 -146.063870
-4.963668 -5.109981 -146.065236
-4.929951 -5.210210 -146.066602
-4.896234 -5.310440 -146.067968
-4.768168 -5.372184 -146.071757
-4.734451 -5.472414 -146.073123
-4.700734 -5.572644 -146.074489
-4.667017 -5.672874 -146.075855
-4.633300 -5.773104 -146.077221
-4.599583 -5.873334 -146.078587
-4.565866 -5.973564 -146.079953
-4.532149 -6.073793 -146.081319
-4.404083 -6.135537 -146.085108
-4.370366 -6.235767 -146.086474
-4.336649 -6.335997 -146.087840
-4.302932 -6.436227 -146.089206
-4.174866 -6.497970 -146.092996
-4.141149 -6.598200 -146.094362
-4.107432 -6.698430 -146.095728
-3.979366 -6.760174 -146.099517
-3.945649 -6.860404 -146.100883
-3.911932 -6.960634 -146.102249
-3.878215 -7.060863 -146.103615
-3.750148 -7.122607 -146.107404
-3.716431 -7.222837 -146.108770
-3.588365 -7.284580 -146.112559
-3.554648 -7.384810 -146.113925
-3.520931 -7.485040 -146.115291
-3.487214 -7.585270 -146.116657
-3.359148 -7.647014 -146.120446
-3.325431 -7.747244 -146.121812
-4.663524 -6.366195 -145.994739
-4.584209 -6.436138 -145.996105
-4.567360 -6.586586 -145.995048
-4.488046 -6.656529 -145.996414
-4.471196 -6.806977 -145.995357
-4.391882 -6.876920 -145.996723
-4.375033 -7.027368 -145.995665
-4.295718 -7.097311 -145.997031
-4.216403 -7.167254 -145.998397
-4.199554 -7.317702 -145.997340
-4.120239 -7.387645 -145.998706
-4.103390 -7.538093 -145.997649
-4.024076 -7.608036 -145.999015
-4.007226 -7.758484 -145.997958
-3.927912 -7.828427 -145.999324
-3.848597 -7.898370 -146.000690
-3.831748 -8.048818 -145.999633
-3.752433 -8.118761 -146.000999
-3.673119 -8.188705 -146.002365
-3.593804 -8.258648 -146.003731
-3.514489 -8.328591 -146.005097
-3.435174 -8.398534 -146.006463
-3.355860 -8.468477 -146.007829
-3.276545 -8.538420 -146.009195
-3.197230 -8.608364 -146.010561
-3.117916 -8.678307 -146.011927
-3.038601 -8.748250 -146.013293
-3.021752 -8.898698 -146.012236
-2.942437 -8.968641 -146.013602
-2.863123 -9.038584 -146.014968
-2.783808 -9.108527 -146.016334
-2.704493 -9.178470 -146.017700
-2.625178 -9.248414 -146.019066
-2.545864 -9.318357 -146.020432
-2.466549 -9.388300 -146.021798
-2.387234 -9.458243 -146.023164
-2.307920 -9.528186 -146.024530
-2.228605 -9.598129 -146.025896
-2.149290 -9.668072 -146.027262
-2.069976 -9.738016 -146.028628
-1.990661 -9.807959 -146.029994
-1.911346 -9.877902 -146.031360
-1.832032 -9.947845 -146.032726
-1.690251 -9.937284 -146.036516
-1.610937 -10.007227 -146.037882
-1.531622 -10.077170 -146.039248
-1.452307 -10.147113 -146.040614
-1.435458 -10.297561 -146.039556
-1.356144 -10.367504 -146.040923
-1.276829 -10.437447 -146.042289
-1.135049 -10.426886 -146.046078
-1.055734 -10.496829 -146.047444
-0.976419 -10.566772 -146.048810
-0.897105 -10.636715 -146.050176
-0.755324 -10.626154 -146.053965
-0.676010 -10.696097 -146.055331
-0.596695 -10.766040 -146.056697
-0.517380 -10.835983 -146.058063
-0.375600 -10.825422 -146.061852
-0.296285 -10.895365 -146.063218
-0.216971 -10.965308 -146.064584
-0.075190 -10.954746 -146.068373
0.004124 -11.024690 -146.069739
0.083439 -11.094633 -146.071105
0.225219 -11.084071 -146.074894
0.554396 -10.831996 -146.085953
0.633711 -10.901939 -146.087319
0.775491 -10.891377 -146.091108
0.854806 -10.961320 -146.092474
-4.082936 -7.297635 -145.949969
-3.993120 -7.419502 -145.948912
-3.903304 -7.541369 -145.947855
-3.799644 -7.562284 -145.949221
-3.709828 -7.684151 -145.948164
-3.620013 -7.806018 -145.947107
-3.530197 -7.927885 -145.946050
-3.440381 -8.049752 -145.944992
-3.350565 -8.171619 -145.943935
-3.260749 -8.293486 -145.942878
-3.170933 -8.415353 -145.941821
-3.067273 -8.436268 -145.943187
-3.032835 -8.961943 -145.932438
-2.943019 -9.083810 -145.931380
-2.839359 -9.104725 -145.932746
-2.749543 -9.226592 -145.931689
-2.645883 -9.247507 -145.933055
-2.556067 -9.369374 -145.931998
-2.452407 -9.390289 -145.933364
-2.362591 -9.512156 -145.932307
-2.258931 -9.533072 -145.933673
-2.169115 -9.654939 -145.932616
-2.065455 -9.675854 -145.933982
-1.975639 -9.797721 -145.932925
-1.871979 -9.818636 -145.934291
-1.782163 -9.940503 -145.933234
-1.678503 -9.961418 -145.934600
-1.602531 -10.184237 -145.931120
-1.512715 -10.306104 -145.930063
-1.422900 -10.427971 -145.929005
-1.333084 -10.549838 -145.927948
-1.243268 -10.671705 -145.926891
-1.153452 -10.793572 -145.925834
-1.049792 -10.814487 -145.927200
-0.959976 -10.936354 -145.926143
-0.856316 -10.957270 -145.927509
-0.752656 -10.978185 -145.928875
-0.648996 -10.999100 -145.930241
-0.559180 -11.120967 -145.929184
-0.455520 -11.141882 -145.930550
-0.351859 -11.162797 -145.931916
-0.248199 -11.183712 -145.933282
-0.144539 -11.204627 -145.934648
-0.040879 -11.225543 -145.936014
0.062781 -11.246458 -145.937380
0.166441 -11.267373 -145.938746
0.270101 -11.288288 -145.940112
0.373762 -11.309203 -145.941478
0.477422 -11.330118 -145.942844
0.581082 -11.351033 -145.944210
0.684742 -11.371949 -145.945576
0.788402 -11.392864 -145.946942
0.892062 -11.413779 -145.948308
0.981878 -11.535646 -145.947251
1.085538 -11.556561 -145.948617
1.189199 -11.577476 -145.949983
1.292859 -11.598391 -145.951349
1.396519 -11.619306 -145.952715
1.500179 -11.640221 -145.954081
1.603839 -11.661137 -145.955447
1.707499 -11.682052 -145.956813
1.811160 -11.702967 -145.958179
1.914820 -11.723882 -145.959545
2.018480 -11.744797 -145.960911
2.135984 -11.664760 -145.964700
2.239644 -11.685675 -145.966066
2.343305 -11.706591 -145.967432
2.446965 -11.727506 -145.968798
2.550625 -11.748421 -145.970164
2.654285 -11.769336 -145.971530
2.757945 -11.790251 -145.972897
2.861605 -11.811166 -145.974263
2.965266 -11.832081 -145.975629
3.068926 -11.852997 -145.976995
3.172586 -11.873912 -145.978361
3.276246 -11.894827 -145.979727
3.379906 -11.915742 -145.981093
3.483566 -11.936657 -145.982459
3.587227 -11.957572 -145.983825
3.704731 -11.877535 -145.987614
3.808391 -11.898451 -145.988980
3.912051 -11.919366 -145.990346
4.029556 -11.839329 -145.994135
4.133216 -11.860244 -145.995501
4.264565 -11.679255 -146.001713
4.395914 -11.498267 -146.007925
4.527262 -11.317278 -146.014138
4.644767 -11.237241 -146.017927
4.762271 -11.157204 -146.021716
4.865932 -11.178119 -146.023082
4.969592 -11.199035 -146.024448
5.073252 -11.219950 -146.025814
5.176912 -11.240865 -146.027180
5.294417 -11.160828 -146.030969
5.398077 -11.181743 -146.032335
5.515581 -11.101706 -146.036124
5.633086 -11.021670 -146.039914
5.750590 -10.941633 -146.043703
5.868095 -10.861596 -146.047492
5.985599 -10.781559 -146.051281
6.116948 -10.600571 -146.057493
6.234452 -10.520534 -146.061282
6.338113 -10.541449 -146.062648
6.455617 -10.461412 -146.066438
6.573122 -10.381375 -146.070227
6.690626 -10.301339 -146.074016
6.808131 -10.221302 -146.077805
6.925635 -10.141265 -146.081594
7.029295 -10.162180 -146.082960
-1.483591 -9.756822 -145.904630
-1.344874 -9.817454 -145.903573
-1.013726 -10.349831 -145.890400
-0.836523 -10.504813 -145.886920
-0.659321 -10.659794 -145.883440
-0.520604 -10.720426 -145.882382
-0.381888 -10.781058 -145.881325
-0.281658 -10.747341 -145.882691
-0.104456 -10.902322 -145.879211
0.072747 -11.057304 -145.875731
0.211463 -11.117936 -145.874674
0.350180 -11.178568 -145.873617
0.488896 -11.239200 -145.872560
0.589126 -11.205483 -145.873926
0.727842 -11.266115 -145.872868
0.828072 -11.232398 -145.874234
0.928302 -11.198681 -145.875600
1.067018 -11.259313 -145.874543
1.167248 -11.225596 -145.875909
1.421424 -11.569276 -145.867583
1.560140 -11.629908 -145.866526
1.698856 -11.690540 -145.865469
1.876059 -11.845521 -145.861988
2.014775 -11.906153 -145.860931
2.153492 -11.966785 -145.859874
2.253721 -11.933068 -145.861240
2.392438 -11.993700 -145.860183
2.492668 -11.959983 -145.861549
2.631384 -12.020616 -145.860492
2.731614 -11.986899 -145.861858
2.831844 -11.953182 -145.863224
2.932074 -11.919465 -145.864590
3.070790 -11.980097 -145.863533
3.171020 -11.946380 -145.864899
3.271250 -11.912663 -145.866265
3.371480 -11.878946 -145.867631
3.510196 -11.939578 -145.866574
3.610426 -11.905861 -145.867940
3.710656 -11.872144 -145.869306
3.849372 -11.932776 -145.868249
3.949602 -11.899059 -145.869615
4.049832 -11.865342 -145.870981
4.150062 -11.831625 -145.872347
4.250292 -11.797908 -145.873713
4.350522 -11.764191 -145.875079
4.450752 -11.730474 -145.876445
4.550982 -11.696757 -145.877811
4.651212 -11.663040 -145.879177
4.751442 -11.629323 -145.880543
4.851671 -11.595606 -145.881909
4.951901 -11.561889 -145.883275
5.090618 -11.622521 -145.882218
5.190848 -11.588804 -145.883584
5.291078 -11.555087 -145.884950
5.391307 -11.521370 -145.886316
5.491537 -11.487653 -145.887682
5.591767 -11.453936 -145.889048
5.691997 -11.420219 -145.890414
5.792227 -11.386502 -145.891780
5.892457 -11.352785 -145.893146
5.954201 -11.224719 -145.896935
6.054431 -11.191002 -145.898301
6.154660 -11.157285 -145.899667
6.254890 -11.123568 -145.901033
6.355120 -11.089851 -145.902399
6.455350 -11.056134 -145.903765
6.555580 -11.022417 -145.905131
6.655810 -10.988700 -145.906497
6.756040 -10.954983 -145.907863
6.856270 -10.921266 -145.909229
6.956500 -10.887549 -145.910595
7.056730 -10.853832 -145.911961
7.156960 -10.820115 -145.913327
7.218703 -10.692049 -145.917117
7.318933 -10.658332 -145.918483
7.419163 -10.624615 -145.919849
7.519393 -10.590898 -145.921215
7.581137 -10.462832 -145.925004
7.681367 -10.429115 -145.926370
7.781596 -10.395398 -145.927736
7.881826 -10.361681 -145.929102
7.943570 -10.233615 -145.932891
8.043800 -10.199898 -145.934257
8.144030 -10.166181 -145.935623
8.205773 -10.038114 -145.939412
8.306003 -10.004397 -145.940778
8.367747 -9.876331 -145.944567
8.467977 -9.842614 -145.945933
8.414261 -9.431501 -145.956992
8.514491 -9.397784 -145.958358
8.576235 -9.269718 -145.962147
8.676464 -9.236001 -145.963513
8.776694 -9.202284 -145.964879
8.876924 -9.168567 -145.966245
8.938668 -9.040501 -145.970034
9.038898 -9.006784 -145.971400
9.100641 -8.878718 -145.975189
9.162385 -8.750651 -145.978978
9.185642 -8.528236 -145.985191
9.285872 -8.494519 -145.986557
9.347616 -8.366453 -145.990346
9.409359 -8.238387 -145.994135
9.471103 -8.110321 -145.997924
9.571333 -8.076604 -145.999290
9.633076 -7.948538 -146.003079
9.694820 -7.820472 -146.006868
9.756563 -7.692406 -146.010658
9.856793 -7.658689 -146.012024
9.918537 -7.530622 -146.015813
9.980280 -7.402556 -146.019602
10.003537 -7.180141 -146.025814
9.834363 -6.485980 -146.044142
9.857620 -6.263565 -146.050354
9.919363 -6.135499 -146.054143
9.981107 -6.007433 -146.057933
