ply
format ascii 1.0
element vertex 1164
property float x
property float y
property float z
element face 0
property list uchar uint vertex_indices
end_header
2.107637 -11.645272 -144.855632
2.338590 -11.690889 -144.852152
2.891561 -11.986367 -144.838979
3.203018 -12.094449 -144.833075
3.353466 -12.077600 -144.832018
3.503914 -12.060751 -144.830961
3.734867 -12.106367 -144.827481
3.885315 -12.089518 -144.826424
4.035762 -12.072669 -144.825367
4.186210 -12.055820 -144.824310
4.256153 -11.976505 -144.825676
4.406601 -11.959656 -144.824619
4.557049 -11.942807 -144.823561
4.707497 -11.925958 -144.822504
4.857945 -11.909109 -144.821447
5.008393 -11.892260 -144.820390
5.158840 -11.875410 -144.819333
5.309288 -11.858561 -144.818276
5.459736 -11.841712 -144.817219
5.610184 -11.824863 -144.816162
5.680127 -11.745548 -144.817528
5.830575 -11.728699 -144.816471
5.981023 -11.711850 -144.815414
6.050966 -11.632535 -144.816780
6.201414 -11.615686 -144.815722
6.271357 -11.536372 -144.817088
6.421805 -11.519522 -144.816031
6.491748 -11.440208 -144.817397
6.561691 -11.360893 -144.818763
6.712139 -11.344044 -144.817706
6.782082 -11.264729 -144.819072
6.932530 -11.247880 -144.818015
7.082978 -11.231031 -144.816958
7.152921 -11.151716 -144.818324
7.383873 -11.197333 -144.814844
7.453817 -11.118018 -144.816210
7.604264 -11.101169 -144.815153
7.674208 -11.021854 -144.816519
7.744151 -10.942539 -144.817885
7.814094 -10.863225 -144.819251
7.964542 -10.846376 -144.818194
8.034485 -10.767061 -144.819560
8.104428 -10.687746 -144.820926
8.174371 -10.608432 -144.822292
8.324819 -10.591582 -144.821235
8.394762 -10.512268 -144.822601
8.464705 -10.432953 -144.823967
8.534649 -10.353638 -144.825333
8.604592 -10.274324 -144.826699
8.674535 -10.195009 -144.828065
8.744478 -10.115694 -144.829431
8.814421 -10.036380 -144.830797
8.884364 -9.957065 -144.832163
8.954307 -9.877750 -144.833529
9.024251 -9.798436 -144.834895
9.094194 -9.719121 -144.836261
9.164137 -9.639806 -144.837627
9.234080 -9.560491 -144.838993
9.384528 -9.543642 -144.837936
9.454471 -9.464328 -144.839302
9.524414 -9.385013 -144.840668
9.594357 -9.305698 -144.842034
9.664301 -9.226384 -144.843400
9.734244 -9.147069 -144.844766
9.804187 -9.067754 -144.846132
9.874130 -8.988440 -144.847498
9.944073 -8.909125 -144.848864
10.014016 -8.829810 -144.850230
10.003455 -8.688030 -144.854019
10.073398 -8.608715 -144.855385
10.143341 -8.529401 -144.856751
10.213284 -8.450086 -144.858117
10.283227 -8.370771 -144.859483
10.353171 -8.291457 -144.860849
10.423114 -8.212142 -144.862215
10.493057 -8.132827 -144.863581
10.563000 -8.053512 -144.864947
10.632943 -7.974198 -144.866313
10.702886 -7.894883 -144.867679
10.692325 -7.753103 -144.871468
10.762268 -7.673788 -144.872834
10.832211 -7.594473 -144.874200
10.902154 -7.515159 -144.875566
10.972098 -7.435844 -144.876932
10.961536 -7.294064 -144.880722
11.031479 -7.214749 -144.882088
11.101422 -7.135435 -144.883454
11.171365 -7.056120 -144.884820
11.160804 -6.914340 -144.888609
11.150242 -6.772559 -144.892398
10.898167 -6.443383 -144.903456
10.887605 -6.301602 -144.907245
10.877044 -6.159822 -144.911035
10.866482 -6.018042 -144.914824
10.855921 -5.876262 -144.918613
10.925864 -5.796947 -144.919979
10.915302 -5.655167 -144.923768
10.985246 -5.575852 -144.925134
10.974684 -5.434072 -144.928923
11.044627 -5.354757 -144.930289
10.953561 -5.150511 -144.936502
10.862495 -4.946266 -144.942714
10.851933 -4.804485 -144.946503
10.841372 -4.662705 -144.950292
10.830810 -4.520925 -144.954081
10.900753 -4.441610 -144.955447
10.890192 -4.299830 -144.959236
10.960135 -4.220515 -144.960602
10.869069 -4.016270 -144.966815
10.858507 -3.874489 -144.970604
10.364918 -3.357916 -144.988932
10.434861 -3.278601 -144.990298
7.553382 -11.042356 -144.822408
7.675249 -10.952540 -144.821351
7.898068 -10.876568 -144.817871
8.120887 -10.800597 -144.814391
8.242754 -10.710781 -144.813333
8.364621 -10.620965 -144.812276
8.486488 -10.531149 -144.811219
8.608355 -10.441333 -144.810162
8.730222 -10.351518 -144.809105
8.751137 -10.247857 -144.810471
8.873004 -10.158042 -144.809414
8.994871 -10.068226 -144.808357
9.116738 -9.978410 -144.807300
9.339557 -9.902438 -144.803819
9.461424 -9.812623 -144.802762
9.583291 -9.722807 -144.801705
9.604206 -9.619147 -144.803071
9.726073 -9.529331 -144.802014
9.746988 -9.425671 -144.803380
9.868855 -9.335855 -144.802323
9.889771 -9.232195 -144.803689
10.011638 -9.142379 -144.802632
10.133505 -9.052563 -144.801575
10.255372 -8.962747 -144.800518
10.377239 -8.872931 -144.799461
10.398154 -8.769271 -144.800827
10.419069 -8.665611 -144.802193
10.439984 -8.561951 -144.803559
10.460899 -8.458291 -144.804925
10.481814 -8.354631 -144.806291
10.603681 -8.264815 -144.805234
10.624597 -8.161155 -144.806600
10.645512 -8.057494 -144.807966
10.767379 -7.967679 -144.806909
10.889246 -7.877863 -144.805851
10.910161 -7.774203 -144.807217
11.032028 -7.684387 -144.806160
11.052943 -7.580727 -144.807526
11.073858 -7.477066 -144.808892
11.094773 -7.373406 -144.810258
11.115689 -7.269746 -144.811624
11.136604 -7.166086 -144.812990
11.157519 -7.062426 -144.814356
11.178434 -6.958766 -144.815722
11.199349 -6.855105 -144.817088
11.220264 -6.751445 -144.818454
11.241179 -6.647785 -144.819820
11.363046 -6.557969 -144.818763
11.383962 -6.454309 -144.820129
11.404877 -6.350649 -144.821495
11.425792 -6.246989 -144.822861
11.446707 -6.143329 -144.824227
11.467622 -6.039669 -144.825593
11.488537 -5.936008 -144.826959
11.509452 -5.832348 -144.828325
11.530367 -5.728688 -144.829691
11.450331 -5.611184 -144.833481
11.471246 -5.507523 -144.834847
11.492161 -5.403863 -144.836213
11.412124 -5.286359 -144.840002
11.433039 -5.182699 -144.841368
11.453954 -5.079038 -144.842734
11.474870 -4.975378 -144.844100
11.495785 -4.871718 -144.845466
11.415748 -4.754214 -144.849255
11.436663 -4.650553 -144.850621
11.457578 -4.546893 -144.851987
11.377541 -4.429389 -144.855776
11.398456 -4.325729 -144.857142
11.318420 -4.208224 -144.860931
11.339335 -4.104564 -144.862297
11.360250 -4.000904 -144.863663
11.280213 -3.883399 -144.867453
11.301128 -3.779739 -144.868819
11.322043 -3.676079 -144.870185
11.342959 -3.572419 -144.871551
11.262922 -3.454914 -144.875340
11.283837 -3.351254 -144.876706
11.304752 -3.247594 -144.878072
11.224715 -3.130090 -144.881861
11.144678 -3.012585 -144.885650
11.165594 -2.908925 -144.887016
11.085557 -2.791420 -144.890805
11.106472 -2.687760 -144.892171
11.026435 -2.570256 -144.895960
11.047350 -2.466596 -144.897326
10.967314 -2.349091 -144.901115
10.988229 -2.245431 -144.902481
10.908192 -2.127927 -144.906271
10.929107 -2.024266 -144.907637
10.849070 -1.906762 -144.911426
10.869985 -1.803102 -144.912792
10.890900 -1.699442 -144.914158
10.810864 -1.581937 -144.917947
10.831779 -1.478277 -144.919313
10.852694 -1.374617 -144.920679
10.772657 -1.257112 -144.924468
10.692620 -1.139608 -144.928257
10.612584 -1.022103 -144.932046
10.633499 -0.918443 -144.933412
10.553462 -0.800939 -144.937202
10.473425 -0.683434 -144.940991
10.393388 -0.565930 -144.944780
10.313352 -0.448425 -144.948569
10.334267 -0.344765 -144.949935
10.355182 -0.241105 -144.951301
10.376097 -0.137445 -144.952667
10.397012 -0.033785 -144.954033
10.417927 0.069876 -144.955399
10.438842 0.173536 -144.956765
10.459758 0.277196 -144.958131
10.480673 0.380856 -144.959497
10.400636 0.498361 -144.963286
10.118695 0.643554 -144.971922
9.836755 0.788747 -144.980557
9.857670 0.892407 -144.981923
9.878585 0.996067 -144.983289
9.899500 1.099727 -144.984655
9.920415 1.203387 -144.986021
9.941330 1.307048 -144.987387
9.962245 1.410708 -144.988753
9.983161 1.514368 -144.990119
9.903124 1.631872 -144.993908
9.621183 1.777066 -145.002544
9.541146 1.894570 -145.006333
9.562062 1.998230 -145.007699
9.582977 2.101890 -145.009065
9.603892 2.205551 -145.010431
9.624807 2.309211 -145.011797
9.645722 2.412871 -145.013163
9.565685 2.530375 -145.016952
9.586600 2.634036 -145.018318
9.506564 2.751540 -145.022107
9.527479 2.855200 -145.023473
9.447442 2.972705 -145.027262
9.367405 3.090209 -145.031051
9.287368 3.207714 -145.034841
9.207332 3.325218 -145.038630
9.127295 3.442723 -145.042419
9.047258 3.560227 -145.046208
9.068173 3.663887 -145.047574
8.988136 3.781392 -145.051363
9.009052 3.885052 -145.052729
8.929015 4.002556 -145.056518
8.748026 4.133905 -145.062731
8.365134 4.292943 -145.073789
8.285097 4.410447 -145.077578
11.429360 -7.412385 -144.832670
11.489992 -7.273669 -144.831613
11.456275 -7.173439 -144.832979
11.516908 -7.034723 -144.831922
11.483191 -6.934493 -144.833288
11.449474 -6.834263 -144.834654
11.510106 -6.695547 -144.833597
11.476389 -6.595317 -144.834963
11.537021 -6.456600 -144.833906
11.597653 -6.317884 -144.832849
11.658285 -6.179168 -144.831792
11.624568 -6.078938 -144.833158
11.685200 -5.940222 -144.832101
11.745832 -5.801505 -144.831043
11.806464 -5.662789 -144.829986
11.867096 -5.524073 -144.828929
11.927729 -5.385356 -144.827872
11.894012 -5.285126 -144.829238
11.954644 -5.146410 -144.828181
11.920927 -5.046180 -144.829547
11.981559 -4.907464 -144.828490
11.947842 -4.807234 -144.829856
11.914125 -4.707004 -144.831222
11.974757 -4.568288 -144.830165
11.941040 -4.468058 -144.831531
11.907323 -4.367828 -144.832897
11.873606 -4.267598 -144.834263
11.839889 -4.167368 -144.835629
11.806172 -4.067138 -144.836995
11.772455 -3.966908 -144.838361
11.738738 -3.866678 -144.839727
11.799370 -3.727962 -144.838670
11.765653 -3.627732 -144.840036
11.731936 -3.527502 -144.841402
11.698219 -3.427272 -144.842768
11.664502 -3.327042 -144.844134
11.630785 -3.226812 -144.845500
11.597068 -3.126582 -144.846866
11.563351 -3.026353 -144.848232
11.623983 -2.887636 -144.847175
11.590266 -2.787406 -144.848541
11.556549 -2.687176 -144.849907
11.522832 -2.586946 -144.851273
11.489115 -2.486717 -144.852639
11.455398 -2.386487 -144.854005
11.421681 -2.286257 -144.855371
11.387964 -2.186027 -144.856737
11.448596 -2.047311 -144.855680
11.414879 -1.947081 -144.857046
11.381162 -1.846851 -144.858412
11.347445 -1.746621 -144.859778
11.313728 -1.646391 -144.861144
11.280011 -1.546161 -144.862510
11.340643 -1.407445 -144.861453
11.306926 -1.307215 -144.862819
11.273209 -1.206985 -144.864185
11.333841 -1.068268 -144.863128
11.300124 -0.968039 -144.864494
11.266407 -0.867809 -144.865860
11.327040 -0.729092 -144.864803
11.293323 -0.628862 -144.866169
11.259606 -0.528632 -144.867535
11.225889 -0.428403 -144.868901
11.192172 -0.328173 -144.870267
11.158455 -0.227943 -144.871633
11.124738 -0.127713 -144.872999
11.091021 -0.027483 -144.874365
11.057304 0.072747 -144.875731
11.117936 0.211463 -144.874674
11.084219 0.311693 -144.876040
11.050502 0.411923 -144.877406
11.016785 0.512153 -144.878772
11.077417 0.650869 -144.877715
11.043700 0.751099 -144.879081
11.009983 0.851329 -144.880447
10.976266 0.951559 -144.881813
10.942549 1.051789 -144.883179
10.908832 1.152019 -144.884545
10.875115 1.252249 -144.885911
10.841398 1.352479 -144.887277
10.807681 1.452709 -144.888643
10.773964 1.552939 -144.890009
10.740247 1.653169 -144.891375
10.706530 1.753399 -144.892741
10.672813 1.853629 -144.894107
10.639096 1.953858 -144.895473
10.605379 2.054088 -144.896839
10.571662 2.154318 -144.898205
10.537945 2.254548 -144.899571
10.504228 2.354778 -144.900937
10.470511 2.455008 -144.902303
10.436794 2.555238 -144.903669
10.403077 2.655468 -144.905035
10.369360 2.755698 -144.906401
10.335643 2.855928 -144.907767
10.301926 2.956158 -144.909133
10.173860 3.017901 -144.912922
10.140143 3.118131 -144.914288
10.106426 3.218361 -144.915654
10.072709 3.318591 -144.917020
10.038992 3.418821 -144.918386
9.910926 3.480564 -144.922175
9.877209 3.580794 -144.923541
9.843492 3.681024 -144.924907
9.809775 3.781254 -144.926273
9.776058 3.881484 -144.927639
9.742341 3.981714 -144.929005
9.708624 4.081944 -144.930371
9.674907 4.182174 -144.931738
9.546841 4.243917 -144.935527
9.513124 4.344147 -144.936893
9.479407 4.444377 -144.938259
9.445690 4.544607 -144.939625
9.411973 4.644837 -144.940991
9.378256 4.745067 -144.942357
9.250189 4.806811 -144.946146
9.216472 4.907041 -144.947512
9.182755 5.007270 -144.948878
9.054689 5.069014 -144.952667
9.020972 5.169244 -144.954033
8.987255 5.269474 -144.955399
8.859189 5.331217 -144.959188
8.731123 5.392961 -144.962977
8.697406 5.493191 -144.964343
8.569340 5.554934 -144.968133
8.535623 5.655164 -144.969499
8.501906 5.755394 -144.970865
8.373840 5.817138 -144.974654
8.340123 5.917368 -144.976020
8.212057 5.979111 -144.979809
8.083991 6.040855 -144.983598
7.955924 6.102598 -144.987387
7.922207 6.202828 -144.988753
7.605443 6.187599 -144.997389
7.477377 6.249343 -145.001178
7.443660 6.349573 -145.002544
7.409943 6.449802 -145.003910
7.376226 6.550032 -145.005276
7.342509 6.650262 -145.006642
7.214443 6.712006 -145.010431
10.963091 0.539797 -144.888938
10.946241 0.690245 -144.887881
10.929392 0.840693 -144.886823
10.912543 0.991141 -144.885766
11.020625 1.302599 -144.879863
11.003775 1.453047 -144.878806
10.986926 1.603495 -144.877749
10.907611 1.673438 -144.879115
10.890762 1.823886 -144.878058
10.811447 1.893829 -144.879424
10.732133 1.963772 -144.880790
10.715283 2.114220 -144.879733
10.635968 2.184163 -144.881099
10.556654 2.254106 -144.882465
10.539804 2.404554 -144.881408
10.585421 2.635507 -144.877927
10.506106 2.705450 -144.879293
10.489257 2.855898 -144.878236
10.472407 3.006346 -144.877179
10.455558 3.156794 -144.876122
10.438709 3.307242 -144.875065
10.359394 3.377185 -144.876431
10.342545 3.527633 -144.875374
10.263230 3.597576 -144.876740
10.183915 3.667519 -144.878106
10.167066 3.817967 -144.877049
10.087751 3.887910 -144.878415
10.070902 4.038358 -144.877358
9.991587 4.108302 -144.878724
9.974738 4.258750 -144.877667
9.895423 4.328693 -144.879033
9.878574 4.479141 -144.877975
9.799259 4.549084 -144.879341
9.782410 4.699532 -144.878284
9.703095 4.769475 -144.879650
9.686246 4.919923 -144.878593
9.669397 5.070371 -144.877536
9.590082 5.140314 -144.878902
9.573233 5.290762 -144.877845
9.493918 5.360705 -144.879211
9.414603 5.430648 -144.880577
9.335288 5.500591 -144.881943
9.318439 5.651039 -144.880886
9.239124 5.720982 -144.882252
9.159809 5.790926 -144.883618
9.080495 5.860869 -144.884984
9.001180 5.930812 -144.886350
8.921865 6.000755 -144.887716
8.842550 6.070698 -144.889082
8.763235 6.140641 -144.890448
8.746386 6.291089 -144.889391
8.667071 6.361033 -144.890757
8.587757 6.430976 -144.892123
8.508442 6.500919 -144.893489
8.429127 6.570862 -144.894855
8.349812 6.640805 -144.896221
8.270497 6.710748 -144.897587
8.191183 6.780691 -144.898953
8.111868 6.850635 -144.900319
8.032553 6.920578 -144.901685
7.953238 6.990521 -144.903051
7.873923 7.060464 -144.904417
7.794609 7.130407 -144.905783
7.715294 7.200350 -144.907149
7.635979 7.270294 -144.908515
7.556664 7.340237 -144.909881
7.477349 7.410180 -144.911247
7.398035 7.480123 -144.912613
7.318720 7.550066 -144.913979
7.239405 7.620009 -144.915345
7.097625 7.609448 -144.919134
7.018310 7.679391 -144.920500
6.938995 7.749334 -144.921866
6.859680 7.819277 -144.923232
6.780366 7.889220 -144.924599
6.701051 7.959164 -144.925965
6.621736 8.029107 -144.927331
6.542421 8.099050 -144.928697
6.400641 8.088488 -144.932486
6.321326 8.158431 -144.933852
6.242011 8.228375 -144.935218
6.162696 8.298318 -144.936584
6.083382 8.368261 -144.937950
5.941601 8.357699 -144.941739
5.674890 8.186128 -144.950374
5.470644 8.095062 -144.956587
5.328864 8.084500 -144.960376
5.062152 7.912929 -144.969011
4.982838 7.982872 -144.970377
4.903523 8.052815 -144.971743
4.761742 8.042254 -144.975532
4.682428 8.112197 -144.976898
4.540647 8.101635 -144.980687
4.398867 8.091073 -144.984477
4.069690 7.838997 -144.995535
3.927910 7.828436 -144.999324
3.848595 7.898379 -145.000690
3.769280 7.968322 -145.002056
3.627500 7.957761 -145.005845
3.548185 8.027704 -145.007211
3.406405 8.017142 -145.011001
3.014762 7.684561 -145.024482
2.872982 7.674000 -145.028271
2.731202 7.663438 -145.032060
2.589421 7.652876 -145.035850
2.385175 7.561810 -145.042062
8.726704 5.426971 -144.908940
8.692266 5.952646 -144.898191
8.616294 6.175465 -144.894711
8.512634 6.196380 -144.896077
8.422818 6.318247 -144.895020
8.319158 6.339162 -144.896386
8.257031 6.662933 -144.890482
8.167215 6.784800 -144.889425
8.063555 6.805715 -144.890791
7.973739 6.927582 -144.889734
7.870079 6.948497 -144.891100
7.766419 6.969413 -144.892466
7.676603 7.091280 -144.891409
7.586787 7.213147 -144.890352
7.580037 7.940725 -144.874756
7.476377 7.961640 -144.876122
7.386561 8.083507 -144.875065
7.282901 8.104423 -144.876431
7.179241 8.125338 -144.877797
7.075581 8.146253 -144.879163
6.971921 8.167168 -144.880529
6.868261 8.188083 -144.881895
6.764600 8.208998 -144.883261
6.660940 8.229913 -144.884627
6.557280 8.250828 -144.885993
6.467464 8.372696 -144.884936
6.363804 8.393611 -144.886302
6.260144 8.414526 -144.887668
6.156484 8.435441 -144.889034
6.052824 8.456356 -144.890400
5.949164 8.477271 -144.891766
5.845503 8.498186 -144.893132
5.741843 8.519101 -144.894498
5.652027 8.640968 -144.893441
5.548367 8.661884 -144.894807
5.444707 8.682799 -144.896173
5.327203 8.602762 -144.899962
5.223542 8.623677 -144.901328
5.119882 8.644592 -144.902694
5.016222 8.665507 -144.904060
4.912562 8.686422 -144.905426
4.795057 8.606386 -144.909215
4.691397 8.627301 -144.910581
4.601581 8.749168 -144.909524
4.497921 8.770083 -144.910890
4.394261 8.790998 -144.912256
4.290601 8.811913 -144.913622
4.173096 8.731876 -144.917411
4.069436 8.752792 -144.918777
3.965776 8.773707 -144.920143
3.848272 8.693670 -144.923933
3.744612 8.714585 -144.925299
3.640951 8.735500 -144.926665
3.537291 8.756415 -144.928031
3.419787 8.676379 -144.931820
3.316127 8.697294 -144.933186
3.212466 8.718209 -144.934552
3.094962 8.638172 -144.938341
2.991302 8.659087 -144.939707
2.873797 8.579050 -144.943496
2.770137 8.599966 -144.944862
2.652633 8.519929 -144.948651
2.548972 8.540844 -144.950017
2.445312 8.561759 -144.951383
2.327808 8.481722 -144.955172
2.210303 8.401685 -144.958962
2.106643 8.422601 -144.960328
1.989139 8.342564 -144.964117
1.885479 8.363479 -144.965483
1.767974 8.283442 -144.969272
1.664314 8.304357 -144.970638
1.546809 8.224320 -144.974427
1.443149 8.245236 -144.975793
1.325645 8.165199 -144.979582
1.208140 8.085162 -144.983371
1.076791 7.904173 -144.989584
0.959287 7.824137 -144.993373
0.855627 7.845052 -144.994739
0.738122 7.765015 -144.998528
5.514391 8.537670 -144.920438
5.337189 8.692651 -144.916958
5.198472 8.753283 -144.915901
5.059756 8.813915 -144.914844
4.959526 8.780198 -144.916210
4.820810 8.840831 -144.915153
4.682093 8.901463 -144.914096
4.543377 8.962095 -144.913039
4.404661 9.022727 -144.911981
4.304431 8.989010 -144.913347
4.204201 8.955293 -144.914713
4.065485 9.015925 -144.913656
3.965255 8.982208 -144.915022
3.865025 8.948491 -144.916388
3.726309 9.009123 -144.915331
3.626079 8.975406 -144.916697
3.487362 9.036038 -144.915640
3.387132 9.002321 -144.917006
3.286902 8.968604 -144.918372
3.186673 8.934887 -144.919738
3.086443 8.901170 -144.921104
2.947726 8.961802 -144.920047
2.847496 8.928085 -144.921413
2.747267 8.894368 -144.922779
2.647037 8.860651 -144.924145
2.508320 8.921283 -144.923088
2.408090 8.887566 -144.924454
2.307860 8.853849 -144.925820
2.207631 8.820132 -144.927186
2.107401 8.786415 -144.928552
2.007171 8.752698 -144.929918
1.906941 8.718981 -144.931284
1.806711 8.685264 -144.932650
1.706481 8.651547 -144.934016
1.567765 8.712180 -144.932959
1.467535 8.678463 -144.934325
1.367305 8.644746 -144.935691
1.267075 8.611029 -144.937057
1.166845 8.577312 -144.938423
1.066615 8.543595 -144.939789
0.966385 8.509878 -144.941155
0.866155 8.476161 -144.942521
0.765925 8.442444 -144.943887
0.665695 8.408727 -144.945253
0.565465 8.375010 -144.946619
0.465235 8.341293 -144.947985
0.365006 8.307576 -144.949351
0.264776 8.273859 -144.950717
0.164546 8.240142 -144.952083
0.064316 8.206425 -144.953449
-0.035914 8.172708 -144.954815
-0.136144 8.138991 -144.956181
-0.236374 8.105274 -144.957547
-0.336604 8.071557 -144.958913
-0.436834 8.037840 -144.960279
-0.537064 8.004123 -144.961645
-0.637294 7.970406 -144.963011
-0.737524 7.936689 -144.964377
-0.837754 7.902972 -144.965743
-0.937983 7.869255 -144.967109
-1.038213 7.835538 -144.968476
-1.138443 7.801821 -144.969842
-1.238673 7.768104 -144.971208
-1.338903 7.734387 -144.972574
-1.439133 7.700670 -144.973940
-1.539363 7.666953 -144.975306
-1.639593 7.633236 -144.976672
-1.701336 7.505169 -144.980461
-1.801566 7.471452 -144.981827
-1.901796 7.437735 -144.983193
-2.002026 7.404018 -144.984559
-2.063770 7.275952 -144.988348
-2.164000 7.242235 -144.989714
-2.264230 7.208518 -144.991080
-2.325973 7.080452 -144.994869
-2.426203 7.046735 -144.996235
-2.487947 6.918669 -145.000024
-2.588177 6.884952 -145.001390
-2.649920 6.756886 -145.005179
-2.750150 6.723169 -145.006545
-2.850380 6.689452 -145.007911
-2.912124 6.561386 -145.011701
-2.973867 6.433320 -145.015490
-3.035611 6.305254 -145.019279
-3.058868 6.082838 -145.025491
-3.120611 5.954772 -145.029280
-3.182355 5.826706 -145.033069
-3.282585 5.792989 -145.034435
-3.344328 5.664923 -145.038225
-3.444558 5.631206 -145.039591
-3.506302 5.503140 -145.043380
-3.606532 5.469423 -145.044746
0.021156 8.524051 -144.957890
-0.129291 8.507202 -144.956833
-0.199235 8.427888 -144.958199
-0.349682 8.411038 -144.957142
-0.500130 8.394189 -144.956085
-0.570073 8.314875 -144.957451
-0.720521 8.298026 -144.956394
-0.790464 8.218711 -144.957760
-0.860408 8.139396 -144.959126
-0.930351 8.060081 -144.960492
-1.000294 7.980767 -144.961858
-1.070237 7.901452 -144.963224
-1.220685 7.884603 -144.962167
-1.371133 7.867754 -144.961110
-1.521581 7.850905 -144.960053
-1.672028 7.834055 -144.958996
-1.741972 7.754741 -144.960362
-1.892419 7.737892 -144.959305
-1.962363 7.658577 -144.960671
-2.032306 7.579262 -144.962037
-2.182754 7.562413 -144.960979
-2.252697 7.483098 -144.962345
-2.322640 7.403784 -144.963712
-2.473088 7.386935 -144.962654
-2.543031 7.307620 -144.964020
-2.612974 7.228305 -144.965386
-2.763422 7.211456 -144.964329
-2.833365 7.132141 -144.965695
-2.903308 7.052827 -144.967061
-2.973251 6.973512 -144.968427
-3.043195 6.894197 -144.969793
-3.113138 6.814883 -144.971159
-3.183081 6.735568 -144.972525
-3.333529 6.718719 -144.971468
-3.403472 6.639404 -144.972834
-3.473415 6.560089 -144.974200
-3.543358 6.480775 -144.975566
-3.613301 6.401460 -144.976932
-3.683244 6.322145 -144.978298
-3.753188 6.242831 -144.979664
-3.823131 6.163516 -144.981030
-3.973579 6.146667 -144.979973
-4.043522 6.067352 -144.981339
-4.113465 5.988038 -144.982705
-4.183408 5.908723 -144.984071
-4.172847 5.766943 -144.987861
-4.242790 5.687628 -144.989227
-4.312733 5.608313 -144.990593
-4.382676 5.528999 -144.991959
-4.452619 5.449684 -144.993325
-4.522562 5.370369 -144.994691
-4.592506 5.291055 -144.996057
-4.581944 5.149274 -144.999846
-4.651887 5.069960 -145.001212
-4.721830 4.990645 -145.002578
-4.791773 4.911330 -145.003944
-4.861717 4.832016 -145.005310
-4.931660 4.752701 -145.006676
-5.001603 4.673386 -145.008042
-4.991041 4.531606 -145.011831
-5.060985 4.452291 -145.013197
-5.130928 4.372977 -145.014563
-5.200871 4.293662 -145.015929
-5.270814 4.214347 -145.017295
-5.260253 4.072567 -145.021084
-5.330196 3.993252 -145.022450
-5.400139 3.913938 -145.023816
-5.389577 3.772157 -145.027605
-5.379016 3.630377 -145.031394
-5.048530 4.946311 -144.983405
-5.170397 4.856495 -144.982348
-5.292264 4.766680 -144.981291
-5.414131 4.676864 -144.980234
-5.435046 4.573204 -144.981600
-5.455961 4.469543 -144.982966
-5.476876 4.365883 -144.984332
-5.598743 4.276067 -144.983275
-5.619659 4.172407 -144.984641
-5.640574 4.068747 -144.986007
-5.762441 3.978931 -144.984950
-5.783356 3.875271 -144.986316
-5.804271 3.771611 -144.987682
-5.926138 3.681795 -144.986625
-5.947053 3.578135 -144.987991
-5.967968 3.474475 -144.989357
-5.988883 3.370815 -144.990723
-6.009799 3.267155 -144.992089
-6.030714 3.163494 -144.993455
-6.051629 3.059834 -144.994821
-6.072544 2.956174 -144.996187
-6.093459 2.852514 -144.997553
-6.114374 2.748854 -144.998919
-6.034337 2.631349 -145.002708
-6.055253 2.527689 -145.004074
-6.076168 2.424029 -145.005440
-6.097083 2.320369 -145.006806
-6.117998 2.216709 -145.008172
-6.138913 2.113048 -145.009538
-6.058876 1.995544 -145.013327
-6.079791 1.891884 -145.014693
-6.100707 1.788224 -145.016059
-6.121622 1.684563 -145.017425
-6.142537 1.580903 -145.018791
-6.163452 1.477243 -145.020157
-6.184367 1.373583 -145.021523
-6.205282 1.269923 -145.022889
-6.125245 1.152418 -145.026679
-6.146161 1.048758 -145.028045
-6.167076 0.945098 -145.029411
-6.087039 0.827594 -145.033200
-6.107954 0.723933 -145.034566
-6.128869 0.620273 -145.035932
-6.149784 0.516613 -145.037298
-6.069748 0.399109 -145.041087
-6.090663 0.295448 -145.042453
-6.111578 0.191788 -145.043819
-6.031541 0.074284 -145.047608
-6.052456 -0.029376 -145.048974
-6.073371 -0.133037 -145.050340
-6.094286 -0.236697 -145.051706
-6.115202 -0.340357 -145.053072
-6.136117 -0.444017 -145.054438
-6.056080 -0.561522 -145.058227
-6.076995 -0.665182 -145.059593
-6.097910 -0.768842 -145.060959
-6.118825 -0.872502 -145.062325
-6.038789 -0.990006 -145.066115
-6.059704 -1.093667 -145.067481
-5.979667 -1.211171 -145.071270
-5.899630 -1.328676 -145.075059
-6.588886 0.040232 -144.997992
-6.649518 -0.098484 -144.996935
-6.615801 -0.198714 -144.998301
-6.676433 -0.337431 -144.997244
-6.642716 -0.437661 -144.998610
-6.703348 -0.576377 -144.997553
-6.669631 -0.676607 -144.998919
-6.730263 -0.815323 -144.997862
-6.696546 -0.915553 -144.999228
-6.662829 -1.015783 -145.000594
-6.629112 -1.116013 -145.001960
-6.595395 -1.216243 -145.003326
-6.561678 -1.316473 -145.004692
-6.527961 -1.416703 -145.006058
-6.494244 -1.516933 -145.007424
-6.460527 -1.617162 -145.008790
-6.426810 -1.717392 -145.010156
-6.393093 -1.817622 -145.011522
-6.359376 -1.917852 -145.012888
-6.325659 -2.018082 -145.014254
-6.291942 -2.118312 -145.015620
-6.258225 -2.218542 -145.016986
-6.224508 -2.318772 -145.018352
-6.190791 -2.419002 -145.019718
-6.157074 -2.519232 -145.021084
-6.123357 -2.619462 -145.022450
-6.089640 -2.719692 -145.023816
-6.055923 -2.819922 -145.025182
-6.022206 -2.920151 -145.026548
-5.988489 -3.020381 -145.027914
-5.954772 -3.120611 -145.029280
-5.826706 -3.182355 -145.033069
-5.792989 -3.282585 -145.034435
-5.759272 -3.382815 -145.035801
-5.725555 -3.483045 -145.037167
-5.691838 -3.583275 -145.038533
-5.658121 -3.683504 -145.039899
-5.624404 -3.783734 -145.041266
-5.590687 -3.883964 -145.042632
-5.556970 -3.984194 -145.043998
-5.523253 -4.084424 -145.045364
-5.489536 -4.184654 -145.046730
-5.455819 -4.284884 -145.048096
-5.327753 -4.346628 -145.051885
-5.294036 -4.446857 -145.053251
-5.260319 -4.547087 -145.054617
-5.226602 -4.647317 -145.055983
-5.192885 -4.747547 -145.057349
-5.159168 -4.847777 -145.058715
-5.125451 -4.948007 -145.060081
-5.091734 -5.048237 -145.061447
-4.963668 -5.109981 -145.065236
-4.929951 -5.210210 -145.066602
-4.896234 -5.310440 -145.067968
-4.862517 -5.410670 -145.069334
-4.828800 -5.510900 -145.070700
-4.795083 -5.611130 -145.072066
-4.667017 -5.672874 -145.075855
-4.633300 -5.773104 -145.077221
-4.599583 -5.873334 -145.078587
-4.565866 -5.973564 -145.079953
-4.532149 -6.073793 -145.081319
-4.498432 -6.174023 -145.082685
-4.464715 -6.274253 -145.084051
-4.336649 -6.335997 -145.087840
-4.302932 -6.436227 -145.089206
-4.269215 -6.536457 -145.090572
-4.235498 -6.636687 -145.091938
-4.107432 -6.698430 -145.095728
-4.073715 -6.798660 -145.097094
-3.945649 -6.860404 -145.100883
-3.817582 -6.922147 -145.104672
-3.783865 -7.022377 -145.106038
-3.750148 -7.122607 -145.107404
-3.716431 -7.222837 -145.108770
-3.682714 -7.323067 -145.110136
-3.648997 -7.423297 -145.111502
-3.615280 -7.523527 -145.112868
-3.487214 -7.585270 -145.116657
-3.453497 -7.685500 -145.118023
-3.325431 -7.747244 -145.121812
-3.291714 -7.847474 -145.123178
-3.257997 -7.947704 -145.124544
-3.129931 -8.009447 -145.128333
-3.096214 -8.109677 -145.129700
-3.062497 -8.209907 -145.131066
-2.934431 -8.271650 -145.134855
-5.620231 -4.844581 -144.984998
-5.540917 -4.914524 -144.986364
-5.524068 -5.064972 -144.985307
-5.444753 -5.134915 -144.986673
-5.365438 -5.204858 -144.988039
-5.286123 -5.274802 -144.989405
-5.206809 -5.344745 -144.990771
-5.189960 -5.495193 -144.989714
-5.110645 -5.565136 -144.991080
-5.093796 -5.715584 -144.990023
-5.014481 -5.785527 -144.991389
-4.997632 -5.935975 -144.990332
-4.918317 -6.005918 -144.991698
-4.901468 -6.156366 -144.990641
-4.822153 -6.226309 -144.992007
-4.742839 -6.296252 -144.993373
-4.663524 -6.366195 -144.994739
-4.584209 -6.436138 -144.996105
-4.504895 -6.506081 -144.997471
-4.488046 -6.656529 -144.996414
-4.471196 -6.806977 -144.995357
-4.454347 -6.957425 -144.994299
-4.375033 -7.027368 -144.995665
-4.358183 -7.177816 -144.994608
-4.278869 -7.247759 -144.995974
-4.262020 -7.398207 -144.994917
-4.182705 -7.468150 -144.996283
-4.165856 -7.618598 -144.995226
-4.086541 -7.688541 -144.996592
-4.007226 -7.758484 -144.997958
-3.927912 -7.828427 -144.999324
-3.911063 -7.978875 -144.998267
-3.831748 -8.048818 -144.999633
-3.752433 -8.118761 -145.000999
-3.673119 -8.188705 -145.002365
-3.656269 -8.339152 -145.001308
-3.576955 -8.409096 -145.002674
-3.497640 -8.479039 -145.004040
-3.418325 -8.548982 -145.005406
-3.339011 -8.618925 -145.006772
-3.259696 -8.688868 -145.008138
-3.180381 -8.758811 -145.009504
-3.101067 -8.828755 -145.010870
-3.021752 -8.898698 -145.012236
-2.942437 -8.968641 -145.013602
-2.863123 -9.038584 -145.014968
-2.783808 -9.108527 -145.016334
-2.704493 -9.178470 -145.017700
-2.625178 -9.248414 -145.019066
-2.608329 -9.398861 -145.018009
-2.529015 -9.468805 -145.019375
-2.449700 -9.538748 -145.020741
-2.307920 -9.528186 -145.024530
-2.228605 -9.598129 -145.025896
-2.149290 -9.668072 -145.027262
-2.069976 -9.738016 -145.028628
-1.990661 -9.807959 -145.029994
-1.911346 -9.877902 -145.031360
-1.832032 -9.947845 -145.032726
-1.752717 -10.017788 -145.034092
-1.673402 -10.087731 -145.035458
-1.594088 -10.157675 -145.036824
-1.514773 -10.227618 -145.038190
-1.435458 -10.297561 -145.039556
-1.356144 -10.367504 -145.040923
-1.276829 -10.437447 -145.042289
-1.197514 -10.507390 -145.043655
-1.055734 -10.496829 -145.047444
-0.976419 -10.566772 -145.048810
-0.897105 -10.636715 -145.050176
-0.817790 -10.706658 -145.051542
-0.676010 -10.696097 -145.055331
-0.596695 -10.766040 -145.056697
-0.517380 -10.835983 -145.058063
-0.438066 -10.905926 -145.059429
-0.296285 -10.895365 -145.063218
-0.216971 -10.965308 -145.064584
-0.137656 -11.035251 -145.065950
0.004124 -11.024690 -145.069739
0.083439 -11.094633 -145.071105
0.225219 -11.084071 -145.074894
-2.839359 -9.104725 -144.932746
-2.749543 -9.226592 -144.931689
-2.645883 -9.247507 -144.933055
-2.556067 -9.369374 -144.931998
-2.452407 -9.390289 -144.933364
-2.362591 -9.512156 -144.932307
-2.258931 -9.533072 -144.933673
-2.169115 -9.654939 -144.932616
-2.065455 -9.675854 -144.933982
-1.961795 -9.696769 -144.935348
-1.899667 -10.020540 -144.929445
-1.796007 -10.041455 -144.930811
-1.706191 -10.163322 -144.929754
-1.602531 -10.184237 -144.931120
-1.568093 -10.709912 -144.920370
-1.464433 -10.730827 -144.921736
-1.360772 -10.751742 -144.923102
-1.257112 -10.772657 -144.924468
-1.167296 -10.894524 -144.923411
-1.063636 -10.915439 -144.924777
-0.959976 -10.936354 -144.926143
-0.856316 -10.957270 -144.927509
-0.766500 -11.079137 -144.926452
-0.662840 -11.100052 -144.927818
-0.559180 -11.120967 -144.929184
-0.455520 -11.141882 -144.930550
-0.351859 -11.162797 -144.931916
-0.248199 -11.183712 -144.933282
-0.144539 -11.204627 -144.934648
-0.040879 -11.225543 -144.936014
0.062781 -11.246458 -144.937380
0.166441 -11.267373 -144.938746
0.270101 -11.288288 -144.940112
0.373762 -11.309203 -144.941478
0.477422 -11.330118 -144.942844
0.581082 -11.351033 -144.944210
0.684742 -11.371949 -144.945576
0.788402 -11.392864 -144.946942
0.892062 -11.413779 -144.948308
0.981878 -11.535646 -144.947251
1.085538 -11.556561 -144.948617
1.189199 -11.577476 -144.949983
1.292859 -11.598391 -144.951349
1.396519 -11.619306 -144.952715
1.500179 -11.640221 -144.954081
1.603839 -11.661137 -144.955447
1.707499 -11.682052 -144.956813
1.811160 -11.702967 -144.958179
1.914820 -11.723882 -144.959545
2.032324 -11.643845 -144.963334
2.135984 -11.664760 -144.964700
2.239644 -11.685675 -144.966066
2.343305 -11.706591 -144.967432
2.446965 -11.727506 -144.968798
2.550625 -11.748421 -144.970164
2.654285 -11.769336 -144.971530
2.757945 -11.790251 -144.972897
2.861605 -11.811166 -144.974263
2.965266 -11.832081 -144.975629
3.068926 -11.852997 -144.976995
3.172586 -11.873912 -144.978361
3.276246 -11.894827 -144.979727
3.379906 -11.915742 -144.981093
3.483566 -11.936657 -144.982459
3.587227 -11.957572 -144.983825
3.704731 -11.877535 -144.987614
3.808391 -11.898451 -144.988980
3.912051 -11.919366 -144.990346
4.015712 -11.940281 -144.991712
4.133216 -11.860244 -144.995501
4.236876 -11.881159 -144.996867
4.340536 -11.902074 -144.998233
4.444196 -11.922989 -144.999599
4.547857 -11.943905 -145.000965
4.693050 -11.661964 -145.009600
4.824399 -11.480975 -145.015813
4.955747 -11.299987 -145.022025
5.073252 -11.219950 -145.025814
-1.252672 -10.322916 -144.890091
-1.152442 -10.289199 -144.891457
-0.975240 -10.444181 -144.887977
-0.798037 -10.599162 -144.884497
-0.659321 -10.659794 -144.883440
-0.520604 -10.720426 -144.882382
-0.420375 -10.686709 -144.883748
-0.281658 -10.747341 -144.882691
-0.027483 -11.091021 -144.874365
0.111233 -11.151653 -144.873308
0.249950 -11.212285 -144.872251
0.388666 -11.272917 -144.871194
0.527382 -11.333549 -144.870136
0.627612 -11.299832 -144.871502
0.766329 -11.360464 -144.870445
0.905045 -11.421096 -144.869388
1.043761 -11.481728 -144.868331
1.143991 -11.448011 -144.869697
1.282707 -11.508644 -144.868640
1.382937 -11.474927 -144.870006
1.521654 -11.535559 -144.868949
1.660370 -11.596191 -144.867892
1.760600 -11.562474 -144.869258
1.899316 -11.623106 -144.868201
1.999546 -11.589389 -144.869567
2.253721 -11.933068 -144.861240
2.392438 -11.993700 -144.860183
2.531154 -12.054333 -144.859126
2.631384 -12.020616 -144.860492
2.731614 -11.986899 -144.861858
2.831844 -11.953182 -144.863224
2.932074 -11.919465 -144.864590
3.032304 -11.885748 -144.865956
3.171020 -11.946380 -144.864899
3.271250 -11.912663 -144.866265
3.371480 -11.878946 -144.867631
3.471710 -11.845229 -144.868997
3.610426 -11.905861 -144.867940
3.710656 -11.872144 -144.869306
3.810886 -11.838427 -144.870672
3.949602 -11.899059 -144.869615
4.049832 -11.865342 -144.870981
4.150062 -11.831625 -144.872347
4.250292 -11.797908 -144.873713
4.350522 -11.764191 -144.875079
4.450752 -11.730474 -144.876445
4.550982 -11.696757 -144.877811
4.651212 -11.663040 -144.879177
4.751442 -11.629323 -144.880543
4.851671 -11.595606 -144.881909
4.951901 -11.561889 -144.883275
5.052131 -11.528172 -144.884641
5.152361 -11.494455 -144.886007
5.252591 -11.460738 -144.887373
5.391307 -11.521370 -144.886316
5.491537 -11.487653 -144.887682
5.591767 -11.453936 -144.889048
5.691997 -11.420219 -144.890414
5.753741 -11.292153 -144.894203
5.853971 -11.258436 -144.895569
5.954201 -11.224719 -144.896935
6.054431 -11.191002 -144.898301
6.154660 -11.157285 -144.899667
6.254890 -11.123568 -144.901033
6.355120 -11.089851 -144.902399
6.455350 -11.056134 -144.903765
6.555580 -11.022417 -144.905131
6.655810 -10.988700 -144.906497
6.756040 -10.954983 -144.907863
6.856270 -10.921266 -144.909229
6.918013 -10.793200 -144.913018
7.018243 -10.759483 -144.914384
7.118473 -10.725766 -144.915751
7.218703 -10.692049 -144.917117
7.318933 -10.658332 -144.918483
7.419163 -10.624615 -144.919849
7.480907 -10.496549 -144.923638
7.581137 -10.462832 -144.925004
7.681367 -10.429115 -144.926370
7.743110 -10.301049 -144.930159
7.843340 -10.267332 -144.931525
7.905084 -10.139265 -144.935314
8.005313 -10.105548 -144.936680
8.105543 -10.071831 -144.938046
8.205773 -10.038114 -144.939412
8.267517 -9.910048 -144.943201
8.329260 -9.781982 -144.946990
8.429490 -9.748265 -144.948356
8.491234 -9.620199 -144.952146
8.552977 -9.492133 -144.955935
8.653207 -9.458416 -144.957301
8.714951 -9.330350 -144.961090
8.776694 -9.202284 -144.964879
8.838438 -9.074218 -144.968668
8.938668 -9.040501 -144.970034
9.000411 -8.912435 -144.973823
9.100641 -8.878718 -144.975189
9.200871 -8.845001 -144.976555
9.224128 -8.622585 -144.982768
9.170413 -8.211472 -144.993826
9.232156 -8.083406 -144.997615
9.332386 -8.049689 -144.998981
9.432616 -8.015972 -145.000347
9.494360 -7.887906 -145.004136
9.556103 -7.759840 -145.007925
9.617847 -7.631773 -145.011715
9.641104 -7.409358 -145.017927
9.587388 -6.998245 -145.028985
9.649132 -6.870179 -145.032775
9.749362 -6.836462 -145.034141
9.811106 -6.708396 -145.037930
9.872849 -6.580329 -145.041719
