ply
format ascii 1.0
element vertex 1209
property float x
property float y
property float z
element face 0
property list uchar uint vertex_indices
end_header
3.192457 -11.952669 -143.836865
3.342905 -11.935820 -143.835807
3.654362 -12.043902 -143.829904
3.804810 -12.027053 -143.828847
3.955258 -12.010204 -143.827790
4.105706 -11.993355 -143.826733
4.336658 -12.038971 -143.823253
4.487106 -12.022122 -143.822195
4.637554 -12.005273 -143.821138
4.788002 -11.988423 -143.820081
4.938449 -11.971574 -143.819024
5.008393 -11.892260 -143.820390
5.158840 -11.875410 -143.819333
5.309288 -11.858561 -143.818276
5.459736 -11.841712 -143.817219
5.610184 -11.824863 -143.816162
5.760632 -11.808014 -143.815105
5.830575 -11.728699 -143.816471
5.981023 -11.711850 -143.815414
6.050966 -11.632535 -143.816780
6.120909 -11.553221 -143.818146
6.190852 -11.473906 -143.819512
6.341300 -11.457057 -143.818454
6.411243 -11.377742 -143.819820
6.561691 -11.360893 -143.818763
6.631634 -11.281578 -143.820129
6.701577 -11.202264 -143.821495
6.852025 -11.185415 -143.820438
7.002473 -11.168565 -143.819381
7.152921 -11.151716 -143.818324
7.222864 -11.072402 -143.819690
7.373312 -11.055552 -143.818633
7.523760 -11.038703 -143.817576
7.593703 -10.959389 -143.818942
7.744151 -10.942539 -143.817885
7.814094 -10.863225 -143.819251
7.884037 -10.783910 -143.820617
7.953980 -10.704595 -143.821983
8.104428 -10.687746 -143.820926
8.174371 -10.608432 -143.822292
8.244314 -10.529117 -143.823658
8.314258 -10.449802 -143.825024
8.384201 -10.370487 -143.826390
8.454144 -10.291173 -143.827756
8.524087 -10.211858 -143.829122
8.594030 -10.132543 -143.830488
8.744478 -10.115694 -143.829431
8.814421 -10.036380 -143.830797
8.884364 -9.957065 -143.832163
8.954307 -9.877750 -143.833529
9.024251 -9.798436 -143.834895
9.094194 -9.719121 -143.836261
9.164137 -9.639806 -143.837627
9.234080 -9.560491 -143.838993
9.304023 -9.481177 -143.840359
9.373966 -9.401862 -143.841725
9.443910 -9.322547 -143.843091
9.513853 -9.243233 -143.844457
9.583796 -9.163918 -143.845823
9.653739 -9.084603 -143.847189
9.723682 -9.005289 -143.848555
9.793625 -8.925974 -143.849921
9.863569 -8.846659 -143.851287
9.933512 -8.767345 -143.852653
10.003455 -8.688030 -143.854019
10.073398 -8.608715 -143.855385
10.143341 -8.529401 -143.856751
10.213284 -8.450086 -143.858117
10.283227 -8.370771 -143.859483
10.272666 -8.228991 -143.863272
10.342609 -8.149676 -143.864638
10.412552 -8.070362 -143.866004
10.482495 -7.991047 -143.867370
10.552439 -7.911732 -143.868736
10.622382 -7.832418 -143.870102
10.692325 -7.753103 -143.871468
10.681763 -7.611323 -143.875257
10.751707 -7.532008 -143.876623
10.821650 -7.452693 -143.877989
10.891593 -7.373379 -143.879355
10.881031 -7.231598 -143.883145
10.870470 -7.089818 -143.886934
10.859908 -6.948038 -143.890723
10.929851 -6.868723 -143.892089
10.838785 -6.664477 -143.898301
10.828224 -6.522697 -143.902090
10.817662 -6.380917 -143.905879
10.887605 -6.301602 -143.907245
10.877044 -6.159822 -143.911035
10.866482 -6.018042 -143.914824
10.936425 -5.938727 -143.916190
10.925864 -5.796947 -143.919979
10.915302 -5.655167 -143.923768
10.985246 -5.575852 -143.925134
10.974684 -5.434072 -143.928923
10.883618 -5.229826 -143.935135
10.873056 -5.088046 -143.938925
10.942999 -5.008731 -143.940291
10.932438 -4.866951 -143.944080
10.921876 -4.725171 -143.947869
10.911315 -4.583390 -143.951658
10.900753 -4.441610 -143.955447
10.809687 -4.237364 -143.961659
10.799126 -4.095584 -143.965449
10.708059 -3.891338 -143.971661
10.697498 -3.749558 -143.975450
10.686936 -3.607778 -143.979239
10.595870 -3.403532 -143.985451
10.504804 -3.199286 -143.991664
10.413738 -2.995041 -143.997876
6.641191 -11.449902 -143.834963
6.763058 -11.360086 -143.833906
6.783973 -11.256426 -143.835272
6.905840 -11.166610 -143.834215
7.027707 -11.076794 -143.833158
7.553382 -11.042356 -143.822408
7.675249 -10.952540 -143.821351
7.696164 -10.848880 -143.822717
7.818031 -10.759064 -143.821660
7.939898 -10.669248 -143.820603
8.061765 -10.579432 -143.819546
8.082680 -10.475772 -143.820912
8.204547 -10.385956 -143.819855
8.427366 -10.309985 -143.816374
8.549233 -10.220169 -143.815317
8.671100 -10.130353 -143.814260
8.792967 -10.040537 -143.813203
8.914834 -9.950721 -143.812146
9.036701 -9.860906 -143.811089
9.158568 -9.771090 -143.810032
9.179483 -9.667430 -143.811398
9.301351 -9.577614 -143.810341
9.423218 -9.487798 -143.809283
9.444133 -9.384138 -143.810650
9.566000 -9.294322 -143.809592
9.687867 -9.204506 -143.808535
9.910686 -9.128535 -143.805055
10.032553 -9.038719 -143.803998
10.154420 -8.948903 -143.802941
10.276287 -8.859087 -143.801884
10.297202 -8.755427 -143.803250
10.419069 -8.665611 -143.802193
10.439984 -8.561951 -143.803559
10.561851 -8.472135 -143.802502
10.582766 -8.368475 -143.803868
10.704633 -8.278659 -143.802810
10.725549 -8.174999 -143.804176
10.746464 -8.071339 -143.805542
10.868331 -7.981523 -143.804485
10.889246 -7.877863 -143.805851
10.910161 -7.774203 -143.807217
10.931076 -7.670542 -143.808583
10.951991 -7.566882 -143.809949
10.972906 -7.463222 -143.811315
10.993821 -7.359562 -143.812681
11.115689 -7.269746 -143.811624
11.136604 -7.166086 -143.812990
11.157519 -7.062426 -143.814356
11.178434 -6.958766 -143.815722
11.199349 -6.855105 -143.817088
11.220264 -6.751445 -143.818454
11.241179 -6.647785 -143.819820
11.262094 -6.544125 -143.821186
11.283010 -6.440465 -143.822553
11.303925 -6.336805 -143.823919
11.324840 -6.233145 -143.825285
11.345755 -6.129484 -143.826651
11.366670 -6.025824 -143.828017
11.387585 -5.922164 -143.829383
11.408500 -5.818504 -143.830749
11.328464 -5.700999 -143.834538
11.349379 -5.597339 -143.835904
11.370294 -5.493679 -143.837270
11.391209 -5.390019 -143.838636
11.412124 -5.286359 -143.840002
11.433039 -5.182699 -143.841368
11.353002 -5.065194 -143.845157
11.373918 -4.961534 -143.846523
11.394833 -4.857874 -143.847889
11.415748 -4.754214 -143.849255
11.436663 -4.650553 -143.850621
11.457578 -4.546893 -143.851987
11.377541 -4.429389 -143.855776
11.398456 -4.325729 -143.857142
11.318420 -4.208224 -143.860931
11.339335 -4.104564 -143.862297
11.259298 -3.987060 -143.866086
11.280213 -3.883399 -143.867453
11.200176 -3.765895 -143.871242
11.120140 -3.648390 -143.875031
11.040103 -3.530886 -143.878820
10.960066 -3.413381 -143.882609
10.980981 -3.309721 -143.883975
11.001896 -3.206061 -143.885341
11.022811 -3.102401 -143.886707
11.043727 -2.998741 -143.888073
10.963690 -2.881236 -143.891862
10.984605 -2.777576 -143.893228
10.904568 -2.660072 -143.897017
10.925483 -2.556411 -143.898383
10.946398 -2.452751 -143.899749
10.967314 -2.349091 -143.901115
10.887277 -2.231587 -143.904905
10.908192 -2.127927 -143.906271
10.929107 -2.024266 -143.907637
10.849070 -1.906762 -143.911426
10.869985 -1.803102 -143.912792
10.789949 -1.685597 -143.916581
10.709912 -1.568093 -143.920370
10.730827 -1.464433 -143.921736
10.751742 -1.360772 -143.923102
10.671705 -1.243268 -143.926891
10.692620 -1.139608 -143.928257
10.612584 -1.022103 -143.932046
10.633499 -0.918443 -143.933412
10.553462 -0.800939 -143.937202
10.574377 -0.697278 -143.938568
10.595292 -0.593618 -143.939934
10.515255 -0.476114 -143.943723
10.536171 -0.372454 -143.945089
10.456134 -0.254949 -143.948878
10.477049 -0.151289 -143.950244
10.497964 -0.047629 -143.951610
10.518879 0.056031 -143.952976
10.539794 0.159691 -143.954342
10.560709 0.263352 -143.955708
10.581625 0.367012 -143.957074
10.501588 0.484516 -143.960863
10.219647 0.629709 -143.969499
10.139610 0.747214 -143.973288
10.160526 0.850874 -143.974654
10.080489 0.968379 -143.978443
10.000452 1.085883 -143.982232
10.021367 1.189543 -143.983598
9.941330 1.307048 -143.987387
9.962245 1.410708 -143.988753
9.882209 1.528212 -143.992542
9.903124 1.631872 -143.993908
9.823087 1.749377 -143.997697
9.844002 1.853037 -143.999063
9.763965 1.970542 -144.002853
9.683929 2.088046 -144.006642
9.603892 2.205551 -144.010431
9.523855 2.323055 -144.014220
9.443818 2.440560 -144.018009
9.464733 2.544220 -144.019375
9.384697 2.661724 -144.023164
9.405612 2.765384 -144.024530
9.325575 2.882889 -144.028319
9.245538 3.000393 -144.032109
9.266453 3.104053 -144.033475
8.782609 3.276935 -144.046956
8.803524 3.380595 -144.048322
8.824439 3.484256 -144.049688
8.845354 3.587916 -144.051054
8.866269 3.691576 -144.052420
8.887185 3.795236 -144.053786
8.908100 3.898896 -144.055152
8.828063 4.016401 -144.058941
8.748026 4.133905 -144.062731
8.667989 4.251410 -144.066520
11.328209 -7.111695 -143.836768
11.388841 -6.972979 -143.835711
11.355124 -6.872749 -143.837077
11.321407 -6.772519 -143.838443
11.287690 -6.672289 -143.839809
11.253973 -6.572060 -143.841175
11.220256 -6.471830 -143.842541
11.375238 -6.294627 -143.839061
11.718917 -6.040451 -143.830735
11.779549 -5.901735 -143.829677
11.745832 -5.801505 -143.831043
11.806464 -5.662789 -143.829986
11.867096 -5.524073 -143.828929
11.833379 -5.423843 -143.830295
11.894012 -5.285126 -143.829238
11.860295 -5.184897 -143.830604
11.826578 -5.084667 -143.831970
11.792861 -4.984437 -143.833336
11.759144 -4.884207 -143.834702
11.725427 -4.783977 -143.836068
11.786059 -4.645261 -143.835011
11.752342 -4.545031 -143.836377
11.718625 -4.444801 -143.837743
11.684908 -4.344571 -143.839109
11.745540 -4.205854 -143.838052
11.711823 -4.105625 -143.839418
11.772455 -3.966908 -143.838361
11.738738 -3.866678 -143.839727
11.705021 -3.766448 -143.841093
11.671304 -3.666218 -143.842459
11.637587 -3.565989 -143.843825
11.603870 -3.465759 -143.845191
11.664502 -3.327042 -143.844134
11.630785 -3.226812 -143.845500
11.597068 -3.126582 -143.846866
11.563351 -3.026353 -143.848232
11.529634 -2.926123 -143.849598
11.495917 -2.825893 -143.850964
11.462200 -2.725663 -143.852330
11.428483 -2.625433 -143.853696
11.489115 -2.486717 -143.852639
11.455398 -2.386487 -143.854005
11.421681 -2.286257 -143.855371
11.387964 -2.186027 -143.856737
11.354247 -2.085797 -143.858103
11.320530 -1.985567 -143.859469
11.381162 -1.846851 -143.858412
11.347445 -1.746621 -143.859778
11.313728 -1.646391 -143.861144
11.280011 -1.546161 -143.862510
11.246294 -1.445931 -143.863876
11.306926 -1.307215 -143.862819
11.273209 -1.206985 -143.864185
11.239492 -1.106755 -143.865551
11.205775 -1.006525 -143.866917
11.266407 -0.867809 -143.865860
11.232690 -0.767579 -143.867226
11.198973 -0.667349 -143.868592
11.165256 -0.567119 -143.869958
11.131539 -0.466889 -143.871324
11.097822 -0.366659 -143.872690
11.064105 -0.266429 -143.874056
11.030388 -0.166199 -143.875422
10.996671 -0.065969 -143.876788
10.962954 0.034261 -143.878154
11.023587 0.172977 -143.877097
10.989870 0.273207 -143.878463
10.956153 0.373437 -143.879829
11.016785 0.512153 -143.878772
10.983068 0.612383 -143.880138
10.949351 0.712613 -143.881504
10.915634 0.812843 -143.882870
10.881917 0.913073 -143.884236
10.848200 1.013303 -143.885602
10.908832 1.152019 -143.884545
10.875115 1.252249 -143.885911
10.841398 1.352479 -143.887277
10.807681 1.452709 -143.888643
10.773964 1.552939 -143.890009
10.740247 1.653169 -143.891375
10.706530 1.753399 -143.892741
10.672813 1.853629 -143.894107
10.544747 1.915372 -143.897896
10.511030 2.015602 -143.899262
10.477313 2.115832 -143.900628
10.443596 2.216062 -143.901994
10.409879 2.316292 -143.903360
10.376162 2.416522 -143.904726
10.342445 2.516752 -143.906092
10.308728 2.616982 -143.907458
10.275011 2.717211 -143.908824
10.146945 2.778955 -143.912613
10.113228 2.879185 -143.913979
10.079511 2.979415 -143.915345
10.045794 3.079645 -143.916711
10.012077 3.179875 -143.918077
9.978360 3.280105 -143.919443
9.944643 3.380335 -143.920809
9.910926 3.480564 -143.922175
9.877209 3.580794 -143.923541
9.749142 3.642538 -143.927331
9.715425 3.742768 -143.928697
9.681708 3.842998 -143.930063
9.647991 3.943228 -143.931429
9.614274 4.043458 -143.932795
9.580558 4.143688 -143.934161
9.452491 4.205431 -143.937950
9.418774 4.305661 -143.939316
9.385057 4.405891 -143.940682
9.351340 4.506121 -143.942048
9.317623 4.606351 -143.943414
9.189557 4.668094 -143.947203
9.155840 4.768324 -143.948569
9.122123 4.868554 -143.949935
9.088406 4.968784 -143.951301
9.054689 5.069014 -143.952667
8.926623 5.130758 -143.956456
8.892906 5.230987 -143.957822
8.859189 5.331217 -143.959188
8.731123 5.392961 -143.962977
8.603057 5.454704 -143.966766
8.474991 5.516448 -143.970556
8.441274 5.616678 -143.971922
8.313208 5.678422 -143.975711
8.279491 5.778651 -143.977077
8.151425 5.840395 -143.980866
8.117708 5.940625 -143.982232
7.989641 6.002368 -143.986021
7.861575 6.064112 -143.989810
7.733509 6.125856 -143.993599
7.699792 6.226085 -143.994965
7.571726 6.287829 -143.998755
7.538009 6.388059 -144.000121
7.504292 6.488289 -144.001487
7.376226 6.550032 -144.005276
7.342509 6.650262 -144.006642
7.214443 6.712006 -144.010431
7.180726 6.812236 -144.011797
6.958311 6.835493 -144.018009
6.735895 6.858750 -144.024221
6.607829 6.920494 -144.028011
6.479763 6.982237 -144.031800
10.963091 0.539797 -143.888938
10.946241 0.690245 -143.887881
10.929392 0.840693 -143.886823
10.912543 0.991141 -143.885766
10.958159 1.222094 -143.882286
11.003775 1.453047 -143.878806
10.924461 1.522990 -143.880172
10.907611 1.673438 -143.879115
10.828297 1.743381 -143.880481
10.811447 1.893829 -143.879424
10.732133 1.963772 -143.880790
10.715283 2.114220 -143.879733
10.635968 2.184163 -143.881099
10.556654 2.254106 -143.882465
10.539804 2.404554 -143.881408
10.460490 2.474497 -143.882774
10.381175 2.544441 -143.884140
10.426791 2.775393 -143.880659
10.409942 2.925841 -143.879602
10.330627 2.995784 -143.880968
10.313778 3.146232 -143.879911
10.234463 3.216176 -143.881277
10.217614 3.366623 -143.880220
10.138299 3.436567 -143.881586
10.121450 3.587015 -143.880529
10.042135 3.656958 -143.881895
10.025286 3.807406 -143.880838
9.945971 3.877349 -143.882204
9.866656 3.947292 -143.883570
9.849807 4.097740 -143.882513
9.832958 4.248188 -143.881456
9.816108 4.398636 -143.880399
9.736794 4.468579 -143.881765
9.719944 4.619027 -143.880707
9.640630 4.688970 -143.882073
9.561315 4.758913 -143.883440
9.482000 4.828856 -143.884806
9.465151 4.979304 -143.883748
9.385836 5.049248 -143.885114
9.306521 5.119191 -143.886480
9.289672 5.269639 -143.885423
9.272823 5.420087 -143.884366
9.255973 5.570535 -143.883309
9.176659 5.640478 -143.884675
9.097344 5.710421 -143.886041
9.018029 5.780364 -143.887407
9.001180 5.930812 -143.886350
8.921865 6.000755 -143.887716
8.842550 6.070698 -143.889082
8.763235 6.140641 -143.890448
8.683921 6.210585 -143.891814
8.604606 6.280528 -143.893180
8.525291 6.350471 -143.894546
8.508442 6.500919 -143.893489
8.429127 6.570862 -143.894855
8.349812 6.640805 -143.896221
8.270497 6.710748 -143.897587
8.191183 6.780691 -143.898953
8.111868 6.850635 -143.900319
8.032553 6.920578 -143.901685
7.953238 6.990521 -143.903051
7.873923 7.060464 -143.904417
7.794609 7.130407 -143.905783
7.715294 7.200350 -143.907149
7.635979 7.270294 -143.908515
7.556664 7.340237 -143.909881
7.477349 7.410180 -143.911247
7.398035 7.480123 -143.912613
7.256254 7.469561 -143.916402
7.176940 7.539505 -143.917768
7.097625 7.609448 -143.919134
7.018310 7.679391 -143.920500
6.938995 7.749334 -143.921866
6.859680 7.819277 -143.923232
6.780366 7.889220 -143.924599
6.701051 7.959164 -143.925965
6.621736 8.029107 -143.927331
6.542421 8.099050 -143.928697
6.400641 8.088488 -143.932486
6.321326 8.158431 -143.933852
6.242011 8.228375 -143.935218
6.100231 8.217813 -143.939007
5.833520 8.046242 -143.947642
5.691739 8.035680 -143.951431
5.549959 8.025119 -143.955221
5.345713 7.934052 -143.961433
5.203933 7.923490 -143.965222
5.062152 7.912929 -143.969011
4.920372 7.902367 -143.972800
4.841057 7.972310 -143.974166
4.699277 7.961749 -143.977955
4.619962 8.031692 -143.979321
4.478182 8.021130 -143.983111
4.398867 8.091073 -143.984477
4.194621 8.000007 -143.990689
4.052841 7.989445 -143.994478
3.911060 7.978884 -143.998267
3.831746 8.048827 -143.999633
3.689965 8.038265 -144.003422
3.610651 8.108208 -144.004788
3.468870 8.097647 -144.008577
9.486764 4.754891 -143.910128
9.396948 4.876758 -143.909071
9.307132 4.998625 -143.908014
9.217317 5.120492 -143.906957
9.127501 5.242359 -143.905900
9.037685 5.364226 -143.904842
9.003246 5.889901 -143.894093
8.913431 6.011768 -143.893036
8.823615 6.133635 -143.891979
8.719955 6.154550 -143.893345
8.630139 6.276417 -143.892288
8.526479 6.297332 -143.893654
8.436663 6.419199 -143.892596
8.333003 6.440114 -143.893962
8.243187 6.561981 -143.892905
8.153371 6.683848 -143.891848
8.063555 6.805715 -143.890791
7.959895 6.826630 -143.892157
7.870079 6.948497 -143.891100
7.766419 6.969413 -143.892466
7.690447 7.192232 -143.888986
7.628320 7.516002 -143.883082
7.552349 7.738821 -143.879602
7.462533 7.860688 -143.878545
7.372717 7.982555 -143.877488
7.269057 8.003471 -143.878854
7.165397 8.024386 -143.880220
7.075581 8.146253 -143.879163
6.971921 8.167168 -143.880529
6.868261 8.188083 -143.881895
6.764600 8.208998 -143.883261
6.660940 8.229913 -143.884627
6.557280 8.250828 -143.885993
6.453620 8.271744 -143.887359
6.349960 8.292659 -143.888725
6.246300 8.313574 -143.890091
6.156484 8.435441 -143.889034
6.052824 8.456356 -143.890400
5.949164 8.477271 -143.891766
5.845503 8.498186 -143.893132
5.741843 8.519101 -143.894498
5.638183 8.540017 -143.895864
5.534523 8.560932 -143.897230
5.430863 8.581847 -143.898596
5.327203 8.602762 -143.899962
5.209698 8.522725 -143.903751
5.106038 8.543640 -143.905117
5.002378 8.564555 -143.906483
4.898718 8.585471 -143.907849
4.795057 8.606386 -143.909215
4.691397 8.627301 -143.910581
4.587737 8.648216 -143.911947
4.484077 8.669131 -143.913313
4.380417 8.690046 -143.914679
4.276757 8.710961 -143.916045
4.173096 8.731876 -143.917411
4.069436 8.752792 -143.918777
3.965776 8.773707 -143.920143
3.848272 8.693670 -143.923933
3.744612 8.714585 -143.925299
3.640951 8.735500 -143.926665
3.537291 8.756415 -143.928031
3.419787 8.676379 -143.931820
3.316127 8.697294 -143.933186
3.212466 8.718209 -143.934552
3.108806 8.739124 -143.935918
2.991302 8.659087 -143.939707
2.887642 8.680002 -143.941073
2.783981 8.700917 -143.942439
2.680321 8.721833 -143.943805
2.576661 8.742748 -143.945171
2.473001 8.763663 -143.946537
2.355496 8.683626 -143.950326
2.210303 8.401685 -143.958962
2.092799 8.321649 -143.962751
1.989139 8.342564 -143.964117
1.871634 8.262527 -143.967906
1.767974 8.283442 -143.969272
1.664314 8.304357 -143.970638
1.546809 8.224320 -143.974427
1.443149 8.245236 -143.975793
1.325645 8.165199 -143.979582
1.221985 8.186114 -143.980948
1.118324 8.207029 -143.982314
1.000820 8.126992 -143.986103
0.897160 8.147907 -143.987469
0.779655 8.067871 -143.991258
0.675995 8.088786 -143.992625
0.558491 8.008749 -143.996414
0.454830 8.029664 -143.997780
0.337326 7.949627 -144.001569
0.219822 7.869591 -144.005358
0.074628 7.587650 -144.013993
-0.042876 7.507613 -144.017782
-0.160381 7.427576 -144.021572
-0.264041 7.448492 -144.022938
5.198472 8.753283 -143.915901
5.059756 8.813915 -143.914844
4.921040 8.874548 -143.913787
4.743837 9.029529 -143.910307
4.605121 9.090161 -143.909249
4.466404 9.150793 -143.908192
4.366174 9.117076 -143.909558
4.265945 9.083359 -143.910924
4.127228 9.143991 -143.909867
4.026998 9.110274 -143.911233
3.926768 9.076557 -143.912599
3.826538 9.042840 -143.913965
3.687822 9.103472 -143.912908
3.587592 9.069755 -143.914274
3.487362 9.036038 -143.915640
3.387132 9.002321 -143.917006
3.286902 8.968604 -143.918372
3.186673 8.934887 -143.919738
3.086443 8.901170 -143.921104
2.986213 8.867453 -143.922470
2.885983 8.833736 -143.923836
2.785753 8.800019 -143.925202
2.647037 8.860651 -143.924145
2.546807 8.826934 -143.925511
2.446577 8.793217 -143.926877
2.346347 8.759500 -143.928243
2.246117 8.725783 -143.929609
2.145887 8.692066 -143.930975
2.007171 8.752698 -143.929918
1.906941 8.718981 -143.931284
1.806711 8.685264 -143.932650
1.706481 8.651547 -143.934016
1.606251 8.617830 -143.935382
1.506021 8.584113 -143.936748
1.405791 8.550396 -143.938114
1.305561 8.516679 -143.939480
1.205331 8.482962 -143.940846
1.105101 8.449245 -143.942212
1.004871 8.415528 -143.943578
0.866155 8.476161 -143.942521
0.765925 8.442444 -143.943887
0.665695 8.408727 -143.945253
0.565465 8.375010 -143.946619
0.465235 8.341293 -143.947985
0.365006 8.307576 -143.949351
0.264776 8.273859 -143.950717
0.164546 8.240142 -143.952083
0.064316 8.206425 -143.953449
-0.074401 8.267057 -143.952392
-0.174630 8.233340 -143.953758
-0.274860 8.199623 -143.955124
-0.375090 8.165906 -143.956490
-0.475320 8.132189 -143.957856
-0.575550 8.098472 -143.959222
-0.637294 7.970406 -143.963011
-0.737524 7.936689 -143.964377
-0.837754 7.902972 -143.965743
-0.937983 7.869255 -143.967109
-1.038213 7.835538 -143.968476
-1.099957 7.707471 -143.972265
-1.200187 7.673754 -143.973631
-1.300417 7.640037 -143.974997
-1.400647 7.606320 -143.976363
-1.500877 7.572603 -143.977729
-1.601107 7.538886 -143.979095
-1.662850 7.410820 -143.982884
-1.763080 7.377103 -143.984250
-1.863310 7.343386 -143.985616
-1.963540 7.309669 -143.986982
-2.025283 7.181603 -143.990771
-2.087027 7.053537 -143.994560
-2.187257 7.019820 -143.995926
-2.249000 6.891754 -143.999715
-2.349230 6.858037 -144.001081
-2.410974 6.729971 -144.004871
-2.511204 6.696254 -144.006237
-2.611434 6.662537 -144.007603
-2.711664 6.628820 -144.008969
-2.811894 6.595103 -144.010335
-2.912124 6.561386 -144.011701
-2.973867 6.433320 -144.015490
-3.074097 6.399603 -144.016856
-3.135841 6.271537 -144.020645
-3.197584 6.143471 -144.024434
-3.297814 6.109754 -144.025800
-3.359558 5.981687 -144.029589
-1.741972 7.754741 -143.960362
-1.892419 7.737892 -143.959305
-1.962363 7.658577 -143.960671
-2.112810 7.641728 -143.959613
-2.182754 7.562413 -143.960979
-2.252697 7.483098 -143.962345
-2.403145 7.466249 -143.961288
-2.473088 7.386935 -143.962654
-2.543031 7.307620 -143.964020
-2.693479 7.290771 -143.962963
-2.763422 7.211456 -143.964329
-2.833365 7.132141 -143.965695
-2.903308 7.052827 -143.967061
-3.053756 7.035978 -143.966004
-3.123699 6.956663 -143.967370
-3.193642 6.877348 -143.968736
-3.263586 6.798034 -143.970102
-3.333529 6.718719 -143.971468
-3.403472 6.639404 -143.972834
-3.473415 6.560089 -143.974200
-3.543358 6.480775 -143.975566
-3.693806 6.463926 -143.974509
-3.763749 6.384611 -143.975875
-3.833692 6.305296 -143.977241
-3.903635 6.225982 -143.978607
-3.973579 6.146667 -143.979973
-4.043522 6.067352 -143.981339
-4.113465 5.988038 -143.982705
-4.183408 5.908723 -143.984071
-4.253351 5.829408 -143.985437
-4.323294 5.750093 -143.986803
-4.393238 5.670779 -143.988169
-4.463181 5.591464 -143.989535
-4.533124 5.512149 -143.990901
-4.603067 5.432835 -143.992267
-4.673010 5.353520 -143.993633
-4.742953 5.274205 -143.994999
-4.732392 5.132425 -143.998789
-4.802335 5.053110 -144.000155
-4.872278 4.973796 -144.001521
-4.942221 4.894481 -144.002887
-5.012164 4.815166 -144.004253
-5.082108 4.735852 -144.005619
-5.152051 4.656537 -144.006985
-5.141489 4.514757 -144.010774
-5.211432 4.435442 -144.012140
-5.281376 4.356127 -144.013506
-5.270814 4.214347 -144.017295
-5.340757 4.135033 -144.018661
-5.330196 3.993252 -144.022450
-5.319634 3.851472 -144.026239
-5.389577 3.772157 -144.027605
-5.379016 3.630377 -144.031394
-5.368454 3.488597 -144.035184
-5.357893 3.346817 -144.038973
-5.351386 4.987844 -143.976136
-5.473253 4.898028 -143.975079
-5.595120 4.808213 -143.974022
-5.616035 4.704552 -143.975388
-5.636950 4.600892 -143.976754
-5.657865 4.497232 -143.978120
-5.779732 4.407416 -143.977063
-5.800647 4.303756 -143.978429
-5.821562 4.200096 -143.979795
-5.842478 4.096436 -143.981161
-5.964345 4.006620 -143.980104
-5.985260 3.902960 -143.981470
-6.006175 3.799300 -143.982836
-6.027090 3.695639 -143.984202
-6.148957 3.605824 -143.983145
-6.169872 3.502163 -143.984511
-6.190787 3.398503 -143.985877
-6.211702 3.294843 -143.987243
-6.232618 3.191183 -143.988609
-6.253533 3.087523 -143.989975
-6.274448 2.983863 -143.991341
-6.194411 2.866358 -143.995130
-6.215326 2.762698 -143.996496
-6.135289 2.645194 -144.000285
-6.156204 2.541533 -144.001651
-6.177120 2.437873 -144.003017
-6.097083 2.320369 -144.006806
-6.117998 2.216709 -144.008172
-6.138913 2.113048 -144.009538
-6.159828 2.009388 -144.010904
-6.180743 1.905728 -144.012270
-6.201658 1.802068 -144.013636
-6.222574 1.698408 -144.015002
-6.142537 1.580903 -144.018791
-6.163452 1.477243 -144.020157
-6.184367 1.373583 -144.021523
-6.205282 1.269923 -144.022889
-6.226197 1.166263 -144.024256
-6.247112 1.062603 -144.025622
-6.268028 0.958942 -144.026988
-6.187991 0.841438 -144.030777
-6.208906 0.737778 -144.032143
-6.229821 0.634118 -144.033509
-6.250736 0.530457 -144.034875
-6.170699 0.412953 -144.038664
-6.191615 0.309293 -144.040030
-6.212530 0.205633 -144.041396
-6.233445 0.101972 -144.042762
-6.153408 -0.015532 -144.046551
-6.174323 -0.119192 -144.047917
-6.195238 -0.222852 -144.049283
-6.216153 -0.326513 -144.050649
-6.136117 -0.444017 -144.054438
-6.157032 -0.547677 -144.055804
-6.562263 1.874829 -143.990675
-6.717244 1.697626 -143.987195
-6.683527 1.597396 -143.988561
-6.744160 1.458680 -143.987503
-6.710443 1.358450 -143.988869
-6.676726 1.258220 -143.990235
-6.643009 1.157990 -143.991602
-6.609292 1.057760 -143.992968
-6.669924 0.919044 -143.991910
-6.730556 0.780328 -143.990853
-6.791188 0.641611 -143.989796
-6.851820 0.502895 -143.988739
-6.818103 0.402665 -143.990105
-6.784386 0.302435 -143.991471
-6.845018 0.163719 -143.990414
-6.905650 0.025003 -143.989357
-6.871933 -0.075227 -143.990723
-6.932565 -0.213944 -143.989666
-6.898848 -0.314173 -143.991032
-6.865131 -0.414403 -143.992398
-6.831414 -0.514633 -143.993764
-6.797697 -0.614863 -143.995130
-6.858329 -0.753580 -143.994073
-6.824612 -0.853809 -143.995439
-6.790895 -0.954039 -143.996805
-6.757178 -1.054269 -143.998171
-6.723461 -1.154499 -143.999537
-6.689744 -1.254729 -144.000903
-6.656027 -1.354959 -144.002269
-6.622310 -1.455189 -144.003635
-6.588593 -1.555419 -144.005001
-6.554876 -1.655649 -144.006367
-6.521159 -1.755879 -144.007733
-6.487442 -1.856109 -144.009099
-6.453725 -1.956339 -144.010465
-6.420008 -2.056569 -144.011831
-6.386291 -2.156798 -144.013197
-6.352574 -2.257028 -144.014563
-6.318857 -2.357258 -144.015929
-6.285140 -2.457488 -144.017295
-6.251423 -2.557718 -144.018661
-6.123357 -2.619462 -144.022450
-6.089640 -2.719692 -144.023816
-6.055923 -2.819922 -144.025182
-6.022206 -2.920151 -144.026548
-5.988489 -3.020381 -144.027914
-5.954772 -3.120611 -144.029280
-5.921055 -3.220841 -144.030646
-5.887338 -3.321071 -144.032012
-5.853621 -3.421301 -144.033378
-5.819904 -3.521531 -144.034744
-5.786187 -3.621761 -144.036110
-5.752470 -3.721991 -144.037476
-5.718753 -3.822221 -144.038842
-5.590687 -3.883964 -144.042632
-5.556970 -3.984194 -144.043998
-5.523253 -4.084424 -144.045364
-5.489536 -4.184654 -144.046730
-5.455819 -4.284884 -144.048096
-5.422102 -4.385114 -144.049462
-5.388385 -4.485344 -144.050828
-5.354668 -4.585574 -144.052194
-5.320951 -4.685804 -144.053560
-5.192885 -4.747547 -144.057349
-5.159168 -4.847777 -144.058715
-5.125451 -4.948007 -144.060081
-5.091734 -5.048237 -144.061447
-5.058017 -5.148467 -144.062813
-5.024300 -5.248697 -144.064179
-4.990583 -5.348927 -144.065545
-4.956866 -5.449157 -144.066911
-4.923149 -5.549387 -144.068277
-4.795083 -5.611130 -144.072066
-4.761366 -5.711360 -144.073432
-4.727649 -5.811590 -144.074798
-4.693932 -5.911820 -144.076164
-4.565866 -5.973564 -144.079953
-4.532149 -6.073793 -144.081319
-4.404083 -6.135537 -144.085108
-4.370366 -6.235767 -144.086474
-4.336649 -6.335997 -144.087840
-4.302932 -6.436227 -144.089206
-4.269215 -6.536457 -144.090572
-4.235498 -6.636687 -144.091938
-4.201781 -6.736917 -144.093305
-4.168064 -6.837146 -144.094671
-4.039998 -6.898890 -144.098460
-4.006281 -6.999120 -144.099826
-3.878215 -7.060863 -144.103615
-3.844498 -7.161093 -144.104981
-3.810781 -7.261323 -144.106347
-3.682714 -7.323067 -144.110136
-3.648997 -7.423297 -144.111502
-3.520931 -7.485040 -144.115291
-3.487214 -7.585270 -144.116657
-3.359148 -7.647014 -144.120446
-3.325431 -7.747244 -144.121812
-3.197365 -7.808987 -144.125601
-3.069299 -7.870731 -144.129391
-3.035582 -7.970961 -144.130757
-3.001865 -8.071191 -144.132123
-2.968148 -8.171421 -144.133489
-2.840082 -8.233164 -144.137278
-5.574615 -4.613629 -143.988478
-5.620231 -4.844581 -143.984998
-5.603382 -4.995029 -143.983941
-5.524068 -5.064972 -143.985307
-5.444753 -5.134915 -143.986673
-5.427904 -5.285363 -143.985616
-5.348589 -5.355306 -143.986982
-5.269274 -5.425249 -143.988348
-5.189960 -5.495193 -143.989714
-5.110645 -5.565136 -143.991080
-5.093796 -5.715584 -143.990023
-5.014481 -5.785527 -143.991389
-4.997632 -5.935975 -143.990332
-4.980783 -6.086422 -143.989275
-4.901468 -6.156366 -143.990641
-4.884619 -6.306813 -143.989584
-4.805304 -6.376757 -143.990950
-4.788455 -6.527204 -143.989892
-4.709140 -6.597148 -143.991258
-4.629826 -6.667091 -143.992625
-4.612977 -6.817539 -143.991567
-4.533662 -6.887482 -143.992933
-4.454347 -6.957425 -143.994299
-4.437498 -7.107873 -143.993242
-4.358183 -7.177816 -143.994608
-4.278869 -7.247759 -143.995974
-4.262020 -7.398207 -143.994917
-4.182705 -7.468150 -143.996283
-4.165856 -7.618598 -143.995226
-4.086541 -7.688541 -143.996592
-4.007226 -7.758484 -143.997958
-3.990377 -7.908932 -143.996901
-3.911063 -7.978875 -143.998267
-3.831748 -8.048818 -143.999633
-3.814899 -8.199266 -143.998576
-3.735584 -8.269209 -143.999942
-3.656269 -8.339152 -144.001308
-3.576955 -8.409096 -144.002674
-3.497640 -8.479039 -144.004040
-3.418325 -8.548982 -144.005406
-3.339011 -8.618925 -144.006772
-3.259696 -8.688868 -144.008138
-3.180381 -8.758811 -144.009504
-3.101067 -8.828755 -144.010870
-3.021752 -8.898698 -144.012236
-2.942437 -8.968641 -144.013602
-2.863123 -9.038584 -144.014968
-2.783808 -9.108527 -144.016334
-2.766959 -9.258975 -144.015277
-2.687644 -9.328918 -144.016643
-2.608329 -9.398861 -144.018009
-2.529015 -9.468805 -144.019375
-2.449700 -9.538748 -144.020741
-2.370385 -9.608691 -144.022107
-2.228605 -9.598129 -144.025896
-2.149290 -9.668072 -144.027262
-2.069976 -9.738016 -144.028628
-1.990661 -9.807959 -144.029994
-1.911346 -9.877902 -144.031360
-1.832032 -9.947845 -144.032726
-1.752717 -10.017788 -144.034092
-1.673402 -10.087731 -144.035458
-1.594088 -10.157675 -144.036824
-1.514773 -10.227618 -144.038190
-1.435458 -10.297561 -144.039556
-1.356144 -10.367504 -144.040923
-1.276829 -10.437447 -144.042289
-1.197514 -10.507390 -144.043655
-1.118199 -10.577334 -144.045021
-0.976419 -10.566772 -144.048810
-0.897105 -10.636715 -144.050176
-0.817790 -10.706658 -144.051542
-0.738475 -10.776601 -144.052908
-0.659160 -10.846545 -144.054274
-0.517380 -10.835983 -144.058063
-0.438066 -10.905926 -144.059429
-0.358751 -10.975869 -144.060795
-0.279436 -11.045813 -144.062161
-0.137656 -11.035251 -144.065950
-0.058341 -11.105194 -144.067316
0.020973 -11.175137 -144.068682
0.162754 -11.164576 -144.072471
0.491930 -10.912500 -144.083530
0.633711 -10.901939 -144.087319
0.775491 -10.891377 -144.091108
0.917271 -10.880816 -144.094897
1.059051 -10.870254 -144.098686
1.200832 -10.859693 -144.102475
1.280146 -10.929636 -144.103841
1.421927 -10.919074 -144.107631
1.501241 -10.989017 -144.108997
1.580556 -11.058961 -144.110363
1.659871 -11.128904 -144.111729
1.801651 -11.118342 -144.115518
1.943431 -11.107781 -144.119307
2.210142 -10.936210 -144.127942
2.476854 -10.764639 -144.136578
-4.221035 -6.751045 -143.959353
-4.131219 -6.872912 -143.958296
-4.055247 -7.095731 -143.954815
-3.979276 -7.318550 -143.951335
-3.903304 -7.541369 -143.947855
-3.813489 -7.663236 -143.946798
-3.723673 -7.785103 -143.945741
-3.620013 -7.806018 -143.947107
-3.530197 -7.927885 -143.946050
-3.440381 -8.049752 -143.944992
-3.392098 -8.474475 -143.936666
-3.302282 -8.596342 -143.935609
-3.212466 -8.718209 -143.934552
-3.122651 -8.840076 -143.933495
-3.032835 -8.961943 -143.932438
-2.943019 -9.083810 -143.931380
-2.839359 -9.104725 -143.932746
-2.749543 -9.226592 -143.931689
-2.659727 -9.348459 -143.930632
-2.556067 -9.369374 -143.931998
-2.466251 -9.491241 -143.930941
-2.362591 -9.512156 -143.932307
-2.272775 -9.634024 -143.931250
-2.169115 -9.654939 -143.932616
-2.093143 -9.877758 -143.929136
-2.003328 -9.999625 -143.928079
-1.913512 -10.121492 -143.927022
-1.809852 -10.142407 -143.928388
-1.720036 -10.264274 -143.927331
-1.630220 -10.386141 -143.926273
-1.568093 -10.709912 -143.920370
-1.464433 -10.730827 -143.921736
-1.360772 -10.751742 -143.923102
-1.257112 -10.772657 -143.924468
-1.167296 -10.894524 -143.923411
-1.063636 -10.915439 -143.924777
-0.959976 -10.936354 -143.926143
-0.870160 -11.058222 -143.925086
-0.766500 -11.079137 -143.926452
-0.662840 -11.100052 -143.927818
-0.559180 -11.120967 -143.929184
-0.455520 -11.141882 -143.930550
-0.351859 -11.162797 -143.931916
-0.248199 -11.183712 -143.933282
-0.144539 -11.204627 -143.934648
-0.040879 -11.225543 -143.936014
0.062781 -11.246458 -143.937380
0.166441 -11.267373 -143.938746
0.270101 -11.288288 -143.940112
0.373762 -11.309203 -143.941478
0.477422 -11.330118 -143.942844
0.581082 -11.351033 -143.944210
0.670898 -11.472900 -143.943153
0.774558 -11.493816 -143.944519
0.878218 -11.514731 -143.945885
0.981878 -11.535646 -143.947251
1.085538 -11.556561 -143.948617
1.189199 -11.577476 -143.949983
1.292859 -11.598391 -143.951349
1.396519 -11.619306 -143.952715
1.500179 -11.640221 -143.954081
1.603839 -11.661137 -143.955447
1.707499 -11.682052 -143.956813
1.811160 -11.702967 -143.958179
1.914820 -11.723882 -143.959545
2.032324 -11.643845 -143.963334
2.135984 -11.664760 -143.964700
2.239644 -11.685675 -143.966066
2.343305 -11.706591 -143.967432
2.446965 -11.727506 -143.968798
2.550625 -11.748421 -143.970164
2.654285 -11.769336 -143.971530
2.757945 -11.790251 -143.972897
2.861605 -11.811166 -143.974263
2.965266 -11.832081 -143.975629
3.068926 -11.852997 -143.976995
3.172586 -11.873912 -143.978361
3.276246 -11.894827 -143.979727
3.379906 -11.915742 -143.981093
3.483566 -11.936657 -143.982459
3.587227 -11.957572 -143.983825
3.704731 -11.877535 -143.987614
3.808391 -11.898451 -143.988980
3.912051 -11.919366 -143.990346
4.015712 -11.940281 -143.991712
4.133216 -11.860244 -143.995501
4.236876 -11.881159 -143.996867
4.340536 -11.902074 -143.998233
4.444196 -11.922989 -143.999599
4.603234 -11.540097 -144.010658
4.720738 -11.460060 -144.014447
4.852087 -11.279071 -144.020659
4.983436 -11.098083 -144.026871
5.100941 -11.018046 -144.030660
5.204601 -11.038961 -144.032026
5.322105 -10.958924 -144.035815
5.439610 -10.878887 -144.039605
5.543270 -10.899803 -144.040971
5.646930 -10.920718 -144.042337
5.764434 -10.840681 -144.046126
5.881939 -10.760644 -144.049915
6.027132 -10.478704 -144.058550
6.144637 -10.398667 -144.062339
6.262141 -10.318630 -144.066129
6.365801 -10.339545 -144.067495
6.483306 -10.259508 -144.071284
6.586966 -10.280424 -144.072650
-0.582348 -10.848492 -143.878593
-0.443632 -10.909124 -143.877536
-0.343402 -10.875407 -143.878902
-0.204686 -10.936039 -143.877845
-0.065969 -10.996671 -143.876788
0.111233 -11.151653 -143.873308
0.288436 -11.306634 -143.869827
0.427152 -11.367266 -143.868770
0.527382 -11.333549 -143.870136
0.666099 -11.394181 -143.869079
0.766329 -11.360464 -143.870445
0.866558 -11.326747 -143.871811
1.005275 -11.387379 -143.870754
1.105505 -11.353662 -143.872120
1.282707 -11.508644 -143.868640
1.421424 -11.569276 -143.867583
1.560140 -11.629908 -143.866526
1.698856 -11.690540 -143.865469
1.799086 -11.656823 -143.866835
2.014775 -11.906153 -143.860931
2.191978 -12.061134 -143.857451
2.330694 -12.121767 -143.856394
2.430924 -12.088050 -143.857760
2.569640 -12.148682 -143.856703
2.669870 -12.114965 -143.858069
2.770100 -12.081248 -143.859435
2.870330 -12.047531 -143.860801
2.970560 -12.013814 -143.862167
3.070790 -11.980097 -143.863533
3.171020 -11.946380 -143.864899
3.309736 -12.007012 -143.863842
3.409966 -11.973295 -143.865208
3.510196 -11.939578 -143.866574
3.610426 -11.905861 -143.867940
3.710656 -11.872144 -143.869306
3.810886 -11.838427 -143.870672
3.949602 -11.899059 -143.869615
4.049832 -11.865342 -143.870981
4.150062 -11.831625 -143.872347
4.250292 -11.797908 -143.873713
4.350522 -11.764191 -143.875079
4.450752 -11.730474 -143.876445
4.550982 -11.696757 -143.877811
4.651212 -11.663040 -143.879177
4.751442 -11.629323 -143.880543
4.851671 -11.595606 -143.881909
4.951901 -11.561889 -143.883275
5.052131 -11.528172 -143.884641
5.190848 -11.588804 -143.883584
5.291078 -11.555087 -143.884950
5.391307 -11.521370 -143.886316
5.491537 -11.487653 -143.887682
5.591767 -11.453936 -143.889048
5.691997 -11.420219 -143.890414
5.792227 -11.386502 -143.891780
5.853971 -11.258436 -143.895569
5.954201 -11.224719 -143.896935
6.054431 -11.191002 -143.898301
6.154660 -11.157285 -143.899667
6.254890 -11.123568 -143.901033
6.355120 -11.089851 -143.902399
6.455350 -11.056134 -143.903765
6.555580 -11.022417 -143.905131
6.655810 -10.988700 -143.906497
6.756040 -10.954983 -143.907863
6.856270 -10.921266 -143.909229
6.956500 -10.887549 -143.910595
7.056730 -10.853832 -143.911961
7.118473 -10.725766 -143.915751
7.218703 -10.692049 -143.917117
7.318933 -10.658332 -143.918483
7.419163 -10.624615 -143.919849
7.480907 -10.496549 -143.923638
7.581137 -10.462832 -143.925004
7.642880 -10.334766 -143.928793
7.743110 -10.301049 -143.930159
7.843340 -10.267332 -143.931525
7.905084 -10.139265 -143.935314
8.005313 -10.105548 -143.936680
8.067057 -9.977482 -143.940469
8.167287 -9.943765 -143.941835
8.229030 -9.815699 -143.945624
8.290774 -9.687633 -143.949413
8.352518 -9.559567 -143.953203
8.452747 -9.525850 -143.954569
8.552977 -9.492133 -143.955935
8.614721 -9.364067 -143.959724
8.714951 -9.330350 -143.961090
8.776694 -9.202284 -143.964879
8.838438 -9.074218 -143.968668
8.900182 -8.946152 -143.972457
8.923439 -8.723736 -143.978669
8.985182 -8.595670 -143.982459
9.046926 -8.467604 -143.986248
9.147156 -8.433887 -143.987614
9.208899 -8.305821 -143.991403
9.270643 -8.177755 -143.995192
9.370873 -8.144038 -143.996558
9.432616 -8.015972 -144.000347
9.494360 -7.887906 -144.004136
9.517617 -7.665490 -144.010349
9.579361 -7.537424 -144.014138
9.679590 -7.503707 -144.015504
9.702848 -7.281292 -144.021716
9.687618 -6.964528 -144.030351
9.749362 -6.836462 -144.034141
9.849592 -6.802745 -144.035507
