ply
format ascii 1.0
element vertex 1097
property float x
property float y
property float z
element face 0
property list uchar uint vertex_indices
end_header
2.279208 -11.911984 -142.846996
2.510161 -11.957600 -142.843516
2.580104 -11.878286 -142.844882
2.730552 -11.861436 -142.843825
2.881000 -11.844587 -142.842768
3.272962 -12.015135 -142.834441
3.664924 -12.185682 -142.826115
3.815371 -12.168833 -142.825058
3.965819 -12.151984 -142.824001
4.035762 -12.072669 -142.825367
4.186210 -12.055820 -142.824310
4.336658 -12.038971 -142.823253
4.406601 -11.959656 -142.824619
4.557049 -11.942807 -142.823561
4.707497 -11.925958 -142.822504
4.777440 -11.846643 -142.823870
4.927888 -11.829794 -142.822813
5.078336 -11.812945 -142.821756
5.228784 -11.796096 -142.820699
5.298727 -11.716781 -142.822065
5.449175 -11.699932 -142.821008
5.519118 -11.620617 -142.822374
5.589061 -11.541303 -142.823740
5.739509 -11.524453 -142.822683
5.889957 -11.507604 -142.821626
6.201414 -11.615686 -142.815722
6.271357 -11.536372 -142.817088
6.421805 -11.519522 -142.816031
6.491748 -11.440208 -142.817397
6.642196 -11.423359 -142.816340
6.712139 -11.344044 -142.817706
6.862587 -11.327195 -142.816649
6.932530 -11.247880 -142.818015
7.082978 -11.231031 -142.816958
7.233426 -11.214182 -142.815901
7.303369 -11.134867 -142.817267
7.373312 -11.055552 -142.818633
7.443255 -10.976238 -142.819999
7.593703 -10.959389 -142.818942
7.663646 -10.880074 -142.820308
7.814094 -10.863225 -142.819251
7.884037 -10.783910 -142.820617
7.953980 -10.704595 -142.821983
8.023923 -10.625281 -142.823349
8.174371 -10.608432 -142.822292
8.244314 -10.529117 -142.823658
8.314258 -10.449802 -142.825024
8.384201 -10.370487 -142.826390
8.454144 -10.291173 -142.827756
8.524087 -10.211858 -142.829122
8.594030 -10.132543 -142.830488
8.663973 -10.053229 -142.831854
8.814421 -10.036380 -142.830797
8.884364 -9.957065 -142.832163
8.954307 -9.877750 -142.833529
9.024251 -9.798436 -142.834895
9.094194 -9.719121 -142.836261
9.164137 -9.639806 -142.837627
9.234080 -9.560491 -142.838993
9.304023 -9.481177 -142.840359
9.373966 -9.401862 -142.841725
9.443910 -9.322547 -142.843091
9.513853 -9.243233 -142.844457
9.583796 -9.163918 -142.845823
9.653739 -9.084603 -142.847189
9.723682 -9.005289 -142.848555
9.793625 -8.925974 -142.849921
9.863569 -8.846659 -142.851287
9.933512 -8.767345 -142.852653
10.003455 -8.688030 -142.854019
10.073398 -8.608715 -142.855385
10.143341 -8.529401 -142.856751
10.132780 -8.387620 -142.860540
10.202723 -8.308306 -142.861906
10.272666 -8.228991 -142.863272
10.342609 -8.149676 -142.864638
10.412552 -8.070362 -142.866004
10.482495 -7.991047 -142.867370
10.552439 -7.911732 -142.868736
10.541877 -7.769952 -142.872525
10.611820 -7.690637 -142.873891
10.681763 -7.611323 -142.875257
10.671202 -7.469542 -142.879047
10.660640 -7.327762 -142.882836
10.408565 -6.998585 -142.893894
10.478508 -6.919271 -142.895260
10.548451 -6.839956 -142.896626
10.618394 -6.760641 -142.897992
10.688337 -6.681327 -142.899358
10.677776 -6.539546 -142.903147
10.747719 -6.460232 -142.904513
10.817662 -6.380917 -142.905879
10.887605 -6.301602 -142.907245
10.877044 -6.159822 -142.911035
10.866482 -6.018042 -142.914824
10.855921 -5.876262 -142.918613
10.845359 -5.734481 -142.922402
10.834798 -5.592701 -142.926191
10.904741 -5.513386 -142.927557
10.894179 -5.371606 -142.931346
10.883618 -5.229826 -142.935135
10.873056 -5.088046 -142.938925
10.862495 -4.946266 -142.942714
10.771429 -4.742020 -142.948926
10.680362 -4.537774 -142.955138
10.669801 -4.395994 -142.958927
10.659239 -4.254214 -142.962717
10.648678 -4.112433 -142.966506
10.638116 -3.970653 -142.970295
10.627555 -3.828873 -142.974084
10.536488 -3.624627 -142.980296
10.203908 -3.232985 -142.993778
10.273851 -3.153670 -142.995144
7.574297 -10.938695 -142.823774
7.696164 -10.848880 -142.822717
7.818031 -10.759064 -142.821660
8.242754 -10.710781 -142.813333
8.465573 -10.634809 -142.809853
8.486488 -10.531149 -142.811219
8.608355 -10.441333 -142.810162
8.730222 -10.351518 -142.809105
8.751137 -10.247857 -142.810471
8.873004 -10.158042 -142.809414
8.893919 -10.054381 -142.810780
8.914834 -9.950721 -142.812146
9.036701 -9.860906 -142.811089
9.057616 -9.757245 -142.812455
9.179483 -9.667430 -142.811398
9.200399 -9.563769 -142.812764
9.322266 -9.473954 -142.811707
9.545085 -9.397982 -142.808226
9.666952 -9.308166 -142.807169
9.788819 -9.218350 -142.806112
10.011638 -9.142379 -142.802632
10.032553 -9.038719 -142.803998
10.053468 -8.935059 -142.805364
10.074383 -8.831398 -142.806730
10.196250 -8.741583 -142.805673
10.217165 -8.637922 -142.807039
10.439984 -8.561951 -142.803559
10.460899 -8.458291 -142.804925
10.582766 -8.368475 -142.803868
10.603681 -8.264815 -142.805234
10.725549 -8.174999 -142.804176
10.746464 -8.071339 -142.805542
10.767379 -7.967679 -142.806909
10.788294 -7.864018 -142.808275
10.910161 -7.774203 -142.807217
10.931076 -7.670542 -142.808583
10.951991 -7.566882 -142.809949
10.972906 -7.463222 -142.811315
10.993821 -7.359562 -142.812681
11.014737 -7.255902 -142.814047
11.035652 -7.152242 -142.815414
11.157519 -7.062426 -142.814356
11.178434 -6.958766 -142.815722
11.199349 -6.855105 -142.817088
11.220264 -6.751445 -142.818454
11.241179 -6.647785 -142.819820
11.262094 -6.544125 -142.821186
11.283010 -6.440465 -142.822553
11.303925 -6.336805 -142.823919
11.324840 -6.233145 -142.825285
11.345755 -6.129484 -142.826651
11.265718 -6.011980 -142.830440
11.286633 -5.908320 -142.831806
11.307548 -5.804660 -142.833172
11.328464 -5.700999 -142.834538
11.349379 -5.597339 -142.835904
11.370294 -5.493679 -142.837270
11.391209 -5.390019 -142.838636
11.412124 -5.286359 -142.840002
11.332087 -5.168854 -142.843791
11.353002 -5.065194 -142.845157
11.373918 -4.961534 -142.846523
11.394833 -4.857874 -142.847889
11.314796 -4.740369 -142.851678
11.335711 -4.636709 -142.853044
11.356626 -4.533049 -142.854410
11.377541 -4.429389 -142.855776
11.297505 -4.311884 -142.859565
11.318420 -4.208224 -142.860931
11.238383 -4.090720 -142.864720
11.259298 -3.987060 -142.866086
11.179261 -3.869555 -142.869876
11.200176 -3.765895 -142.871242
11.120140 -3.648390 -142.875031
11.040103 -3.530886 -142.878820
11.061018 -3.427226 -142.880186
10.980981 -3.309721 -142.883975
10.900944 -3.192217 -142.887764
10.820908 -3.074712 -142.891553
10.639919 -2.943363 -142.897766
11.206945 -7.389128 -142.838883
11.267577 -7.250412 -142.837825
11.233860 -7.150182 -142.839191
11.294492 -7.011466 -142.838134
11.355124 -6.872749 -142.837077
11.415757 -6.734033 -142.836020
11.476389 -6.595317 -142.834963
11.537021 -6.456600 -142.833906
11.597653 -6.317884 -142.832849
11.563936 -6.217654 -142.834215
11.624568 -6.078938 -142.833158
11.590851 -5.978708 -142.834524
11.651483 -5.839992 -142.833467
11.617766 -5.739762 -142.834833
11.584049 -5.639532 -142.836199
11.644681 -5.500815 -142.835142
11.705313 -5.362099 -142.834084
11.765945 -5.223383 -142.833027
11.826578 -5.084667 -142.831970
11.792861 -4.984437 -142.833336
11.759144 -4.884207 -142.834702
11.819776 -4.745490 -142.833645
11.786059 -4.645261 -142.835011
11.752342 -4.545031 -142.836377
11.812974 -4.406314 -142.835320
11.779257 -4.306084 -142.836686
11.745540 -4.205854 -142.838052
11.711823 -4.105625 -142.839418
11.772455 -3.966908 -142.838361
11.738738 -3.866678 -142.839727
11.705021 -3.766448 -142.841093
11.671304 -3.666218 -142.842459
11.637587 -3.565989 -142.843825
11.603870 -3.465759 -142.845191
11.664502 -3.327042 -142.844134
11.630785 -3.226812 -142.845500
11.597068 -3.126582 -142.846866
11.563351 -3.026353 -142.848232
11.529634 -2.926123 -142.849598
11.495917 -2.825893 -142.850964
11.462200 -2.725663 -142.852330
11.428483 -2.625433 -142.853696
11.394766 -2.525203 -142.855062
11.361049 -2.424973 -142.856428
11.327332 -2.324743 -142.857794
11.293615 -2.224513 -142.859160
11.354247 -2.085797 -142.858103
11.320530 -1.985567 -142.859469
11.286813 -1.885337 -142.860835
11.253096 -1.785107 -142.862201
11.313728 -1.646391 -142.861144
11.280011 -1.546161 -142.862510
11.246294 -1.445931 -142.863876
11.212577 -1.345701 -142.865242
11.178860 -1.245471 -142.866608
11.145143 -1.145241 -142.867974
11.205775 -1.006525 -142.866917
11.172058 -0.906295 -142.868283
11.138341 -0.806065 -142.869649
11.104624 -0.705835 -142.871015
11.070907 -0.605605 -142.872381
11.037190 -0.505375 -142.873747
11.003473 -0.405145 -142.875113
11.064105 -0.266429 -142.874056
11.030388 -0.166199 -142.875422
10.996671 -0.065969 -142.876788
10.962954 0.034261 -142.878154
10.929237 0.134491 -142.879520
10.895520 0.234721 -142.880886
10.956153 0.373437 -142.879829
10.922436 0.473667 -142.881195
10.888719 0.573897 -142.882561
10.855002 0.674127 -142.883927
10.821285 0.774357 -142.885293
10.787568 0.874586 -142.886659
10.848200 1.013303 -142.885602
10.814483 1.113533 -142.886968
10.780766 1.213763 -142.888334
10.747049 1.313993 -142.889700
10.713332 1.414222 -142.891066
10.679615 1.514452 -142.892432
10.645898 1.614682 -142.893798
10.612181 1.714912 -142.895164
10.578464 1.815142 -142.896530
10.544747 1.915372 -142.897896
10.511030 2.015602 -142.899262
10.477313 2.115832 -142.900628
10.443596 2.216062 -142.901994
10.409879 2.316292 -142.903360
10.376162 2.416522 -142.904726
10.248096 2.478265 -142.908515
10.214379 2.578495 -142.909881
10.180662 2.678725 -142.911247
10.146945 2.778955 -142.912613
10.113228 2.879185 -142.913979
10.079511 2.979415 -142.915345
10.045794 3.079645 -142.916711
10.012077 3.179875 -142.918077
9.884010 3.241618 -142.921866
9.850293 3.341848 -142.923232
9.816576 3.442078 -142.924599
9.782859 3.542308 -142.925965
9.749142 3.642538 -142.927331
9.621076 3.704281 -142.931120
9.587359 3.804511 -142.932486
9.553642 3.904741 -142.933852
9.519925 4.004971 -142.935218
9.486208 4.105201 -142.936584
9.452491 4.205431 -142.937950
9.418774 4.305661 -142.939316
9.385057 4.405891 -142.940682
9.256991 4.467634 -142.944471
9.223274 4.567864 -142.945837
9.189557 4.668094 -142.947203
9.061491 4.729838 -142.950992
9.027774 4.830068 -142.952358
8.994057 4.930298 -142.953724
8.960340 5.030528 -142.955090
8.926623 5.130758 -142.956456
8.892906 5.230987 -142.957822
8.764840 5.292731 -142.961611
8.731123 5.392961 -142.962977
8.603057 5.454704 -142.966766
8.474991 5.516448 -142.970556
8.252576 5.539705 -142.976768
8.218859 5.639935 -142.978134
8.090792 5.701679 -142.981923
8.057075 5.801909 -142.983289
8.023358 5.902139 -142.984655
7.895292 5.963882 -142.988444
7.861575 6.064112 -142.989810
7.827858 6.164342 -142.991176
7.699792 6.226085 -142.994965
7.571726 6.287829 -142.998755
7.443660 6.349573 -143.002544
7.409943 6.449802 -143.003910
7.281877 6.511546 -143.007699
7.248160 6.611776 -143.009065
7.120094 6.673520 -143.012854
6.992028 6.735263 -143.016643
6.863962 6.797007 -143.020432
6.735895 6.858750 -143.024221
6.607829 6.920494 -143.028011
6.479763 6.982237 -143.031800
10.042135 3.656958 -142.881895
10.025286 3.807406 -142.880838
10.008436 3.957854 -142.879781
9.991587 4.108302 -142.878724
9.912272 4.178245 -142.880090
9.832958 4.248188 -142.881456
9.816108 4.398636 -142.880399
9.736794 4.468579 -142.881765
9.719944 4.619027 -142.880707
9.640630 4.688970 -142.882073
9.623780 4.839418 -142.881016
9.544465 4.909361 -142.882382
9.465151 4.979304 -142.883748
9.448301 5.129752 -142.882691
9.368987 5.199695 -142.884057
9.289672 5.269639 -142.885423
9.272823 5.420087 -142.884366
9.193508 5.490030 -142.885732
9.114193 5.559973 -142.887098
9.034878 5.629916 -142.888464
9.018029 5.780364 -142.887407
8.938714 5.850307 -142.888773
8.859399 5.920250 -142.890139
8.780085 5.990193 -142.891505
8.700770 6.060137 -142.892871
8.621455 6.130080 -142.894237
8.542140 6.200023 -142.895603
8.462825 6.269966 -142.896969
8.445976 6.420414 -142.895912
8.366661 6.490357 -142.897278
8.287347 6.560300 -142.898644
8.208032 6.630244 -142.900010
8.128717 6.700187 -142.901376
8.049402 6.770130 -142.902742
7.970087 6.840073 -142.904108
7.890773 6.910016 -142.905474
7.811458 6.979959 -142.906840
7.732143 7.049902 -142.908206
7.652828 7.119846 -142.909572
7.573513 7.189789 -142.910938
7.494199 7.259732 -142.912304
7.414884 7.329675 -142.913670
7.335569 7.399618 -142.915036
7.256254 7.469561 -142.916402
7.176940 7.539505 -142.917768
7.097625 7.609448 -142.919134
7.018310 7.679391 -142.920500
6.876530 7.668829 -142.924290
6.797215 7.738772 -142.925656
6.717900 7.808716 -142.927022
6.638585 7.878659 -142.928388
6.559270 7.948602 -142.929754
6.479956 8.018545 -142.931120
6.400641 8.088488 -142.932486
6.258861 8.077927 -142.936275
6.179546 8.147870 -142.937641
6.100231 8.217813 -142.939007
6.020916 8.287756 -142.940373
5.941601 8.357699 -142.941739
5.862287 8.427642 -142.943105
5.720506 8.417081 -142.946894
5.578726 8.406519 -142.950683
5.062152 7.912929 -142.969011
4.982838 7.982872 -142.970377
4.903523 8.052815 -142.971743
4.824208 8.122758 -142.973109
4.682428 8.112197 -142.976898
4.540647 8.101635 -142.980687
4.336401 8.010569 -142.986900
4.194621 8.000007 -142.990689
3.990375 7.908941 -142.996901
3.848595 7.898379 -143.000690
3.706815 7.887817 -143.004479
3.565034 7.877256 -143.008269
8.706110 6.053598 -142.895768
8.616294 6.175465 -142.894711
8.512634 6.196380 -142.896077
8.422818 6.318247 -142.895020
8.319158 6.339162 -142.896386
8.229342 6.461029 -142.895328
8.125682 6.481944 -142.896694
8.035866 6.603811 -142.895637
7.932206 6.624727 -142.897003
7.842390 6.746594 -142.895946
7.752575 6.868461 -142.894889
7.662759 6.990328 -142.893832
7.572943 7.112195 -142.892775
7.483127 7.234062 -142.891718
7.462533 7.860688 -142.878545
7.372717 7.982555 -142.877488
7.269057 8.003471 -142.878854
7.165397 8.024386 -142.880220
7.061737 8.045301 -142.881586
6.971921 8.167168 -142.880529
6.868261 8.188083 -142.881895
6.764600 8.208998 -142.883261
6.660940 8.229913 -142.884627
6.557280 8.250828 -142.885993
6.453620 8.271744 -142.887359
6.349960 8.292659 -142.888725
6.246300 8.313574 -142.890091
6.142640 8.334489 -142.891457
6.038979 8.355404 -142.892823
5.935319 8.376319 -142.894189
5.845503 8.498186 -142.893132
5.741843 8.519101 -142.894498
5.638183 8.540017 -142.895864
5.534523 8.560932 -142.897230
5.430863 8.581847 -142.898596
5.327203 8.602762 -142.899962
5.209698 8.522725 -142.903751
5.106038 8.543640 -142.905117
5.002378 8.564555 -142.906483
4.898718 8.585471 -142.907849
4.795057 8.606386 -142.909215
4.691397 8.627301 -142.910581
4.587737 8.648216 -142.911947
4.484077 8.669131 -142.913313
4.380417 8.690046 -142.914679
4.276757 8.710961 -142.916045
4.173096 8.731876 -142.917411
4.069436 8.752792 -142.918777
3.965776 8.773707 -142.920143
3.848272 8.693670 -142.923933
3.744612 8.714585 -142.925299
3.640951 8.735500 -142.926665
3.523447 8.655463 -142.930454
3.419787 8.676379 -142.931820
3.316127 8.697294 -142.933186
3.198622 8.617257 -142.936975
3.094962 8.638172 -142.938341
2.977457 8.558135 -142.942130
2.873797 8.579050 -142.943496
2.770137 8.599966 -142.944862
2.666477 8.620881 -142.946228
2.548972 8.540844 -142.950017
2.417624 8.359855 -142.956230
2.300119 8.279818 -142.960019
2.182615 8.199782 -142.963808
2.078955 8.220697 -142.965174
1.961450 8.140660 -142.968963
1.857790 8.161575 -142.970329
1.754130 8.182490 -142.971695
1.650470 8.203405 -142.973061
1.546809 8.224320 -142.974427
1.429305 8.144284 -142.978216
1.325645 8.165199 -142.979582
1.208140 8.085162 -142.983371
1.104480 8.106077 -142.984737
1.000820 8.126992 -142.986103
0.883315 8.046956 -142.989892
0.779655 8.067871 -142.991258
0.675995 8.088786 -142.992625
0.572335 8.109701 -142.993991
0.468675 8.130616 -142.995357
0.351170 8.050579 -142.999146
0.233666 7.970543 -143.002935
0.060784 7.486698 -143.016416
-0.056720 7.406661 -143.020206
-0.160381 7.427576 -143.021572
-0.264041 7.448492 -143.022938
-0.381545 7.368455 -143.026727
5.198472 8.753283 -142.915901
5.059756 8.813915 -142.914844
4.921040 8.874548 -142.913787
4.782323 8.935180 -142.912730
4.643607 8.995812 -142.911673
4.504891 9.056444 -142.910615
4.366174 9.117076 -142.909558
4.227458 9.177708 -142.908501
4.127228 9.143991 -142.909867
4.026998 9.110274 -142.911233
3.926768 9.076557 -142.912599
3.788052 9.137189 -142.911542
3.687822 9.103472 -142.912908
3.587592 9.069755 -142.914274
3.487362 9.036038 -142.915640
3.387132 9.002321 -142.917006
3.286902 8.968604 -142.918372
3.186673 8.934887 -142.919738
3.047956 8.995519 -142.918681
2.947726 8.961802 -142.920047
2.847496 8.928085 -142.921413
2.747267 8.894368 -142.922779
2.647037 8.860651 -142.924145
2.508320 8.921283 -142.923088
2.408090 8.887566 -142.924454
2.307860 8.853849 -142.925820
2.207631 8.820132 -142.927186
2.107401 8.786415 -142.928552
2.007171 8.752698 -142.929918
1.906941 8.718981 -142.931284
1.806711 8.685264 -142.932650
1.706481 8.651547 -142.934016
1.606251 8.617830 -142.935382
1.467535 8.678463 -142.934325
1.367305 8.644746 -142.935691
1.267075 8.611029 -142.937057
1.166845 8.577312 -142.938423
1.028129 8.637944 -142.937366
0.927899 8.604227 -142.938732
0.866155 8.476161 -142.942521
0.765925 8.442444 -142.943887
0.665695 8.408727 -142.945253
0.565465 8.375010 -142.946619
0.426749 8.435642 -142.945562
0.326519 8.401925 -142.946928
0.226289 8.368208 -142.948294
0.126059 8.334491 -142.949660
-0.012657 8.395123 -142.948603
-0.112887 8.361406 -142.949969
-0.213117 8.327689 -142.951335
-0.313347 8.293972 -142.952701
-0.413577 8.260255 -142.954067
-0.513807 8.226538 -142.955433
-0.614037 8.192821 -142.956799
-0.675780 8.064755 -142.960588
-0.776010 8.031038 -142.961954
-0.876240 7.997321 -142.963320
-0.976470 7.963604 -142.964686
-1.076700 7.929887 -142.966052
-1.176930 7.896170 -142.967418
-1.238673 7.768104 -142.971208
-1.338903 7.734387 -142.972574
-1.439133 7.700670 -142.973940
-1.539363 7.666953 -142.975306
-1.639593 7.633236 -142.976672
-1.739823 7.599519 -142.978038
-1.840053 7.565802 -142.979404
-1.940283 7.532085 -142.980770
-2.040513 7.498368 -142.982136
-2.140743 7.464651 -142.983502
-2.202486 7.336584 -142.987291
-2.302716 7.302867 -142.988657
-2.364460 7.174801 -142.992446
-2.464689 7.141084 -142.993812
-2.526433 7.013018 -142.997601
-2.588177 6.884952 -143.001390
-2.649920 6.756886 -143.005179
-2.711664 6.628820 -143.008969
-2.811894 6.595103 -143.010335
-2.873637 6.467037 -143.014124
-2.935381 6.338971 -143.017913
-2.997124 6.210905 -143.021702
-3.097354 6.177188 -143.023068
-3.159098 6.049121 -143.026857
-3.259328 6.015404 -143.028223
-3.359558 5.981687 -143.029589
-3.421301 5.853621 -143.033378
-3.521531 5.819904 -143.034744
-3.506302 5.503140 -143.043380
-3.568045 5.375074 -143.047169
-3.668275 5.341357 -143.048535
-3.730019 5.213291 -143.052324
-3.830249 5.179574 -143.053690
-3.930479 5.145857 -143.055056
-3.992222 5.017791 -143.058845
-4.092452 4.984074 -143.060211
-4.154196 4.856008 -143.064000
-4.254426 4.822291 -143.065366
-4.277683 4.599875 -143.071579
-4.339426 4.471809 -143.075368
-4.401170 4.343743 -143.079157
-4.501400 4.310026 -143.080523
-4.563143 4.181960 -143.084312
-4.663373 4.148243 -143.085678
-1.381694 8.009534 -142.957321
-1.532142 7.992685 -142.956264
-1.682590 7.975836 -142.955207
-1.752533 7.896521 -142.956573
-1.902981 7.879672 -142.955515
-1.972924 7.800357 -142.956881
-2.042867 7.721043 -142.958247
-2.112810 7.641728 -142.959613
-2.263258 7.624879 -142.958556
-2.333201 7.545564 -142.959922
-2.403145 7.466249 -142.961288
-2.473088 7.386935 -142.962654
-2.623536 7.370085 -142.961597
-2.693479 7.290771 -142.962963
-2.763422 7.211456 -142.964329
-2.833365 7.132141 -142.965695
-2.983813 7.115292 -142.964638
-3.053756 7.035978 -142.966004
-3.123699 6.956663 -142.967370
-3.193642 6.877348 -142.968736
-3.263586 6.798034 -142.970102
-3.414033 6.781184 -142.969045
-3.483977 6.701870 -142.970411
-3.553920 6.622555 -142.971777
-3.623863 6.543240 -142.973143
-3.693806 6.463926 -142.974509
-3.763749 6.384611 -142.975875
-3.833692 6.305296 -142.977241
-3.903635 6.225982 -142.978607
-3.973579 6.146667 -142.979973
-4.043522 6.067352 -142.981339
-4.113465 5.988038 -142.982705
-4.183408 5.908723 -142.984071
-4.333856 5.891874 -142.983014
-4.403799 5.812559 -142.984380
-4.473742 5.733244 -142.985746
-4.543685 5.653930 -142.987112
-4.613629 5.574615 -142.988478
-4.603067 5.432835 -142.992267
-4.673010 5.353520 -142.993633
-4.742953 5.274205 -142.994999
-4.812897 5.194891 -142.996366
-4.882840 5.115576 -142.997732
-4.872278 4.973796 -143.001521
-4.942221 4.894481 -143.002887
-5.012164 4.815166 -143.004253
-5.082108 4.735852 -143.005619
-5.152051 4.656537 -143.006985
-5.221994 4.577222 -143.008351
-5.291937 4.497908 -143.009717
-5.361880 4.418593 -143.011083
-5.431823 4.339278 -143.012449
-5.421262 4.197498 -143.016238
-5.410700 4.055718 -143.020027
-4.759342 5.865408 -142.973534
-4.780257 5.761748 -142.974900
-4.902124 5.671932 -142.973843
-4.923039 5.568272 -142.975209
-4.943954 5.464612 -142.976575
-5.065821 5.374796 -142.975518
-5.086736 5.271136 -142.976884
-5.208603 5.181320 -142.975827
-5.330470 5.091504 -142.974770
-5.452338 5.001689 -142.973713
-5.473253 4.898028 -142.975079
-5.595120 4.808213 -142.974022
-5.616035 4.704552 -142.975388
-5.636950 4.600892 -142.976754
-5.657865 4.497232 -142.978120
-5.678780 4.393572 -142.979486
-5.800647 4.303756 -142.978429
-5.821562 4.200096 -142.979795
-5.842478 4.096436 -142.981161
-5.863393 3.992776 -142.982527
-5.884308 3.889115 -142.983893
-5.905223 3.785455 -142.985259
-6.027090 3.695639 -142.984202
-6.048005 3.591979 -142.985568
-6.068920 3.488319 -142.986934
-6.089835 3.384659 -142.988300
-6.110750 3.280999 -142.989666
-6.131666 3.177339 -142.991032
-6.152581 3.073679 -142.992398
-6.173496 2.970018 -142.993764
-6.194411 2.866358 -142.995130
-6.215326 2.762698 -142.996496
-6.236241 2.659038 -142.997862
-6.156204 2.541533 -143.001651
-6.076168 2.424029 -143.005440
-5.996131 2.306524 -143.009229
-6.017046 2.202864 -143.010595
-6.037961 2.099204 -143.011961
-6.159828 2.009388 -143.010904
-6.180743 1.905728 -143.012270
-6.201658 1.802068 -143.013636
-6.222574 1.698408 -143.015002
-6.243489 1.594748 -143.016368
-6.264404 1.491087 -143.017734
-6.285319 1.387427 -143.019100
-6.306234 1.283767 -143.020466
-6.226197 1.166263 -143.024256
-6.247112 1.062603 -143.025622
-6.268028 0.958942 -143.026988
-6.187991 0.841438 -143.030777
-6.208906 0.737778 -143.032143
-6.229821 0.634118 -143.033509
-6.250736 0.530457 -143.034875
-6.271651 0.426797 -143.036241
-6.292566 0.323137 -143.037607
-6.313482 0.219477 -143.038973
-6.233445 0.101972 -143.042762
-6.254360 -0.001688 -143.044128
-6.275275 -0.105348 -143.045494
-6.195238 -0.222852 -143.049283
-6.216153 -0.326513 -143.050649
-6.237069 -0.430173 -143.052015
-6.257984 -0.533833 -143.053381
-6.177947 -0.651337 -143.057170
-6.198862 -0.754997 -143.058536
-6.118825 -0.872502 -143.062325
-6.811594 1.659140 -142.984771
-6.777877 1.558910 -142.986137
-6.838509 1.420194 -142.985080
-6.804792 1.319964 -142.986446
-6.865424 1.181247 -142.985389
-6.926056 1.042531 -142.984332
-6.892339 0.942301 -142.985698
-6.952971 0.803585 -142.984641
-6.919254 0.703355 -142.986007
-6.979886 0.564639 -142.984950
-7.040518 0.425922 -142.983893
-7.006801 0.325692 -142.985259
-7.067433 0.186976 -142.984202
-7.033716 0.086746 -142.985568
-6.999999 -0.013484 -142.986934
-7.060631 -0.152200 -142.985877
-7.026914 -0.252430 -142.987243
-6.993197 -0.352660 -142.988609
-6.959480 -0.452890 -142.989975
-6.925763 -0.553120 -142.991341
-6.892046 -0.653350 -142.992707
-6.858329 -0.753580 -142.994073
-6.824612 -0.853809 -142.995439
-6.790895 -0.954039 -142.996805
-6.851528 -1.092756 -142.995748
-6.817811 -1.192986 -142.997114
-6.784094 -1.293216 -142.998480
-6.750377 -1.393445 -142.999846
-6.716660 -1.493675 -143.001212
-6.682943 -1.593905 -143.002578
-6.649226 -1.694135 -143.003944
-6.615509 -1.794365 -143.005310
-6.581792 -1.894595 -143.006676
-6.548075 -1.994825 -143.008042
-6.514358 -2.095055 -143.009408
-6.480641 -2.195285 -143.010774
-6.446924 -2.295515 -143.012140
-6.413207 -2.395745 -143.013506
-6.379490 -2.495975 -143.014872
-6.251423 -2.557718 -143.018661
-6.217706 -2.657948 -143.020027
-6.183989 -2.758178 -143.021393
-6.150272 -2.858408 -143.022759
-6.022206 -2.920151 -143.026548
-5.988489 -3.020381 -143.027914
-6.049121 -3.159098 -143.026857
-6.015404 -3.259328 -143.028223
-5.981687 -3.359558 -143.029589
-5.947970 -3.459787 -143.030955
-5.914253 -3.560017 -143.032321
-5.880536 -3.660247 -143.033687
-5.846819 -3.760477 -143.035053
-5.718753 -3.822221 -143.038842
-5.685036 -3.922451 -143.040208
-5.651319 -4.022681 -143.041574
-5.617602 -4.122911 -143.042940
-5.583885 -4.223140 -143.044306
-5.550168 -4.323370 -143.045672
-5.516451 -4.423600 -143.047038
-5.388385 -4.485344 -143.050828
-5.354668 -4.585574 -143.052194
-5.320951 -4.685804 -143.053560
-5.192885 -4.747547 -143.057349
-5.159168 -4.847777 -143.058715
-5.125451 -4.948007 -143.060081
-5.091734 -5.048237 -143.061447
-5.058017 -5.148467 -143.062813
-5.024300 -5.248697 -143.064179
-4.990583 -5.348927 -143.065545
-4.956866 -5.449157 -143.066911
-4.923149 -5.549387 -143.068277
-4.795083 -5.611130 -143.072066
-4.761366 -5.711360 -143.073432
-4.727649 -5.811590 -143.074798
-4.693932 -5.911820 -143.076164
-4.660215 -6.012050 -143.077530
-4.626498 -6.112280 -143.078896
-4.592781 -6.212510 -143.080262
-4.464715 -6.274253 -143.084051
-4.430998 -6.374483 -143.085417
-4.397281 -6.474713 -143.086783
-4.363564 -6.574943 -143.088149
-4.329847 -6.675173 -143.089515
-4.296130 -6.775403 -143.090881
-4.168064 -6.837146 -143.094671
-4.134347 -6.937376 -143.096037
-4.006281 -6.999120 -143.099826
-3.878215 -7.060863 -143.103615
-3.844498 -7.161093 -143.104981
-3.810781 -7.261323 -143.106347
-3.777064 -7.361553 -143.107713
-3.648997 -7.423297 -143.111502
-3.615280 -7.523527 -143.112868
-3.581563 -7.623757 -143.114234
-3.453497 -7.685500 -143.118023
-3.419780 -7.785730 -143.119389
-3.291714 -7.847474 -143.123178
-3.257997 -7.947704 -143.124544
-3.129931 -8.009447 -143.128333
-3.096214 -8.109677 -143.129700
-5.829408 -4.253351 -142.985437
-5.812559 -4.403799 -142.984380
-5.795710 -4.554247 -142.983323
-5.716395 -4.624190 -142.984689
-5.637081 -4.694133 -142.986055
-5.620231 -4.844581 -142.984998
-5.540917 -4.914524 -142.986364
-5.461602 -4.984467 -142.987730
-5.382287 -5.054411 -142.989096
-5.365438 -5.204858 -142.988039
-5.286123 -5.274802 -142.989405
-5.206809 -5.344745 -142.990771
-5.127494 -5.414688 -142.992137
-5.110645 -5.565136 -142.991080
-5.093796 -5.715584 -142.990023
-5.076947 -5.866031 -142.988966
-4.997632 -5.935975 -142.990332
-4.980783 -6.086422 -142.989275
-4.963934 -6.236870 -142.988218
-4.884619 -6.306813 -142.989584
-4.867770 -6.457261 -142.988526
-4.850921 -6.607709 -142.987469
-4.771606 -6.677652 -142.988835
-4.692291 -6.747595 -142.990201
-4.675442 -6.898043 -142.989144
-4.596128 -6.967986 -142.990510
-4.516813 -7.037930 -142.991876
-4.499964 -7.188377 -142.990819
-4.420649 -7.258321 -142.992185
-4.341334 -7.328264 -142.993551
-4.324485 -7.478712 -142.992494
-4.245170 -7.548655 -142.993860
-4.228321 -7.699103 -142.992803
-4.149007 -7.769046 -142.994169
-4.069692 -7.838989 -142.995535
-4.052843 -7.989437 -142.994478
-3.973528 -8.059380 -142.995844
-3.894213 -8.129323 -142.997210
-3.814899 -8.199266 -142.998576
-3.735584 -8.269209 -142.999942
-3.656269 -8.339152 -143.001308
-3.576955 -8.409096 -143.002674
-3.497640 -8.479039 -143.004040
-3.418325 -8.548982 -143.005406
-3.339011 -8.618925 -143.006772
-3.259696 -8.688868 -143.008138
-3.180381 -8.758811 -143.009504
-3.101067 -8.828755 -143.010870
-3.021752 -8.898698 -143.012236
-3.004903 -9.049146 -143.011179
-2.925588 -9.119089 -143.012545
-2.846273 -9.189032 -143.013911
-2.766959 -9.258975 -143.015277
-2.687644 -9.328918 -143.016643
-2.608329 -9.398861 -143.018009
-2.529015 -9.468805 -143.019375
-2.449700 -9.538748 -143.020741
-2.370385 -9.608691 -143.022107
-2.291071 -9.678634 -143.023473
-2.211756 -9.748577 -143.024839
-2.132441 -9.818520 -143.026205
-1.990661 -9.807959 -143.029994
-1.911346 -9.877902 -143.031360
-1.832032 -9.947845 -143.032726
-1.752717 -10.017788 -143.034092
-1.673402 -10.087731 -143.035458
-1.594088 -10.157675 -143.036824
-1.514773 -10.227618 -143.038190
-1.435458 -10.297561 -143.039556
-1.356144 -10.367504 -143.040923
-1.276829 -10.437447 -143.042289
-1.197514 -10.507390 -143.043655
-1.118199 -10.577334 -143.045021
-1.038885 -10.647277 -143.046387
-0.959570 -10.717220 -143.047753
-0.880255 -10.787163 -143.049119
-0.738475 -10.776601 -143.052908
-0.659160 -10.846545 -143.054274
-0.579846 -10.916488 -143.055640
-0.500531 -10.986431 -143.057006
-0.358751 -10.975869 -143.060795
-0.279436 -11.045813 -143.062161
-0.200122 -11.115756 -143.063527
-0.058341 -11.105194 -143.067316
0.020973 -11.175137 -143.068682
0.162754 -11.164576 -143.072471
0.242068 -11.234519 -143.073837
0.383849 -11.223957 -143.077626
-3.585574 -8.331693 -142.936357
-3.495758 -8.453560 -142.935300
-3.405942 -8.575427 -142.934243
-3.316127 -8.697294 -142.933186
-3.226311 -8.819161 -142.932129
-3.122651 -8.840076 -142.933495
-3.018990 -8.860991 -142.934861
-2.929175 -8.982858 -142.933804
-2.825514 -9.003773 -142.935170
-2.721854 -9.024688 -142.936536
-2.632038 -9.146555 -142.935479
-2.542223 -9.268422 -142.934421
-2.452407 -9.390289 -142.933364
-2.362591 -9.512156 -142.932307
-2.272775 -9.634024 -142.931250
-2.182959 -9.755891 -142.930193
-2.093143 -9.877758 -142.929136
-2.003328 -9.999625 -142.928079
-1.913512 -10.121492 -142.927022
-1.809852 -10.142407 -142.928388
-1.720036 -10.264274 -142.927331
-1.630220 -10.386141 -142.926273
-1.540404 -10.508008 -142.925216
-1.450588 -10.629875 -142.924159
-1.346928 -10.650790 -142.925525
-1.257112 -10.772657 -142.924468
-1.153452 -10.793572 -142.925834
-1.063636 -10.915439 -142.924777
-0.959976 -10.936354 -142.926143
-0.856316 -10.957270 -142.927509
-0.766500 -11.079137 -142.926452
-0.662840 -11.100052 -142.927818
-0.559180 -11.120967 -142.929184
-0.455520 -11.141882 -142.930550
-0.351859 -11.162797 -142.931916
-0.248199 -11.183712 -142.933282
-0.144539 -11.204627 -142.934648
-0.040879 -11.225543 -142.936014
0.062781 -11.246458 -142.937380
0.166441 -11.267373 -142.938746
0.256257 -11.389240 -142.937689
0.359917 -11.410155 -142.939055
0.463577 -11.431070 -142.940421
0.567238 -11.451985 -142.941787
0.670898 -11.472900 -142.943153
0.774558 -11.493816 -142.944519
0.878218 -11.514731 -142.945885
0.981878 -11.535646 -142.947251
1.085538 -11.556561 -142.948617
1.189199 -11.577476 -142.949983
1.292859 -11.598391 -142.951349
1.396519 -11.619306 -142.952715
1.500179 -11.640221 -142.954081
1.603839 -11.661137 -142.955447
1.707499 -11.682052 -142.956813
1.811160 -11.702967 -142.958179
1.914820 -11.723882 -142.959545
2.018480 -11.744797 -142.960911
2.135984 -11.664760 -142.964700
2.239644 -11.685675 -142.966066
2.343305 -11.706591 -142.967432
2.446965 -11.727506 -142.968798
2.536781 -11.849373 -142.967741
2.640441 -11.870288 -142.969107
2.744101 -11.891203 -142.970473
2.861605 -11.811166 -142.974263
2.965266 -11.832081 -142.975629
3.068926 -11.852997 -142.976995
3.172586 -11.873912 -142.978361
3.276246 -11.894827 -142.979727
3.379906 -11.915742 -142.981093
3.483566 -11.936657 -142.982459
3.601071 -11.856620 -142.986248
3.704731 -11.877535 -142.987614
3.808391 -11.898451 -142.988980
3.925896 -11.818414 -142.992769
4.029556 -11.839329 -142.994135
4.133216 -11.860244 -142.995501
4.236876 -11.881159 -142.996867
4.340536 -11.902074 -142.998233
0.072747 -11.057304 -142.875731
0.249950 -11.212285 -142.872251
0.388666 -11.272917 -142.871194
0.527382 -11.333549 -142.870136
0.666099 -11.394181 -142.869079
0.804815 -11.454813 -142.868022
0.943531 -11.515445 -142.866965
1.043761 -11.481728 -142.868331
1.182477 -11.542360 -142.867274
1.282707 -11.508644 -142.868640
1.382937 -11.474927 -142.870006
1.521654 -11.535559 -142.868949
1.621884 -11.501842 -142.870315
1.799086 -11.656823 -142.866835
2.091748 -12.094851 -142.856085
2.191978 -12.061134 -142.857451
2.330694 -12.121767 -142.856394
2.430924 -12.088050 -142.857760
2.531154 -12.054333 -142.859126
2.631384 -12.020616 -142.860492
2.731614 -11.986899 -142.861858
2.831844 -11.953182 -142.863224
2.970560 -12.013814 -142.862167
3.070790 -11.980097 -142.863533
3.171020 -11.946380 -142.864899
3.271250 -11.912663 -142.866265
3.371480 -11.878946 -142.867631
3.510196 -11.939578 -142.866574
3.610426 -11.905861 -142.867940
3.710656 -11.872144 -142.869306
3.810886 -11.838427 -142.870672
3.911116 -11.804710 -142.872038
4.011346 -11.770993 -142.873404
4.111576 -11.737276 -142.874770
4.211806 -11.703559 -142.876136
4.312036 -11.669842 -142.877502
4.412265 -11.636125 -142.878868
4.512495 -11.602408 -142.880234
4.651212 -11.663040 -142.879177
4.751442 -11.629323 -142.880543
4.851671 -11.595606 -142.881909
4.951901 -11.561889 -142.883275
5.052131 -11.528172 -142.884641
5.152361 -11.494455 -142.886007
5.252591 -11.460738 -142.887373
5.352821 -11.427021 -142.888739
5.453051 -11.393304 -142.890105
5.553281 -11.359587 -142.891471
5.653511 -11.325870 -142.892837
5.753741 -11.292153 -142.894203
5.853971 -11.258436 -142.895569
5.954201 -11.224719 -142.896935
6.054431 -11.191002 -142.898301
6.154660 -11.157285 -142.899667
6.254890 -11.123568 -142.901033
6.355120 -11.089851 -142.902399
6.416864 -10.961785 -142.906188
6.517094 -10.928068 -142.907554
6.617324 -10.894351 -142.908920
6.717554 -10.860634 -142.910286
6.817784 -10.826917 -142.911652
6.918013 -10.793200 -142.913018
7.018243 -10.759483 -142.914384
7.118473 -10.725766 -142.915751
7.180217 -10.597700 -142.919540
7.280447 -10.563983 -142.920906
7.342190 -10.435917 -142.924695
7.442420 -10.402200 -142.926061
7.504164 -10.274133 -142.929850
7.604394 -10.240416 -142.931216
7.704624 -10.206699 -142.932582
7.766367 -10.078633 -142.936371
7.866597 -10.044916 -142.937737
7.966827 -10.011199 -142.939103
8.028571 -9.883133 -142.942892
8.128801 -9.849416 -142.944258
8.190544 -9.721350 -142.948047
8.252288 -9.593284 -142.951837
8.314031 -9.465218 -142.955626
8.414261 -9.431501 -142.956992
8.476005 -9.303435 -142.960781
8.537748 -9.175369 -142.964570
8.599492 -9.047303 -142.968359
8.661235 -8.919236 -142.972148
8.761465 -8.885519 -142.973514
8.823209 -8.757453 -142.977303
8.923439 -8.723736 -142.978669
8.985182 -8.595670 -142.982459
9.046926 -8.467604 -142.986248
9.108669 -8.339538 -142.990037
9.170413 -8.211472 -142.993826
9.232156 -8.083406 -142.997615
9.293900 -7.955340 -143.001404
9.394130 -7.921623 -143.002770
9.455873 -7.793557 -143.006559
9.517617 -7.665490 -143.010349
9.579361 -7.537424 -143.014138
9.641104 -7.409358 -143.017927
9.702848 -7.281292 -143.021716
9.687618 -6.964528 -143.030351
9.749362 -6.836462 -143.034141
9.657160 -6.330999 -143.047622
9.718904 -6.202933 -143.051411
9.819133 -6.169216 -143.052777
9.880877 -6.041150 -143.056566
9.904134 -5.818735 -143.062779
