ply
format ascii 1.0
element vertex 1158
property float x
property float y
property float z
element face 0
property list uchar uint vertex_indices
end_header
2.902123 -12.128148 -141.835190
3.052571 -12.111299 -141.834133
3.203018 -12.094449 -141.833075
3.353466 -12.077600 -141.832018
3.423409 -11.998286 -141.833384
3.493353 -11.918971 -141.834750
3.643800 -11.902122 -141.833693
3.713744 -11.822807 -141.835059
4.105706 -11.993355 -141.826733
4.256153 -11.976505 -141.825676
4.406601 -11.959656 -141.824619
4.557049 -11.942807 -141.823561
4.707497 -11.925958 -141.822504
4.857945 -11.909109 -141.821447
5.008393 -11.892260 -141.820390
5.158840 -11.875410 -141.819333
5.228784 -11.796096 -141.820699
5.379231 -11.779247 -141.819642
5.449175 -11.699932 -141.821008
5.599622 -11.683083 -141.819951
5.669566 -11.603768 -141.821317
5.739509 -11.524453 -141.822683
5.809452 -11.445139 -141.824049
5.879395 -11.365824 -141.825415
5.949338 -11.286509 -141.826781
6.180291 -11.332126 -141.823301
6.491748 -11.440208 -141.817397
6.561691 -11.360893 -141.818763
6.712139 -11.344044 -141.817706
6.782082 -11.264729 -141.819072
6.852025 -11.185415 -141.820438
7.002473 -11.168565 -141.819381
7.072416 -11.089251 -141.820747
7.222864 -11.072402 -141.819690
7.292807 -10.993087 -141.821056
7.443255 -10.976238 -141.819999
7.513198 -10.896923 -141.821365
7.583141 -10.817608 -141.822731
7.733589 -10.800759 -141.821674
7.803532 -10.721445 -141.823040
7.873476 -10.642130 -141.824406
8.023923 -10.625281 -141.823349
8.093867 -10.545966 -141.824715
8.163810 -10.466651 -141.826081
8.233753 -10.387337 -141.827447
8.303696 -10.308022 -141.828813
8.373639 -10.228707 -141.830179
8.443582 -10.149393 -141.831545
8.513525 -10.070078 -141.832911
8.663973 -10.053229 -141.831854
8.733916 -9.973914 -141.833220
8.803860 -9.894599 -141.834586
8.873803 -9.815285 -141.835952
8.943746 -9.735970 -141.837318
9.013689 -9.656655 -141.838684
9.164137 -9.639806 -141.837627
9.234080 -9.560491 -141.838993
9.304023 -9.481177 -141.840359
9.373966 -9.401862 -141.841725
9.443910 -9.322547 -141.843091
9.513853 -9.243233 -141.844457
9.583796 -9.163918 -141.845823
9.653739 -9.084603 -141.847189
9.723682 -9.005289 -141.848555
9.713121 -8.863508 -141.852344
9.783064 -8.784194 -141.853710
9.853007 -8.704879 -141.855076
9.922950 -8.625564 -141.856442
9.992893 -8.546250 -141.857808
10.062836 -8.466935 -141.859174
10.052275 -8.325155 -141.862963
10.122218 -8.245840 -141.864329
10.192161 -8.166525 -141.865695
10.262104 -8.087211 -141.867061
10.332048 -8.007896 -141.868427
10.321486 -7.866116 -141.872217
10.391429 -7.786801 -141.873583
10.461372 -7.707486 -141.874949
10.450811 -7.565706 -141.878738
10.520754 -7.486392 -141.880104
10.590697 -7.407077 -141.881470
10.580136 -7.265297 -141.885259
10.650079 -7.185982 -141.886625
10.639517 -7.044202 -141.890414
10.628956 -6.902422 -141.894203
10.618394 -6.760641 -141.897992
10.688337 -6.681327 -141.899358
10.677776 -6.539546 -141.903147
10.747719 -6.460232 -141.904513
10.737157 -6.318451 -141.908303
10.807101 -6.239137 -141.909669
10.796539 -6.097357 -141.913458
10.866482 -6.018042 -141.914824
10.855921 -5.876262 -141.918613
10.925864 -5.796947 -141.919979
10.915302 -5.655167 -141.923768
10.904741 -5.513386 -141.927557
10.813675 -5.309141 -141.933769
10.803113 -5.167360 -141.937559
10.712047 -4.963115 -141.943771
10.701485 -4.821334 -141.947560
10.690924 -4.679554 -141.951349
10.680362 -4.537774 -141.955138
10.589296 -4.333528 -141.961351
10.498230 -4.129283 -141.967563
10.487668 -3.987502 -141.971352
10.477107 -3.845722 -141.975141
10.466545 -3.703942 -141.978930
10.455984 -3.562162 -141.982719
10.364918 -3.357916 -141.988932
7.797116 -10.862724 -141.820294
8.019935 -10.786752 -141.816814
8.141802 -10.696937 -141.815757
8.364621 -10.620965 -141.812276
8.486488 -10.531149 -141.811219
8.608355 -10.441333 -141.810162
8.629270 -10.337673 -141.811528
8.650185 -10.234013 -141.812894
8.772052 -10.144197 -141.811837
8.792967 -10.040537 -141.813203
8.914834 -9.950721 -141.812146
9.036701 -9.860906 -141.811089
9.158568 -9.771090 -141.810032
9.280435 -9.681274 -141.808975
9.301351 -9.577614 -141.810341
9.423218 -9.487798 -141.809283
9.545085 -9.397982 -141.808226
9.666952 -9.308166 -141.807169
9.687867 -9.204506 -141.808535
9.809734 -9.114690 -141.807478
9.931601 -9.024874 -141.806421
9.952516 -8.921214 -141.807787
10.074383 -8.831398 -141.806730
10.095298 -8.727738 -141.808096
10.217165 -8.637922 -141.807039
10.238080 -8.534262 -141.808405
10.359947 -8.444446 -141.807348
10.481814 -8.354631 -141.806291
10.502730 -8.250970 -141.807657
10.624597 -8.161155 -141.806600
10.645512 -8.057494 -141.807966
10.666427 -7.953834 -141.809332
10.687342 -7.850174 -141.810698
10.708257 -7.746514 -141.812064
10.830124 -7.656698 -141.811007
10.851039 -7.553038 -141.812373
10.871954 -7.449378 -141.813739
10.892870 -7.345718 -141.815105
10.913785 -7.242057 -141.816471
10.934700 -7.138397 -141.817837
11.056567 -7.048581 -141.816780
11.077482 -6.944921 -141.818146
11.098397 -6.841261 -141.819512
11.119312 -6.737601 -141.820878
11.140227 -6.633941 -141.822244
11.161143 -6.530281 -141.823610
11.182058 -6.426621 -141.824976
11.202973 -6.322960 -141.826342
11.223888 -6.219300 -141.827708
11.244803 -6.115640 -141.829074
11.265718 -6.011980 -141.830440
11.185681 -5.894475 -141.834229
11.206597 -5.790815 -141.835595
11.227512 -5.687155 -141.836961
11.248427 -5.583495 -141.838327
11.269342 -5.479835 -141.839693
11.290257 -5.376175 -141.841059
11.311172 -5.272514 -141.842425
11.332087 -5.168854 -141.843791
11.353002 -5.065194 -141.845157
11.272966 -4.947690 -141.848946
11.293881 -4.844029 -141.850312
11.314796 -4.740369 -141.851678
11.335711 -4.636709 -141.853044
11.356626 -4.533049 -141.854410
11.276589 -4.415544 -141.858199
11.196553 -4.298040 -141.861988
11.217468 -4.194380 -141.863354
11.137431 -4.076875 -141.867144
11.057394 -3.959371 -141.870933
11.078309 -3.855711 -141.872299
11.099224 -3.752051 -141.873665
11.019188 -3.634546 -141.877454
11.040103 -3.530886 -141.878820
11.061018 -3.427226 -141.880186
10.980981 -3.309721 -141.883975
11.001896 -3.206061 -141.885341
10.921860 -3.088557 -141.889130
10.942775 -2.984896 -141.890496
10.862738 -2.867392 -141.894285
10.883653 -2.763732 -141.895651
10.803616 -2.646227 -141.899441
10.723579 -2.528723 -141.903230
10.744495 -2.425063 -141.904596
10.664458 -2.307558 -141.908385
10.584421 -2.190054 -141.912174
10.504384 -2.072549 -141.915963
10.525299 -1.968889 -141.917329
10.546214 -1.865229 -141.918695
10.567130 -1.761569 -141.920061
10.588045 -1.657909 -141.921427
10.608960 -1.554248 -141.922793
10.629875 -1.450588 -141.924159
10.549838 -1.333084 -141.927948
10.469801 -1.215579 -141.931738
10.389765 -1.098075 -141.935527
10.309728 -0.980570 -141.939316
10.330643 -0.876910 -141.940682
10.351558 -0.773250 -141.942048
10.372473 -0.669590 -141.943414
10.393388 -0.565930 -141.944780
10.414304 -0.462270 -141.946146
10.334267 -0.344765 -141.949935
10.593822 -8.437115 -141.851129
10.654454 -8.298399 -141.850071
10.715086 -8.159682 -141.849014
10.775718 -8.020966 -141.847957
10.742001 -7.920736 -141.849323
10.802634 -7.782020 -141.848266
10.863266 -7.643304 -141.847209
11.018247 -7.466101 -141.843729
11.078879 -7.327385 -141.842672
11.045162 -7.227155 -141.844038
11.011445 -7.126925 -141.845404
11.072077 -6.988208 -141.844347
11.415757 -6.734033 -141.836020
11.476389 -6.595317 -141.834963
11.537021 -6.456600 -141.833906
11.597653 -6.317884 -141.832849
11.563936 -6.217654 -141.834215
11.624568 -6.078938 -141.833158
11.590851 -5.978708 -141.834524
11.651483 -5.839992 -141.833467
11.617766 -5.739762 -141.834833
11.678398 -5.601045 -141.833776
11.644681 -5.500815 -141.835142
11.705313 -5.362099 -141.834084
11.671596 -5.261869 -141.835450
11.732228 -5.123153 -141.834393
11.698511 -5.022923 -141.835759
11.664794 -4.922693 -141.837125
11.631077 -4.822463 -141.838491
11.691710 -4.683747 -141.837434
11.657993 -4.583517 -141.838800
11.718625 -4.444801 -141.837743
11.684908 -4.344571 -141.839109
11.651191 -4.244341 -141.840475
11.617474 -4.144111 -141.841841
11.678106 -4.005395 -141.840784
11.644389 -3.905165 -141.842150
11.610672 -3.804935 -141.843516
11.576955 -3.704705 -141.844882
11.637587 -3.565989 -141.843825
11.603870 -3.465759 -141.845191
11.570153 -3.365529 -141.846557
11.536436 -3.265299 -141.847923
11.502719 -3.165069 -141.849289
11.469002 -3.064839 -141.850655
11.529634 -2.926123 -141.849598
11.495917 -2.825893 -141.850964
11.367851 -2.764149 -141.854753
11.334134 -2.663919 -141.856119
11.300417 -2.563689 -141.857485
11.266700 -2.463459 -141.858851
11.232983 -2.363229 -141.860217
11.293615 -2.224513 -141.859160
11.259898 -2.124283 -141.860526
11.320530 -1.985567 -141.859469
11.286813 -1.885337 -141.860835
11.253096 -1.785107 -141.862201
11.219379 -1.684877 -141.863567
11.185662 -1.584647 -141.864933
11.246294 -1.445931 -141.863876
11.212577 -1.345701 -141.865242
11.178860 -1.245471 -141.866608
11.050794 -1.183728 -141.870397
11.017077 -1.083498 -141.871763
11.077709 -0.944781 -141.870706
11.043992 -0.844551 -141.872072
11.010275 -0.744322 -141.873438
10.976558 -0.644092 -141.874804
10.942841 -0.543862 -141.876170
11.003473 -0.405145 -141.875113
10.969756 -0.304915 -141.876479
10.936039 -0.204686 -141.877845
10.902322 -0.104456 -141.879211
10.868605 -0.004226 -141.880577
10.834888 0.096004 -141.881943
10.895520 0.234721 -141.880886
10.861803 0.334950 -141.882252
10.828086 0.435180 -141.883618
10.888719 0.573897 -141.882561
10.855002 0.674127 -141.883927
10.821285 0.774357 -141.885293
10.787568 0.874586 -141.886659
10.753851 0.974816 -141.888025
10.720134 1.075046 -141.889391
10.686417 1.175276 -141.890757
10.652700 1.275506 -141.892123
10.618983 1.375736 -141.893489
10.585266 1.475966 -141.894855
10.551549 1.576196 -141.896221
10.517832 1.676426 -141.897587
10.484115 1.776656 -141.898953
10.450398 1.876886 -141.900319
10.416681 1.977116 -141.901685
10.382964 2.077346 -141.903051
10.349247 2.177575 -141.904417
10.315530 2.277805 -141.905783
10.281813 2.378035 -141.907149
10.248096 2.478265 -141.908515
10.120029 2.540009 -141.912304
10.086312 2.640239 -141.913670
10.052595 2.740469 -141.915036
10.018878 2.840699 -141.916402
9.985161 2.940928 -141.917768
9.951444 3.041158 -141.919134
9.917727 3.141388 -141.920500
9.884010 3.241618 -141.921866
9.850293 3.341848 -141.923232
9.722227 3.403592 -141.927022
9.688510 3.503822 -141.928388
9.654793 3.604052 -141.929754
9.621076 3.704281 -141.931120
9.587359 3.804511 -141.932486
9.553642 3.904741 -141.933852
9.519925 4.004971 -141.935218
9.486208 4.105201 -141.936584
9.452491 4.205431 -141.937950
9.324425 4.267175 -141.941739
9.290708 4.367405 -141.943105
9.162642 4.429148 -141.946894
9.128925 4.529378 -141.948260
9.095208 4.629608 -141.949626
9.061491 4.729838 -141.950992
9.027774 4.830068 -141.952358
8.994057 4.930298 -141.953724
8.865991 4.992041 -141.957513
8.832274 5.092271 -141.958879
8.798557 5.192501 -141.960245
8.670491 5.254245 -141.964034
8.636774 5.354475 -141.965400
8.603057 5.454704 -141.966766
8.474991 5.516448 -141.970556
8.441274 5.616678 -141.971922
8.313208 5.678422 -141.975711
8.279491 5.778651 -141.977077
8.151425 5.840395 -141.980866
8.023358 5.902139 -141.984655
7.895292 5.963882 -141.988444
7.861575 6.064112 -141.989810
7.733509 6.125856 -141.993599
7.699792 6.226085 -141.994965
7.571726 6.287829 -141.998755
10.460490 2.474497 -141.882774
10.443640 2.624945 -141.881716
10.426791 2.775393 -141.880659
10.347476 2.845336 -141.882025
10.330627 2.995784 -141.880968
10.313778 3.146232 -141.879911
10.296929 3.296680 -141.878854
10.217614 3.366623 -141.880220
10.200765 3.517071 -141.879163
10.121450 3.587015 -141.880529
10.104600 3.737463 -141.879472
10.025286 3.807406 -141.880838
9.945971 3.877349 -141.882204
9.929122 4.027797 -141.881147
9.849807 4.097740 -141.882513
9.770492 4.167683 -141.883879
9.753643 4.318131 -141.882822
9.674328 4.388074 -141.884188
9.657479 4.538522 -141.883131
9.640630 4.688970 -141.882073
9.561315 4.758913 -141.883440
9.482000 4.828856 -141.884806
9.465151 4.979304 -141.883748
9.385836 5.049248 -141.885114
9.306521 5.119191 -141.886480
9.289672 5.269639 -141.885423
9.210357 5.339582 -141.886789
9.193508 5.490030 -141.885732
9.114193 5.559973 -141.887098
9.034878 5.629916 -141.888464
8.955563 5.699859 -141.889830
8.876249 5.769802 -141.891196
8.796934 5.839746 -141.892562
8.717619 5.909689 -141.893928
8.638304 5.979632 -141.895294
8.621455 6.130080 -141.894237
8.542140 6.200023 -141.895603
8.462825 6.269966 -141.896969
8.445976 6.420414 -141.895912
8.366661 6.490357 -141.897278
8.287347 6.560300 -141.898644
8.208032 6.630244 -141.900010
8.128717 6.700187 -141.901376
8.049402 6.770130 -141.902742
7.970087 6.840073 -141.904108
7.890773 6.910016 -141.905474
7.811458 6.979959 -141.906840
7.732143 7.049902 -141.908206
7.652828 7.119846 -141.909572
7.573513 7.189789 -141.910938
7.494199 7.259732 -141.912304
7.414884 7.329675 -141.913670
7.335569 7.399618 -141.915036
7.256254 7.469561 -141.916402
7.176940 7.539505 -141.917768
7.097625 7.609448 -141.919134
6.955844 7.598886 -141.922924
6.876530 7.668829 -141.924290
6.797215 7.738772 -141.925656
6.717900 7.808716 -141.927022
6.576120 7.798154 -141.930811
6.496805 7.868097 -141.932177
6.417490 7.938040 -141.933543
6.338175 8.007983 -141.934909
6.258861 8.077927 -141.936275
6.179546 8.147870 -141.937641
6.100231 8.217813 -141.939007
5.958451 8.207251 -141.942796
5.879136 8.277194 -141.944162
5.799821 8.347138 -141.945528
5.408179 8.014557 -141.959010
5.266398 8.003995 -141.962799
5.124618 7.993434 -141.966588
4.982838 7.982872 -141.970377
4.903523 8.052815 -141.971743
4.761742 8.042254 -141.975532
4.619962 8.031692 -141.979321
4.478182 8.021130 -141.983111
4.336401 8.010569 -141.986900
8.719955 6.154550 -141.893345
8.616294 6.175465 -141.894711
8.526479 6.297332 -141.893654
8.436663 6.419199 -141.892596
8.333003 6.440114 -141.893962
8.243187 6.561981 -141.892905
8.139527 6.582896 -141.894271
8.049711 6.704763 -141.893214
7.959895 6.826630 -141.892157
7.883923 7.049449 -141.888677
7.780263 7.070365 -141.890043
7.690447 7.192232 -141.888986
7.586787 7.213147 -141.890352
7.496971 7.335014 -141.889295
7.393311 7.355929 -141.890661
7.289651 7.376844 -141.892027
7.185991 7.397759 -141.893393
7.082331 7.418674 -141.894759
6.992515 7.540541 -141.893702
6.888855 7.561456 -141.895068
6.840572 7.986179 -141.886741
6.736912 8.007094 -141.888107
6.647096 8.128961 -141.887050
6.543436 8.149877 -141.888416
6.439776 8.170792 -141.889782
6.349960 8.292659 -141.888725
6.246300 8.313574 -141.890091
6.142640 8.334489 -141.891457
6.038979 8.355404 -141.892823
5.935319 8.376319 -141.894189
5.831659 8.397234 -141.895555
5.727999 8.418150 -141.896921
5.624339 8.439065 -141.898287
5.520679 8.459980 -141.899653
5.417018 8.480895 -141.901019
5.313358 8.501810 -141.902385
5.209698 8.522725 -141.903751
5.106038 8.543640 -141.905117
5.002378 8.564555 -141.906483
4.898718 8.585471 -141.907849
4.795057 8.606386 -141.909215
4.677553 8.526349 -141.913004
4.573893 8.547264 -141.914370
4.470233 8.568179 -141.915736
4.366572 8.589094 -141.917102
4.262912 8.610009 -141.918468
4.159252 8.630925 -141.919835
4.055592 8.651840 -141.921201
3.951932 8.672755 -141.922567
3.848272 8.693670 -141.923933
3.744612 8.714585 -141.925299
3.627107 8.634548 -141.929088
3.523447 8.655463 -141.930454
3.419787 8.676379 -141.931820
3.302282 8.596342 -141.935609
3.198622 8.617257 -141.936975
3.081118 8.537220 -141.940764
2.963613 8.457183 -141.944553
2.846109 8.377147 -141.948342
2.742448 8.398062 -141.949708
2.624944 8.318025 -141.953497
2.507439 8.237988 -141.957287
2.403779 8.258903 -141.958653
2.286275 8.178866 -141.962442
2.182615 8.199782 -141.963808
2.078955 8.220697 -141.965174
1.975294 8.241612 -141.966540
1.871634 8.262527 -141.967906
1.754130 8.182490 -141.971695
1.650470 8.203405 -141.973061
1.546809 8.224320 -141.974427
1.429305 8.144284 -141.978216
1.325645 8.165199 -141.979582
1.208140 8.085162 -141.983371
1.104480 8.106077 -141.984737
0.986976 8.026040 -141.988526
0.883315 8.046956 -141.989892
0.765811 7.966919 -141.993682
0.662151 7.987834 -141.995048
0.558491 8.008749 -141.996414
0.440986 7.928712 -142.000203
0.337326 7.949627 -142.001569
0.219822 7.869591 -142.005358
5.098242 8.719566 -141.917267
4.959526 8.780198 -141.916210
4.820810 8.840831 -141.915153
4.720580 8.807114 -141.916519
4.620350 8.773397 -141.917885
4.481634 8.834029 -141.916828
4.304431 8.989010 -141.913347
4.204201 8.955293 -141.914713
4.065485 9.015925 -141.913656
3.965255 8.982208 -141.915022
3.826538 9.042840 -141.913965
3.726309 9.009123 -141.915331
3.626079 8.975406 -141.916697
3.525849 8.941689 -141.918063
3.425619 8.907972 -141.919429
3.286902 8.968604 -141.918372
3.186673 8.934887 -141.919738
3.086443 8.901170 -141.921104
2.986213 8.867453 -141.922470
2.885983 8.833736 -141.923836
2.785753 8.800019 -141.925202
2.685523 8.766302 -141.926568
2.546807 8.826934 -141.925511
2.446577 8.793217 -141.926877
2.346347 8.759500 -141.928243
2.246117 8.725783 -141.929609
2.145887 8.692066 -141.930975
2.007171 8.752698 -141.929918
1.906941 8.718981 -141.931284
1.806711 8.685264 -141.932650
1.706481 8.651547 -141.934016
1.606251 8.617830 -141.935382
1.467535 8.678463 -141.934325
1.367305 8.644746 -141.935691
1.267075 8.611029 -141.937057
1.166845 8.577312 -141.938423
1.066615 8.543595 -141.939789
0.966385 8.509878 -141.941155
0.866155 8.476161 -141.942521
0.765925 8.442444 -141.943887
0.665695 8.408727 -141.945253
0.565465 8.375010 -141.946619
0.465235 8.341293 -141.947985
0.365006 8.307576 -141.949351
0.226289 8.368208 -141.948294
0.126059 8.334491 -141.949660
0.025829 8.300774 -141.951026
-0.074401 8.267057 -141.952392
-0.174630 8.233340 -141.953758
-0.274860 8.199623 -141.955124
-0.375090 8.165906 -141.956490
-0.475320 8.132189 -141.957856
-0.575550 8.098472 -141.959222
-0.675780 8.064755 -141.960588
-0.776010 8.031038 -141.961954
-0.876240 7.997321 -141.963320
-0.976470 7.963604 -141.964686
-1.076700 7.929887 -141.966052
-1.176930 7.896170 -141.967418
-1.238673 7.768104 -141.971208
-1.338903 7.734387 -141.972574
-1.439133 7.700670 -141.973940
-1.539363 7.666953 -141.975306
-1.639593 7.633236 -141.976672
-1.739823 7.599519 -141.978038
-1.840053 7.565802 -141.979404
-1.940283 7.532085 -141.980770
-2.040513 7.498368 -141.982136
-2.140743 7.464651 -141.983502
-2.240972 7.430934 -141.984868
-2.302716 7.302867 -141.988657
-2.402946 7.269150 -141.990023
-2.464689 7.141084 -141.993812
-2.564919 7.107367 -141.995178
-2.626663 6.979301 -141.998967
-2.688406 6.851235 -142.002756
-2.788636 6.817518 -142.004122
-2.850380 6.689452 -142.007911
-2.912124 6.561386 -142.011701
-2.973867 6.433320 -142.015490
-3.074097 6.399603 -142.016856
-3.135841 6.271537 -142.020645
-3.236070 6.237820 -142.022011
-3.336300 6.204103 -142.023377
-3.359558 5.981687 -142.029589
-3.421301 5.853621 -142.033378
-3.483045 5.725555 -142.037167
-3.583275 5.691838 -142.038533
-3.645018 5.563772 -142.042323
-3.745248 5.530055 -142.043689
-3.845478 5.496338 -142.045055
-3.945708 5.462621 -142.046421
-4.007451 5.334555 -142.050210
-4.107681 5.300838 -142.051576
-4.169425 5.172772 -142.055365
-4.269655 5.139055 -142.056731
-4.369885 5.105338 -142.058097
-4.431628 4.977272 -142.061886
-4.531858 4.943555 -142.063252
-4.593602 4.815489 -142.067041
-1.252370 8.309944 -141.950800
-1.402817 8.293094 -141.949742
-1.553265 8.276245 -141.948685
-1.623208 8.196931 -141.950051
-1.693152 8.117616 -141.951417
-1.843599 8.100767 -141.950360
-1.913543 8.021452 -141.951726
-1.983486 7.942137 -141.953092
-2.053429 7.862823 -141.954458
-2.123372 7.783508 -141.955824
-2.193315 7.704193 -141.957190
-2.263258 7.624879 -141.958556
-2.333201 7.545564 -141.959922
-2.483649 7.528715 -141.958865
-2.634097 7.511866 -141.957808
-2.704040 7.432551 -141.959174
-2.854488 7.415702 -141.958117
-2.924431 7.336387 -141.959483
-2.994374 7.257073 -141.960849
-3.064318 7.177758 -141.962215
-3.134261 7.098443 -141.963581
-3.204204 7.019128 -141.964947
-3.274147 6.939814 -141.966313
-3.424595 6.922965 -141.965256
-3.494538 6.843650 -141.966622
-3.564481 6.764335 -141.967988
-3.634424 6.685021 -141.969354
-3.704368 6.605706 -141.970720
-3.774311 6.526391 -141.972086
-3.844254 6.447077 -141.973452
-3.914197 6.367762 -141.974818
-3.984140 6.288447 -141.976184
-4.054083 6.209132 -141.977550
-4.124026 6.129818 -141.978916
-4.193970 6.050503 -141.980282
-4.263913 5.971188 -141.981648
-4.333856 5.891874 -141.983014
-4.403799 5.812559 -141.984380
-4.473742 5.733244 -141.985746
-4.543685 5.653930 -141.987112
-4.613629 5.574615 -141.988478
-4.683572 5.495300 -141.989844
-4.753515 5.415986 -141.991210
-4.823458 5.336671 -141.992576
-4.893401 5.257356 -141.993942
-4.963344 5.178042 -141.995308
-5.033288 5.098727 -141.996674
-5.103231 5.019412 -141.998040
-5.092669 4.877632 -142.001830
-5.162612 4.798317 -142.003196
-5.232555 4.719003 -142.004562
-5.302499 4.639688 -142.005928
-5.372442 4.560373 -142.007294
-5.442385 4.481059 -142.008660
-5.512328 4.401744 -142.010026
-5.582271 4.322429 -142.011392
-5.652214 4.243114 -142.012758
-5.641653 4.101334 -142.016547
-5.711596 4.022020 -142.017913
-5.781539 3.942705 -142.019279
-5.770978 3.800925 -142.023068
-5.679911 3.596679 -142.029280
-5.186322 3.080105 -142.047608
-5.256265 3.000791 -142.048974
-5.245703 2.859010 -142.052763
-4.964869 5.360952 -141.977941
-5.187688 5.284980 -141.974461
-5.410507 5.209009 -141.970981
-5.431422 5.105349 -141.972347
-5.553289 5.015533 -141.971290
-5.574205 4.911873 -141.972656
-5.696072 4.822057 -141.971599
-5.716987 4.718397 -141.972965
-5.737902 4.614737 -141.974331
-5.758817 4.511076 -141.975697
-5.779732 4.407416 -141.977063
-5.800647 4.303756 -141.978429
-5.821562 4.200096 -141.979795
-5.842478 4.096436 -141.981161
-5.863393 3.992776 -141.982527
-5.985260 3.902960 -141.981470
-6.107127 3.813144 -141.980413
-6.128042 3.709484 -141.981779
-6.148957 3.605824 -141.983145
-6.270824 3.516008 -141.982088
-6.291739 3.412348 -141.983454
-6.312654 3.308688 -141.984820
-6.333569 3.205027 -141.986186
-6.354485 3.101367 -141.987552
-6.375400 2.997707 -141.988918
-6.396315 2.894047 -141.990284
-6.417230 2.790387 -141.991650
-6.337193 2.672882 -141.995439
-6.358108 2.569222 -141.996805
-6.278072 2.451718 -142.000594
-6.298987 2.348057 -142.001960
-6.319902 2.244397 -142.003326
-6.340817 2.140737 -142.004692
-6.361732 2.037077 -142.006058
-6.382647 1.933417 -142.007424
-6.403562 1.829757 -142.008790
-6.424477 1.726096 -142.010156
-6.344441 1.608592 -142.013945
-6.365356 1.504932 -142.015311
-6.285319 1.387427 -142.019100
-6.306234 1.283767 -142.020466
-6.327149 1.180107 -142.021832
-6.348064 1.076447 -142.023198
-6.268028 0.958942 -142.026988
-6.288943 0.855282 -142.028354
-6.309858 0.751622 -142.029720
-6.330773 0.647962 -142.031086
-6.250736 0.530457 -142.034875
-6.271651 0.426797 -142.036241
-6.292566 0.323137 -142.037607
-6.313482 0.219477 -142.038973
-6.334397 0.115817 -142.040339
-6.254360 -0.001688 -142.044128
-6.275275 -0.105348 -142.045494
-6.296190 -0.209008 -142.046860
-6.216153 -0.326513 -142.050649
-6.237069 -0.430173 -142.052015
-6.257984 -0.533833 -142.053381
-6.278899 -0.637493 -142.054747
-6.198862 -0.754997 -142.058536
-6.219777 -0.858658 -142.059902
-6.240692 -0.962318 -142.061268
-6.160656 -1.079822 -142.065057
-6.919546 2.299006 -141.978998
-6.980179 2.160289 -141.977941
-6.946462 2.060060 -141.979307
-6.912745 1.959830 -141.980673
-6.973377 1.821113 -141.979616
-6.939660 1.720883 -141.980982
-6.905943 1.620653 -141.982348
-6.872226 1.520424 -141.983714
-6.932858 1.381707 -141.982657
-6.899141 1.281477 -141.984023
-6.959773 1.142761 -141.982966
-7.020405 1.004045 -141.981909
-6.986688 0.903815 -141.983275
-6.952971 0.803585 -141.984641
-7.013603 0.664869 -141.983584
-7.074235 0.526152 -141.982527
-7.040518 0.425922 -141.983893
-7.101150 0.287206 -141.982836
-7.067433 0.186976 -141.984202
-7.128065 0.048260 -141.983145
-7.094348 -0.051970 -141.984511
-7.060631 -0.152200 -141.985877
-7.026914 -0.252430 -141.987243
-7.087547 -0.391146 -141.986186
-7.053830 -0.491376 -141.987552
-7.020113 -0.591606 -141.988918
-6.986396 -0.691836 -141.990284
-7.047028 -0.830552 -141.989227
-7.013311 -0.930782 -141.990593
-6.979594 -1.031012 -141.991959
-6.945877 -1.131242 -141.993325
-6.912160 -1.231472 -141.994691
-6.878443 -1.331702 -141.996057
-6.844726 -1.431932 -141.997423
-6.811009 -1.532162 -141.998789
-6.777292 -1.632392 -142.000155
-6.743575 -1.732622 -142.001521
-6.709858 -1.832852 -142.002887
-6.676141 -1.933081 -142.004253
-6.548075 -1.994825 -142.008042
-6.514358 -2.095055 -142.009408
-6.480641 -2.195285 -142.010774
-6.446924 -2.295515 -142.012140
-6.413207 -2.395745 -142.013506
-6.379490 -2.495975 -142.014872
-6.345773 -2.596205 -142.016238
-6.217706 -2.657948 -142.020027
-6.183989 -2.758178 -142.021393
-6.150272 -2.858408 -142.022759
-6.116555 -2.958638 -142.024125
-6.082838 -3.058868 -142.025491
-6.049121 -3.159098 -142.026857
-6.015404 -3.259328 -142.028223
-5.981687 -3.359558 -142.029589
-5.947970 -3.459787 -142.030955
-5.914253 -3.560017 -142.032321
-5.880536 -3.660247 -142.033687
-5.846819 -3.760477 -142.035053
-5.813102 -3.860707 -142.036419
-5.779385 -3.960937 -142.037785
-5.745668 -4.061167 -142.039151
-5.617602 -4.122911 -142.042940
-5.583885 -4.223140 -142.044306
-5.550168 -4.323370 -142.045672
-5.516451 -4.423600 -142.047038
-5.482734 -4.523830 -142.048405
-5.354668 -4.585574 -142.052194
-5.320951 -4.685804 -142.053560
-5.287234 -4.786034 -142.054926
-5.253517 -4.886264 -142.056292
-5.219800 -4.986493 -142.057658
-5.186083 -5.086723 -142.059024
-5.152366 -5.186953 -142.060390
-5.118649 -5.287183 -142.061756
-5.084932 -5.387413 -142.063122
-5.051215 -5.487643 -142.064488
-5.017498 -5.587873 -142.065854
-4.983781 -5.688103 -142.067220
-4.950064 -5.788333 -142.068586
-4.916347 -5.888563 -142.069952
-4.788281 -5.950306 -142.073741
-4.754564 -6.050536 -142.075107
-4.720847 -6.150766 -142.076473
-4.592781 -6.212510 -142.080262
-4.464715 -6.274253 -142.084051
-4.430998 -6.374483 -142.085417
-4.397281 -6.474713 -142.086783
-4.269215 -6.536457 -142.090572
-4.235498 -6.636687 -142.091938
-4.201781 -6.736917 -142.093305
-4.168064 -6.837146 -142.094671
-4.134347 -6.937376 -142.096037
-4.006281 -6.999120 -142.099826
-3.972564 -7.099350 -142.101192
-3.938847 -7.199580 -142.102558
-3.810781 -7.261323 -142.106347
-3.682714 -7.323067 -142.110136
-3.648997 -7.423297 -142.111502
-3.520931 -7.485040 -142.115291
-3.487214 -7.585270 -142.116657
-3.453497 -7.685500 -142.118023
-3.419780 -7.785730 -142.119389
-3.386063 -7.885960 -142.120755
-3.257997 -7.947704 -142.124544
-3.035582 -7.970961 -142.130757
-2.907516 -8.032704 -142.134546
-2.873799 -8.132934 -142.135912
-2.840082 -8.233164 -142.137278
-2.806365 -8.333394 -142.138644
-2.678299 -8.395138 -142.142433
-2.644582 -8.495368 -142.143799
-2.516516 -8.557111 -142.147588
-2.294100 -8.580368 -142.153800
-5.653930 -4.543685 -141.987112
-5.637081 -4.694133 -141.986055
-5.620231 -4.844581 -141.984998
-5.540917 -4.914524 -141.986364
-5.524068 -5.064972 -141.985307
-5.444753 -5.134915 -141.986673
-5.427904 -5.285363 -141.985616
-5.411055 -5.435811 -141.984559
-5.394205 -5.586259 -141.983502
-5.314891 -5.656202 -141.984868
-5.235576 -5.726145 -141.986234
-5.218727 -5.876593 -141.985177
-5.139412 -5.946536 -141.986543
-5.122563 -6.096984 -141.985486
-5.105714 -6.247432 -141.984428
-5.026399 -6.317375 -141.985794
-4.947085 -6.387318 -141.987160
-4.867770 -6.457261 -141.988526
-4.788455 -6.527204 -141.989892
-4.771606 -6.677652 -141.988835
-4.692291 -6.747595 -141.990201
-4.675442 -6.898043 -141.989144
-4.596128 -6.967986 -141.990510
-4.579278 -7.118434 -141.989453
-4.499964 -7.188377 -141.990819
-4.420649 -7.258321 -141.992185
-4.403800 -7.408768 -141.991128
-4.324485 -7.478712 -141.992494
-4.307636 -7.629159 -141.991437
-4.228321 -7.699103 -141.992803
-4.149007 -7.769046 -141.994169
-4.069692 -7.838989 -141.995535
-4.052843 -7.989437 -141.994478
-3.973528 -8.059380 -141.995844
-3.894213 -8.129323 -141.997210
-3.814899 -8.199266 -141.998576
-3.735584 -8.269209 -141.999942
-3.656269 -8.339152 -142.001308
-3.576955 -8.409096 -142.002674
-3.497640 -8.479039 -142.004040
-3.418325 -8.548982 -142.005406
-3.339011 -8.618925 -142.006772
-3.259696 -8.688868 -142.008138
-3.180381 -8.758811 -142.009504
-3.101067 -8.828755 -142.010870
-3.084217 -8.979202 -142.009813
-3.004903 -9.049146 -142.011179
-2.925588 -9.119089 -142.012545
-2.846273 -9.189032 -142.013911
-2.766959 -9.258975 -142.015277
-2.687644 -9.328918 -142.016643
-2.608329 -9.398861 -142.018009
-2.529015 -9.468805 -142.019375
-2.449700 -9.538748 -142.020741
-2.370385 -9.608691 -142.022107
-2.291071 -9.678634 -142.023473
-2.211756 -9.748577 -142.024839
-2.132441 -9.818520 -142.026205
-1.990661 -9.807959 -142.029994
-1.911346 -9.877902 -142.031360
-1.832032 -9.947845 -142.032726
-1.752717 -10.017788 -142.034092
-1.673402 -10.087731 -142.035458
-1.594088 -10.157675 -142.036824
-1.514773 -10.227618 -142.038190
-1.435458 -10.297561 -142.039556
-1.356144 -10.367504 -142.040923
-1.276829 -10.437447 -142.042289
-1.197514 -10.507390 -142.043655
-1.118199 -10.577334 -142.045021
-1.038885 -10.647277 -142.046387
-0.959570 -10.717220 -142.047753
-0.817790 -10.706658 -142.051542
-0.738475 -10.776601 -142.052908
-0.659160 -10.846545 -142.054274
-0.579846 -10.916488 -142.055640
-0.500531 -10.986431 -142.057006
-0.358751 -10.975869 -142.060795
-0.279436 -11.045813 -142.062161
-0.200122 -11.115756 -142.063527
-0.058341 -11.105194 -142.067316
0.020973 -11.175137 -142.068682
0.100288 -11.245080 -142.070048
0.242068 -11.234519 -142.073837
0.321383 -11.304462 -142.075203
0.463163 -11.293901 -142.078992
0.729875 -11.122330 -142.087628
0.871655 -11.111768 -142.091417
1.013435 -11.101207 -142.095206
-4.587393 -7.092107 -141.945562
-4.497577 -7.213974 -141.944505
-4.407761 -7.335841 -141.943448
-4.317945 -7.457708 -141.942391
-4.228129 -7.579575 -141.941334
-4.138313 -7.701442 -141.940277
-4.048498 -7.823309 -141.939220
-3.958682 -7.945176 -141.938162
-3.855022 -7.966091 -141.939528
-3.765206 -8.087958 -141.938471
-3.675390 -8.209826 -141.937414
-3.571730 -8.230741 -141.938780
-3.481914 -8.352608 -141.937723
-3.378254 -8.373523 -141.939089
-3.288438 -8.495390 -141.938032
-3.212466 -8.718209 -141.934552
-3.136495 -8.941028 -141.931072
-3.046679 -9.062895 -141.930014
-2.943019 -9.083810 -141.931380
-2.853203 -9.205677 -141.930323
-2.763387 -9.327544 -141.929266
-2.659727 -9.348459 -141.930632
-2.569911 -9.470326 -141.929575
-2.480095 -9.592193 -141.928518
-2.376435 -9.613108 -141.929884
-2.286619 -9.734975 -141.928827
-2.196804 -9.856842 -141.927770
-2.093143 -9.877758 -141.929136
-2.003328 -9.999625 -141.928079
-1.913512 -10.121492 -141.927022
-1.809852 -10.142407 -141.928388
-1.706191 -10.163322 -141.929754
-1.616376 -10.285189 -141.928697
-1.526560 -10.407056 -141.927639
-1.436744 -10.528923 -141.926582
-1.346928 -10.650790 -141.925525
-1.257112 -10.772657 -141.924468
-1.153452 -10.793572 -141.925834
-1.063636 -10.915439 -141.924777
-0.959976 -10.936354 -141.926143
-0.870160 -11.058222 -141.925086
-0.766500 -11.079137 -141.926452
-0.662840 -11.100052 -141.927818
-0.573024 -11.221919 -141.926761
-0.469364 -11.242834 -141.928127
-0.365704 -11.263749 -141.929493
-0.262044 -11.284664 -141.930859
-0.158384 -11.305579 -141.932225
-0.054723 -11.326495 -141.933591
0.048937 -11.347410 -141.934957
0.152597 -11.368325 -141.936323
0.256257 -11.389240 -141.937689
0.359917 -11.410155 -141.939055
0.463577 -11.431070 -141.940421
0.567238 -11.451985 -141.941787
0.670898 -11.472900 -141.943153
0.774558 -11.493816 -141.944519
0.878218 -11.514731 -141.945885
0.981878 -11.535646 -141.947251
1.071694 -11.657513 -141.946194
1.175354 -11.678428 -141.947560
1.279014 -11.699343 -141.948926
1.396519 -11.619306 -141.952715
1.500179 -11.640221 -141.954081
1.603839 -11.661137 -141.955447
1.707499 -11.682052 -141.956813
1.811160 -11.702967 -141.958179
1.914820 -11.723882 -141.959545
2.018480 -11.744797 -141.960911
2.122140 -11.765712 -141.962277
2.225800 -11.786627 -141.963643
2.329460 -11.807543 -141.965009
2.433120 -11.828458 -141.966375
2.536781 -11.849373 -141.967741
2.640441 -11.870288 -141.969107
2.744101 -11.891203 -141.970473
2.847761 -11.912118 -141.971839
2.951421 -11.933033 -141.973205
3.068926 -11.852997 -141.976995
3.172586 -11.873912 -141.978361
3.276246 -11.894827 -141.979727
3.379906 -11.915742 -141.981093
3.497411 -11.835705 -141.984882
3.601071 -11.856620 -141.986248
3.704731 -11.877535 -141.987614
3.808391 -11.898451 -141.988980
3.925896 -11.818414 -141.992769
4.029556 -11.839329 -141.994135
4.147060 -11.759292 -141.997924
4.306098 -11.376400 -142.008983
4.437447 -11.195411 -142.015195
4.582640 -10.913470 -142.023830
4.686300 -10.934385 -142.025196
4.789960 -10.955301 -142.026562
4.893620 -10.976216 -142.027928
4.997280 -10.997131 -142.029294
5.114785 -10.917094 -142.033083
5.218445 -10.938009 -142.034449
5.322105 -10.958924 -142.035815
5.439610 -10.878887 -142.039605
5.543270 -10.899803 -142.040971
5.660774 -10.819766 -142.044760
5.778279 -10.739729 -142.048549
5.881939 -10.760644 -142.049915
5.999443 -10.680607 -142.053704
6.103104 -10.701523 -142.055070
6.234452 -10.520534 -142.061282
6.351957 -10.440497 -142.065071
6.483306 -10.259508 -142.071284
6.600810 -10.179472 -142.075073
0.311693 -11.084219 -141.876040
0.488896 -11.239200 -141.872560
0.704585 -11.488530 -141.866656
0.843301 -11.549162 -141.865599
0.982018 -11.609794 -141.864542
1.082248 -11.576077 -141.865908
1.220964 -11.636710 -141.864851
1.359680 -11.697342 -141.863794
1.459910 -11.663625 -141.865160
1.598626 -11.724257 -141.864103
1.698856 -11.690540 -141.865469
1.799086 -11.656823 -141.866835
1.899316 -11.623106 -141.868201
1.999546 -11.589389 -141.869567
2.292208 -12.027417 -141.858817
2.392438 -11.993700 -141.860183
2.492668 -11.959983 -141.861549
2.631384 -12.020616 -141.860492
2.731614 -11.986899 -141.861858
2.831844 -11.953182 -141.863224
2.932074 -11.919465 -141.864590
3.070790 -11.980097 -141.863533
3.171020 -11.946380 -141.864899
3.271250 -11.912663 -141.866265
3.371480 -11.878946 -141.867631
3.471710 -11.845229 -141.868997
3.571940 -11.811512 -141.870363
3.672170 -11.777795 -141.871729
3.772400 -11.744078 -141.873095
3.872629 -11.710361 -141.874461
4.011346 -11.770993 -141.873404
4.111576 -11.737276 -141.874770
4.211806 -11.703559 -141.876136
4.312036 -11.669842 -141.877502
4.412265 -11.636125 -141.878868
4.512495 -11.602408 -141.880234
4.612725 -11.568691 -141.881600
4.712955 -11.534974 -141.882966
4.813185 -11.501257 -141.884332
4.913415 -11.467540 -141.885698
5.052131 -11.528172 -141.884641
5.152361 -11.494455 -141.886007
5.252591 -11.460738 -141.887373
5.352821 -11.427021 -141.888739
5.453051 -11.393304 -141.890105
5.553281 -11.359587 -141.891471
5.653511 -11.325870 -141.892837
5.753741 -11.292153 -141.894203
5.815484 -11.164087 -141.897992
5.915714 -11.130370 -141.899358
6.015944 -11.096653 -141.900724
6.116174 -11.062936 -141.902090
6.216404 -11.029219 -141.903456
6.316634 -10.995502 -141.904822
6.416864 -10.961785 -141.906188
6.517094 -10.928068 -141.907554
6.617324 -10.894351 -141.908920
6.717554 -10.860634 -141.910286
6.779297 -10.732568 -141.914076
6.879527 -10.698851 -141.915442
6.979757 -10.665134 -141.916808
7.041501 -10.537068 -141.920597
7.141731 -10.503351 -141.921963
7.241960 -10.469634 -141.923329
7.342190 -10.435917 -141.924695
7.442420 -10.402200 -141.926061
7.504164 -10.274133 -141.929850
7.604394 -10.240416 -141.931216
7.666137 -10.112350 -141.935005
7.766367 -10.078633 -141.936371
7.828111 -9.950567 -141.940160
7.928341 -9.916850 -141.941526
8.028571 -9.883133 -141.942892
8.090314 -9.755067 -141.946681
8.190544 -9.721350 -141.948047
8.252288 -9.593284 -141.951837
8.275545 -9.370869 -141.958049
8.337288 -9.242803 -141.961838
8.437518 -9.209086 -141.963204
8.499262 -9.081020 -141.966993
8.599492 -9.047303 -141.968359
8.699722 -9.013586 -141.969725
8.761465 -8.885519 -141.973514
8.861695 -8.851802 -141.974880
8.923439 -8.723736 -141.978669
9.023669 -8.690019 -141.980035
9.085412 -8.561953 -141.983825
9.147156 -8.433887 -141.987614
9.170413 -8.211472 -141.993826
9.232156 -8.083406 -141.997615
9.293900 -7.955340 -142.001404
9.355644 -7.827274 -142.005193
9.455873 -7.793557 -142.006559
9.517617 -7.665490 -142.010349
9.579361 -7.537424 -142.014138
9.602618 -7.315009 -142.020350
9.664361 -7.186943 -142.024139
9.726105 -7.058877 -142.027928
9.787848 -6.930811 -142.031717
9.849592 -6.802745 -142.035507
9.911335 -6.674679 -142.039296
9.742161 -5.980518 -142.057624
