ply
format ascii 1.0
element vertex 1168
property float x
property float y
property float z
element face 0
property list uchar uint vertex_indices
end_header
2.048256 -11.866367 -140.850477
2.198704 -11.849518 -140.849419
2.349152 -11.832669 -140.848362
2.419095 -11.753354 -140.849728
2.891561 -11.986367 -140.838979
3.042009 -11.969518 -140.837922
3.192457 -11.952669 -140.836865
3.584419 -12.123217 -140.828538
3.815371 -12.168833 -140.825058
3.885315 -12.089518 -140.826424
4.035762 -12.072669 -140.825367
4.105706 -11.993355 -140.826733
4.256153 -11.976505 -140.825676
4.406601 -11.959656 -140.824619
4.476544 -11.880342 -140.825985
4.707497 -11.925958 -140.822504
4.777440 -11.846643 -140.823870
4.927888 -11.829794 -140.822813
5.078336 -11.812945 -140.821756
5.148279 -11.733630 -140.823122
5.298727 -11.716781 -140.822065
5.449175 -11.699932 -140.821008
5.599622 -11.683083 -140.819951
5.750070 -11.666234 -140.818894
5.900518 -11.649385 -140.817837
5.970461 -11.570070 -140.819203
6.120909 -11.553221 -140.818146
6.190852 -11.473906 -140.819512
6.260795 -11.394591 -140.820878
6.330739 -11.315277 -140.822244
6.400682 -11.235962 -140.823610
6.551130 -11.219113 -140.822553
6.621073 -11.139798 -140.823919
6.771521 -11.122949 -140.822861
6.921968 -11.106100 -140.821804
6.991912 -11.026785 -140.823170
7.142359 -11.009936 -140.822113
7.212303 -10.930621 -140.823479
7.282246 -10.851307 -140.824845
7.432694 -10.834458 -140.823788
7.502637 -10.755143 -140.825154
7.572580 -10.675828 -140.826520
7.642523 -10.596513 -140.827886
7.712466 -10.517199 -140.829252
7.862914 -10.500350 -140.828195
7.932857 -10.421035 -140.829561
8.002800 -10.341720 -140.830927
8.072743 -10.262406 -140.832293
8.142687 -10.183091 -140.833659
8.212630 -10.103776 -140.835025
8.363078 -10.086927 -140.833968
8.433021 -10.007612 -140.835334
8.583469 -9.990763 -140.834277
8.653412 -9.911449 -140.835643
8.723355 -9.832134 -140.837009
8.793298 -9.752819 -140.838375
8.943746 -9.735970 -140.837318
9.013689 -9.656655 -140.838684
9.083632 -9.577341 -140.840050
9.153575 -9.498026 -140.841416
9.223519 -9.418711 -140.842782
9.373966 -9.401862 -140.841725
9.443910 -9.322547 -140.843091
9.433348 -9.180767 -140.846880
9.503291 -9.101453 -140.848246
9.573234 -9.022138 -140.849612
9.643178 -8.942823 -140.850978
9.713121 -8.863508 -140.852344
9.702559 -8.721728 -140.856133
9.772502 -8.642414 -140.857499
9.842445 -8.563099 -140.858865
9.912389 -8.483784 -140.860231
9.901827 -8.342004 -140.864020
9.971770 -8.262689 -140.865386
10.041713 -8.183375 -140.866752
10.111657 -8.104060 -140.868118
10.181600 -8.024745 -140.869484
10.251543 -7.945431 -140.870850
10.240981 -7.803650 -140.874640
10.310925 -7.724336 -140.876006
10.380868 -7.645021 -140.877372
10.450811 -7.565706 -140.878738
10.520754 -7.486392 -140.880104
10.510192 -7.344611 -140.883893
10.580136 -7.265297 -140.885259
10.569574 -7.123516 -140.889048
10.639517 -7.044202 -140.890414
10.628956 -6.902422 -140.894203
10.618394 -6.760641 -140.897992
10.688337 -6.681327 -140.899358
10.677776 -6.539546 -140.903147
10.667214 -6.397766 -140.906937
10.656653 -6.255986 -140.910726
10.646091 -6.114206 -140.914515
10.474520 -5.847494 -140.923150
10.463959 -5.705714 -140.926939
10.453397 -5.563934 -140.930729
10.442836 -5.422154 -140.934518
10.512779 -5.342839 -140.935884
10.582722 -5.263524 -140.937250
10.572161 -5.121744 -140.941039
10.561599 -4.979964 -140.944828
10.551038 -4.838184 -140.948617
10.540476 -4.696403 -140.952406
10.529914 -4.554623 -140.956195
10.438848 -4.350377 -140.962408
10.347782 -4.146132 -140.968620
10.337221 -4.004351 -140.972409
6.763058 -11.360086 -140.833906
6.985877 -11.284114 -140.830426
7.107744 -11.194299 -140.829369
7.330563 -11.118327 -140.825888
7.452430 -11.028511 -140.824831
7.574297 -10.938695 -140.823774
7.696164 -10.848880 -140.822717
7.818031 -10.759064 -140.821660
7.838946 -10.655404 -140.823026
7.859861 -10.551744 -140.824392
8.082680 -10.475772 -140.820912
8.305499 -10.399800 -140.817431
8.427366 -10.309985 -140.816374
8.549233 -10.220169 -140.815317
8.570148 -10.116509 -140.816683
8.692015 -10.026693 -140.815626
8.813882 -9.936877 -140.814569
8.935749 -9.847061 -140.813512
9.158568 -9.771090 -140.810032
9.280435 -9.681274 -140.808975
9.301351 -9.577614 -140.810341
9.423218 -9.487798 -140.809283
9.444133 -9.384138 -140.810650
9.465048 -9.280478 -140.812016
9.586915 -9.190662 -140.810958
9.708782 -9.100846 -140.809901
9.830649 -9.011030 -140.808844
9.952516 -8.921214 -140.807787
10.074383 -8.831398 -140.806730
10.196250 -8.741583 -140.805673
10.217165 -8.637922 -140.807039
10.238080 -8.534262 -140.808405
10.359947 -8.444446 -140.807348
10.380863 -8.340786 -140.808714
10.502730 -8.250970 -140.807657
10.523645 -8.147310 -140.809023
10.544560 -8.043650 -140.810389
10.666427 -7.953834 -140.809332
10.687342 -7.850174 -140.810698
10.708257 -7.746514 -140.812064
10.729172 -7.642854 -140.813430
10.750087 -7.539194 -140.814796
10.871954 -7.449378 -140.813739
10.892870 -7.345718 -140.815105
10.913785 -7.242057 -140.816471
10.934700 -7.138397 -140.817837
10.955615 -7.034737 -140.819203
11.077482 -6.944921 -140.818146
11.098397 -6.841261 -140.819512
11.119312 -6.737601 -140.820878
11.140227 -6.633941 -140.822244
11.161143 -6.530281 -140.823610
11.182058 -6.426621 -140.824976
11.202973 -6.322960 -140.826342
11.223888 -6.219300 -140.827708
11.143851 -6.101796 -140.831497
11.164766 -5.998136 -140.832863
11.185681 -5.894475 -140.834229
11.206597 -5.790815 -140.835595
11.126560 -5.673311 -140.839384
11.147475 -5.569651 -140.840750
11.168390 -5.465990 -140.842116
11.189305 -5.362330 -140.843482
11.210220 -5.258670 -140.844848
11.231135 -5.155010 -140.846214
11.151099 -5.037505 -140.850003
11.172014 -4.933845 -140.851369
11.091977 -4.816341 -140.855158
11.112892 -4.712681 -140.856524
11.032855 -4.595176 -140.860314
11.053770 -4.491516 -140.861680
10.973734 -4.374012 -140.865469
10.994649 -4.270351 -140.866835
11.015564 -4.166691 -140.868201
10.935527 -4.049187 -140.871990
10.956442 -3.945527 -140.873356
10.977357 -3.841866 -140.874722
10.998273 -3.738206 -140.876088
10.918236 -3.620702 -140.879877
10.939151 -3.517042 -140.881243
10.960066 -3.413381 -140.882609
10.880029 -3.295877 -140.886398
10.900944 -3.192217 -140.887764
10.820908 -3.074712 -140.891553
10.740871 -2.957208 -140.895343
10.660834 -2.839703 -140.899132
10.319772 -2.473346 -140.912922
10.340687 -2.369685 -140.914288
10.361602 -2.266025 -140.915654
10.382517 -2.162365 -140.917020
10.403432 -2.058705 -140.918386
10.424347 -1.955045 -140.919752
10.445263 -1.851385 -140.921118
10.365226 -1.733880 -140.924907
10.386141 -1.630220 -140.926273
10.306104 -1.512715 -140.930063
10.327019 -1.409055 -140.931429
10.347934 -1.305395 -140.932795
10.368850 -1.201735 -140.934161
10.288813 -1.084230 -140.937950
10.309728 -0.980570 -140.939316
10.330643 -0.876910 -140.940682
10.351558 -0.773250 -140.942048
10.372473 -0.669590 -140.943414
10.393388 -0.565930 -140.944780
10.414304 -0.462270 -140.946146
10.334267 -0.344765 -140.949935
10.355182 -0.241105 -140.951301
10.275145 -0.123600 -140.955090
10.296060 -0.019940 -140.956456
10.216023 0.097564 -140.960245
10.035035 0.228913 -140.966458
9.753094 0.374106 -140.975093
9.774009 0.477766 -140.976459
9.693973 0.595271 -140.980248
9.714888 0.698931 -140.981614
9.634851 0.816435 -140.985403
9.453862 0.947784 -140.991616
9.373825 1.065289 -140.995405
9.394741 1.168949 -140.996771
9.415656 1.272609 -140.998137
9.436571 1.376269 -140.999503
9.457486 1.479929 -141.000869
9.579353 1.569745 -140.999812
9.600268 1.673405 -141.001178
9.621183 1.777066 -141.002544
9.642098 1.880726 -141.003910
9.663013 1.984386 -141.005276
9.582977 2.101890 -141.009065
9.603892 2.205551 -141.010431
9.624807 2.309211 -141.011797
9.544770 2.426715 -141.015586
9.464733 2.544220 -141.019375
9.485649 2.647880 -141.020741
9.405612 2.765384 -141.024530
9.325575 2.882889 -141.028319
9.144586 3.014238 -141.034532
11.051964 -7.566331 -140.842363
11.206945 -7.389128 -140.838883
11.267577 -7.250412 -140.837825
11.328209 -7.111695 -140.836768
11.388841 -6.972979 -140.835711
11.355124 -6.872749 -140.837077
11.415757 -6.734033 -140.836020
11.476389 -6.595317 -140.834963
11.442672 -6.495087 -140.836329
11.503304 -6.356370 -140.835272
11.563936 -6.217654 -140.834215
11.530219 -6.117424 -140.835581
11.590851 -5.978708 -140.834524
11.557134 -5.878478 -140.835890
11.617766 -5.739762 -140.834833
11.584049 -5.639532 -140.836199
11.550332 -5.539302 -140.837565
11.610964 -5.400586 -140.836508
11.671596 -5.261869 -140.835450
11.637879 -5.161639 -140.836816
11.698511 -5.022923 -140.835759
11.664794 -4.922693 -140.837125
11.631077 -4.822463 -140.838491
11.597360 -4.722233 -140.839857
11.563643 -4.622003 -140.841223
11.529926 -4.521773 -140.842589
11.590559 -4.383057 -140.841532
11.556842 -4.282827 -140.842898
11.617474 -4.144111 -140.841841
11.583757 -4.043881 -140.843207
11.644389 -3.905165 -140.842150
11.610672 -3.804935 -140.843516
11.576955 -3.704705 -140.844882
11.543238 -3.604475 -140.846248
11.509521 -3.504245 -140.847614
11.570153 -3.365529 -140.846557
11.536436 -3.265299 -140.847923
11.502719 -3.165069 -140.849289
11.469002 -3.064839 -140.850655
11.435285 -2.964609 -140.852021
11.401568 -2.864379 -140.853387
11.367851 -2.764149 -140.854753
11.334134 -2.663919 -140.856119
11.300417 -2.563689 -140.857485
11.266700 -2.463459 -140.858851
11.232983 -2.363229 -140.860217
11.293615 -2.224513 -140.859160
11.259898 -2.124283 -140.860526
11.226181 -2.024053 -140.861892
11.192464 -1.923823 -140.863258
11.253096 -1.785107 -140.862201
11.219379 -1.684877 -140.863567
11.185662 -1.584647 -140.864933
11.151945 -1.484417 -140.866299
11.118228 -1.384187 -140.867665
11.084511 -1.283957 -140.869031
11.050794 -1.183728 -140.870397
11.017077 -1.083498 -140.871763
10.983360 -0.983268 -140.873129
10.949643 -0.883038 -140.874495
11.010275 -0.744322 -140.873438
10.976558 -0.644092 -140.874804
10.942841 -0.543862 -140.876170
10.909124 -0.443632 -140.877536
10.875407 -0.343402 -140.878902
10.841690 -0.243172 -140.880268
10.807973 -0.142942 -140.881634
10.774256 -0.042712 -140.883000
10.834888 0.096004 -140.881943
10.801171 0.196234 -140.883309
10.767454 0.296464 -140.884675
10.733737 0.396694 -140.886041
10.794369 0.535410 -140.884984
10.760652 0.635640 -140.886350
10.726935 0.735870 -140.887716
10.693218 0.836100 -140.889082
10.659501 0.936330 -140.890448
10.625784 1.036560 -140.891814
10.592067 1.136790 -140.893180
10.558350 1.237020 -140.894546
10.618983 1.375736 -140.893489
10.490916 1.437480 -140.897278
10.457199 1.537710 -140.898644
10.423482 1.637939 -140.900010
10.389765 1.738169 -140.901376
10.356048 1.838399 -140.902742
10.322331 1.938629 -140.904108
10.288614 2.038859 -140.905474
10.254897 2.139089 -140.906840
10.221180 2.239319 -140.908206
10.187463 2.339549 -140.909572
10.153746 2.439779 -140.910938
10.120029 2.540009 -140.912304
10.086312 2.640239 -140.913670
10.052595 2.740469 -140.915036
10.018878 2.840699 -140.916402
9.985161 2.940928 -140.917768
9.951444 3.041158 -140.919134
9.917727 3.141388 -140.920500
9.884010 3.241618 -140.921866
9.755944 3.303362 -140.925656
9.722227 3.403592 -140.927022
9.688510 3.503822 -140.928388
9.654793 3.604052 -140.929754
9.526727 3.665795 -140.933543
9.493010 3.766025 -140.934909
9.459293 3.866255 -140.936275
9.425576 3.966485 -140.937641
9.391859 4.066715 -140.939007
9.358142 4.166945 -140.940373
9.324425 4.267175 -140.941739
9.290708 4.367405 -140.943105
9.162642 4.429148 -140.946894
9.128925 4.529378 -140.948260
9.095208 4.629608 -140.949626
9.061491 4.729838 -140.950992
8.933425 4.791581 -140.954781
8.899708 4.891811 -140.956147
8.865991 4.992041 -140.957513
8.832274 5.092271 -140.958879
8.704208 5.154015 -140.962668
8.670491 5.254245 -140.964034
8.542425 5.315988 -140.967824
8.508708 5.416218 -140.969190
8.474991 5.516448 -140.970556
8.346925 5.578192 -140.974345
8.030160 5.562962 -140.982980
7.996443 5.663192 -140.984346
7.962726 5.763422 -140.985712
7.929009 5.863652 -140.987078
7.800943 5.925396 -140.990867
7.767226 6.025626 -140.992233
7.733509 6.125856 -140.993599
7.605443 6.187599 -140.997389
7.477377 6.249343 -141.001178
10.393093 3.076289 -140.878545
10.376243 3.226737 -140.877488
10.359394 3.377185 -140.876431
10.280079 3.447128 -140.877797
10.263230 3.597576 -140.876740
10.183915 3.667519 -140.878106
10.104600 3.737463 -140.879472
10.025286 3.807406 -140.880838
10.008436 3.957854 -140.879781
9.929122 4.027797 -140.881147
9.849807 4.097740 -140.882513
9.832958 4.248188 -140.881456
9.753643 4.318131 -140.882822
9.736794 4.468579 -140.881765
9.657479 4.538522 -140.883131
9.640630 4.688970 -140.882073
9.561315 4.758913 -140.883440
9.482000 4.828856 -140.884806
9.465151 4.979304 -140.883748
9.385836 5.049248 -140.885114
9.306521 5.119191 -140.886480
9.289672 5.269639 -140.885423
9.210357 5.339582 -140.886789
9.131042 5.409525 -140.888155
9.051727 5.479468 -140.889521
8.972413 5.549411 -140.890887
8.893098 5.619354 -140.892253
8.876249 5.769802 -140.891196
8.796934 5.839746 -140.892562
8.717619 5.909689 -140.893928
8.638304 5.979632 -140.895294
8.558989 6.049575 -140.896660
8.479675 6.119518 -140.898026
8.462825 6.269966 -140.896969
8.383511 6.339909 -140.898335
8.304196 6.409852 -140.899701
8.224881 6.479796 -140.901067
8.145566 6.549739 -140.902433
8.066251 6.619682 -140.903799
7.986937 6.689625 -140.905165
7.970087 6.840073 -140.904108
7.890773 6.910016 -140.905474
7.811458 6.979959 -140.906840
7.732143 7.049902 -140.908206
7.652828 7.119846 -140.909572
7.573513 7.189789 -140.910938
7.431733 7.179227 -140.914727
7.352418 7.249170 -140.916094
7.273104 7.319114 -140.917460
7.193789 7.389057 -140.918826
7.114474 7.459000 -140.920192
7.035159 7.528943 -140.921558
6.893379 7.518381 -140.925347
6.814064 7.588325 -140.926713
6.734749 7.658268 -140.928079
6.592969 7.647706 -140.931868
6.513654 7.717649 -140.933234
6.434339 7.787592 -140.934600
6.355025 7.857536 -140.935966
6.213244 7.846974 -140.939755
6.133929 7.916917 -140.941121
5.992149 7.906355 -140.944910
5.912834 7.976299 -140.946276
5.708588 7.885232 -140.952489
5.566808 7.874671 -140.956278
5.425028 7.864109 -140.960067
5.283247 7.853547 -140.963856
5.203933 7.923490 -140.965222
5.062152 7.912929 -140.969011
4.920372 7.902367 -140.972800
4.778592 7.891806 -140.976589
4.636811 7.881244 -140.980379
4.495031 7.870682 -140.984168
4.353251 7.860121 -140.987957
4.211470 7.849559 -140.991746
4.069690 7.838997 -140.995535
3.990375 7.908941 -140.996901
3.848595 7.898379 -141.000690
3.706815 7.887817 -141.004479
3.377638 7.635741 -141.015538
3.298323 7.705685 -141.016904
3.156543 7.695123 -141.020693
3.014762 7.684561 -141.024482
2.935447 7.754504 -141.025848
2.793667 7.743943 -141.029637
8.858053 5.607960 -140.902728
8.782082 5.830779 -140.899248
8.692266 5.952646 -140.898191
8.588606 5.973561 -140.899557
8.498790 6.095428 -140.898500
8.395130 6.116343 -140.899866
8.291470 6.137258 -140.901232
8.187809 6.158174 -140.902598
8.097994 6.280041 -140.901541
8.008178 6.401908 -140.900484
7.904518 6.422823 -140.901850
7.814702 6.544690 -140.900793
7.724886 6.666557 -140.899735
7.635070 6.788424 -140.898678
7.559099 7.011243 -140.895198
7.469283 7.133110 -140.894141
7.379467 7.254977 -140.893084
7.289651 7.376844 -140.892027
7.185991 7.397759 -140.893393
7.082331 7.418674 -140.894759
6.992515 7.540541 -140.893702
6.888855 7.561456 -140.895068
6.799039 7.683324 -140.894011
6.723067 7.906142 -140.890530
6.619407 7.927058 -140.891896
6.529591 8.048925 -140.890839
6.425931 8.069840 -140.892205
6.322271 8.090755 -140.893571
6.232455 8.212622 -140.892514
6.128795 8.233537 -140.893880
6.025135 8.254452 -140.895246
5.935319 8.376319 -140.894189
5.831659 8.397234 -140.895555
5.727999 8.418150 -140.896921
5.624339 8.439065 -140.898287
5.520679 8.459980 -140.899653
5.417018 8.480895 -140.901019
5.313358 8.501810 -140.902385
5.209698 8.522725 -140.903751
5.106038 8.543640 -140.905117
5.002378 8.564555 -140.906483
4.884873 8.484519 -140.910272
4.781213 8.505434 -140.911638
4.677553 8.526349 -140.913004
4.573893 8.547264 -140.914370
4.456388 8.467227 -140.918160
4.352728 8.488142 -140.919526
4.249068 8.509058 -140.920892
4.145408 8.529973 -140.922258
4.041748 8.550888 -140.923624
3.938088 8.571803 -140.924990
3.834427 8.592718 -140.926356
3.730767 8.613633 -140.927722
3.627107 8.634548 -140.929088
3.509603 8.554512 -140.932877
3.405942 8.575427 -140.934243
3.288438 8.495390 -140.938032
3.184778 8.516305 -140.939398
3.081118 8.537220 -140.940764
2.963613 8.457183 -140.944553
2.859953 8.478098 -140.945919
2.742448 8.398062 -140.949708
2.611100 8.217073 -140.955921
2.507439 8.237988 -140.957287
2.403779 8.258903 -140.958653
2.300119 8.279818 -140.960019
2.182615 8.199782 -140.963808
2.078955 8.220697 -140.965174
1.975294 8.241612 -140.966540
1.871634 8.262527 -140.967906
1.767974 8.283442 -140.969272
1.650470 8.203405 -140.973061
1.546809 8.224320 -140.974427
1.443149 8.245236 -140.975793
1.339489 8.266151 -140.977159
1.235829 8.287066 -140.978525
1.118324 8.207029 -140.982314
1.014664 8.227944 -140.983680
0.911004 8.248859 -140.985046
0.807344 8.269774 -140.986412
0.689839 8.189738 -140.990201
0.586179 8.210653 -140.991567
0.468675 8.130616 -140.995357
0.351170 8.050579 -140.999146
0.219822 7.869591 -141.005358
5.021270 8.908265 -140.912421
4.921040 8.874548 -140.913787
4.782323 8.935180 -140.912730
4.682093 8.901463 -140.914096
4.581864 8.867746 -140.915462
4.481634 8.834029 -140.916828
4.342917 8.894661 -140.915771
4.242687 8.860944 -140.917137
4.142457 8.827227 -140.918503
4.003741 8.887859 -140.917445
3.903511 8.854142 -140.918812
3.764795 8.914774 -140.917754
3.664565 8.881057 -140.919120
3.564335 8.847340 -140.920486
3.464105 8.813623 -140.921852
3.325389 8.874255 -140.920795
3.225159 8.840538 -140.922161
3.124929 8.806821 -140.923527
3.024699 8.773104 -140.924893
2.885983 8.833736 -140.923836
2.785753 8.800019 -140.925202
2.685523 8.766302 -140.926568
2.585293 8.732585 -140.927934
2.485063 8.698868 -140.929300
2.346347 8.759500 -140.928243
2.246117 8.725783 -140.929609
2.145887 8.692066 -140.930975
2.007171 8.752698 -140.929918
1.906941 8.718981 -140.931284
1.806711 8.685264 -140.932650
1.706481 8.651547 -140.934016
1.606251 8.617830 -140.935382
1.506021 8.584113 -140.936748
1.367305 8.644746 -140.935691
1.267075 8.611029 -140.937057
1.166845 8.577312 -140.938423
1.066615 8.543595 -140.939789
0.966385 8.509878 -140.941155
0.866155 8.476161 -140.942521
0.765925 8.442444 -140.943887
0.665695 8.408727 -140.945253
0.565465 8.375010 -140.946619
0.465235 8.341293 -140.947985
0.365006 8.307576 -140.949351
0.264776 8.273859 -140.950717
0.164546 8.240142 -140.952083
0.025829 8.300774 -140.951026
-0.074401 8.267057 -140.952392
-0.174630 8.233340 -140.953758
-0.274860 8.199623 -140.955124
-0.375090 8.165906 -140.956490
-0.475320 8.132189 -140.957856
-0.575550 8.098472 -140.959222
-0.675780 8.064755 -140.960588
-0.776010 8.031038 -140.961954
-0.876240 7.997321 -140.963320
-0.976470 7.963604 -140.964686
-1.076700 7.929887 -140.966052
-1.176930 7.896170 -140.967418
-1.277160 7.862453 -140.968784
-1.338903 7.734387 -140.972574
-1.439133 7.700670 -140.973940
-1.539363 7.666953 -140.975306
-1.639593 7.633236 -140.976672
-1.739823 7.599519 -140.978038
-1.840053 7.565802 -140.979404
-1.940283 7.532085 -140.980770
-2.040513 7.498368 -140.982136
-2.140743 7.464651 -140.983502
-2.240972 7.430934 -140.984868
-2.302716 7.302867 -140.988657
-2.402946 7.269150 -140.990023
-2.503176 7.235433 -140.991389
-2.564919 7.107367 -140.995178
-2.626663 6.979301 -140.998967
-2.726893 6.945584 -141.000333
-2.788636 6.817518 -141.004122
-2.850380 6.689452 -141.007911
-2.950610 6.655735 -141.009277
-3.012353 6.527669 -141.013067
-3.074097 6.399603 -141.016856
-3.174327 6.365886 -141.018222
-3.274557 6.332169 -141.019588
-3.374787 6.298452 -141.020954
-3.436530 6.170386 -141.024743
-3.498274 6.042320 -141.028532
-3.521531 5.819904 -141.034744
-3.583275 5.691838 -141.038533
-3.645018 5.563772 -141.042323
-3.745248 5.530055 -141.043689
-3.845478 5.496338 -141.045055
-3.945708 5.462621 -141.046421
-4.045938 5.428904 -141.047787
-4.146168 5.395187 -141.049153
-4.246398 5.361470 -141.050519
-4.346628 5.327753 -141.051885
-4.408371 5.199687 -141.055674
-4.508601 5.165970 -141.057040
-4.570345 5.037904 -141.060829
-4.670575 5.004187 -141.062195
-4.732318 4.876121 -141.065984
-4.832548 4.842404 -141.067350
-1.612647 8.055150 -140.953840
-1.763095 8.038301 -140.952783
-1.913543 8.021452 -140.951726
-2.063990 8.004603 -140.950669
-2.133933 7.925288 -140.952035
-2.203877 7.845974 -140.953401
-2.354324 7.829124 -140.952344
-2.424268 7.749810 -140.953710
-2.494211 7.670495 -140.955076
-2.644659 7.653646 -140.954019
-2.714602 7.574331 -140.955385
-2.784545 7.495017 -140.956751
-2.854488 7.415702 -140.958117
-2.924431 7.336387 -140.959483
-2.994374 7.257073 -140.960849
-3.144822 7.240223 -140.959792
-3.214765 7.160909 -140.961158
-3.284709 7.081594 -140.962524
-3.354652 7.002279 -140.963890
-3.424595 6.922965 -140.965256
-3.494538 6.843650 -140.966622
-3.564481 6.764335 -140.967988
-3.634424 6.685021 -140.969354
-3.704368 6.605706 -140.970720
-3.774311 6.526391 -140.972086
-3.924759 6.509542 -140.971029
-3.994702 6.430227 -140.972395
-4.064645 6.350913 -140.973761
-4.134588 6.271598 -140.975127
-4.204531 6.192283 -140.976493
-4.274474 6.112969 -140.977859
-4.344417 6.033654 -140.979225
-4.414361 5.954339 -140.980591
-4.484304 5.875025 -140.981957
-4.554247 5.795710 -140.983323
-4.624190 5.716395 -140.984689
-4.694133 5.637081 -140.986055
-4.764076 5.557766 -140.987421
-4.834020 5.478451 -140.988787
-4.903963 5.399136 -140.990153
-4.973906 5.319822 -140.991519
-5.043849 5.240507 -140.992885
-5.113792 5.161192 -140.994251
-5.183735 5.081878 -140.995617
-5.173174 4.940097 -140.999406
-5.243117 4.860783 -141.000772
-5.313060 4.781468 -141.002138
-5.302499 4.639688 -141.005928
-5.372442 4.560373 -141.007294
-5.442385 4.481059 -141.008660
-5.512328 4.401744 -141.010026
-5.582271 4.322429 -141.011392
-5.652214 4.243114 -141.012758
-5.641653 4.101334 -141.016547
-5.711596 4.022020 -141.017913
-5.701035 3.880239 -141.021702
-5.770978 3.800925 -141.023068
-5.840921 3.721610 -141.024434
-5.830359 3.579830 -141.028223
-5.900302 3.500515 -141.029589
-5.728732 3.233804 -141.038225
-5.718170 3.092023 -141.042014
-5.707609 2.950243 -141.045803
-5.697047 2.808463 -141.049592
-5.469629 5.430174 -140.965826
-5.591496 5.340358 -140.964769
-5.612411 5.236698 -140.966135
-5.734278 5.146882 -140.965078
-5.755193 5.043222 -140.966444
-5.776108 4.939561 -140.967810
-5.797024 4.835901 -140.969176
-5.817939 4.732241 -140.970542
-5.838854 4.628581 -140.971908
-5.859769 4.524921 -140.973274
-5.880684 4.421261 -140.974640
-6.002551 4.331445 -140.973583
-6.023466 4.227785 -140.974949
-6.145333 4.137969 -140.973891
-6.166248 4.034309 -140.975257
-6.187164 3.930648 -140.976623
-6.208079 3.826988 -140.977989
-6.228994 3.723328 -140.979356
-6.249909 3.619668 -140.980722
-6.270824 3.516008 -140.982088
-6.392691 3.426192 -140.981030
-6.413606 3.322532 -140.982396
-6.434521 3.218872 -140.983762
-6.455436 3.115212 -140.985128
-6.375400 2.997707 -140.988918
-6.396315 2.894047 -140.990284
-6.417230 2.790387 -140.991650
-6.438145 2.686727 -140.993016
-6.459060 2.583066 -140.994382
-6.379023 2.465562 -140.998171
-6.399939 2.361902 -140.999537
-6.420854 2.258242 -141.000903
-6.340817 2.140737 -141.004692
-6.361732 2.037077 -141.006058
-6.382647 1.933417 -141.007424
-6.403562 1.829757 -141.008790
-6.424477 1.726096 -141.010156
-6.445393 1.622436 -141.011522
-6.466308 1.518776 -141.012888
-6.487223 1.415116 -141.014254
-6.407186 1.297611 -141.018043
-6.428101 1.193951 -141.019409
-6.449016 1.090291 -141.020775
-6.469931 0.986631 -141.022141
-6.490847 0.882971 -141.023507
-6.511762 0.779311 -141.024873
-6.532677 0.675651 -141.026239
-6.452640 0.558146 -141.030028
-6.473555 0.454486 -141.031394
-6.494470 0.350826 -141.032761
-6.414434 0.233321 -141.036550
-6.435349 0.129661 -141.037916
-6.818395 1.998316 -140.983097
-6.879028 1.859600 -140.982039
-6.845311 1.759370 -140.983405
-6.905943 1.620653 -140.982348
-6.872226 1.520424 -140.983714
-7.027207 1.343221 -140.980234
-7.087839 1.204505 -140.979177
-7.148471 1.065788 -140.978120
-7.114754 0.965558 -140.979486
-7.175386 0.826842 -140.978429
-7.141669 0.726612 -140.979795
-7.107952 0.626382 -140.981161
-7.168584 0.487666 -140.980104
-7.134867 0.387436 -140.981470
-7.195499 0.248720 -140.980413
-7.161782 0.148490 -140.981779
-7.222415 0.009773 -140.980722
-7.188698 -0.090456 -140.982088
-7.154981 -0.190686 -140.983454
-7.121264 -0.290916 -140.984820
-7.087547 -0.391146 -140.986186
-7.053830 -0.491376 -140.987552
-7.114462 -0.630092 -140.986494
-7.080745 -0.730322 -140.987861
-7.047028 -0.830552 -140.989227
-7.013311 -0.930782 -140.990593
-6.979594 -1.031012 -140.991959
-6.945877 -1.131242 -140.993325
-6.912160 -1.231472 -140.994691
-6.878443 -1.331702 -140.996057
-6.844726 -1.431932 -140.997423
-6.811009 -1.532162 -140.998789
-6.777292 -1.632392 -141.000155
-6.743575 -1.732622 -141.001521
-6.709858 -1.832852 -141.002887
-6.676141 -1.933081 -141.004253
-6.548075 -1.994825 -141.008042
-6.514358 -2.095055 -141.009408
-6.480641 -2.195285 -141.010774
-6.446924 -2.295515 -141.012140
-6.413207 -2.395745 -141.013506
-6.379490 -2.495975 -141.014872
-6.345773 -2.596205 -141.016238
-6.312056 -2.696434 -141.017604
-6.278339 -2.796664 -141.018970
-6.244622 -2.896894 -141.020336
-6.210905 -2.997124 -141.021702
-6.082838 -3.058868 -141.025491
-6.049121 -3.159098 -141.026857
-6.015404 -3.259328 -141.028223
-5.981687 -3.359558 -141.029589
-5.947970 -3.459787 -141.030955
-5.914253 -3.560017 -141.032321
-5.880536 -3.660247 -141.033687
-5.846819 -3.760477 -141.035053
-5.813102 -3.860707 -141.036419
-5.779385 -3.960937 -141.037785
-5.745668 -4.061167 -141.039151
-5.711951 -4.161397 -141.040517
-5.678234 -4.261627 -141.041883
-5.644517 -4.361857 -141.043249
-5.516451 -4.423600 -141.047038
-5.482734 -4.523830 -141.048405
-5.449017 -4.624060 -141.049771
-5.415300 -4.724290 -141.051137
-5.381583 -4.824520 -141.052503
-5.253517 -4.886264 -141.056292
-5.219800 -4.986493 -141.057658
-5.186083 -5.086723 -141.059024
-5.152366 -5.186953 -141.060390
-5.118649 -5.287183 -141.061756
-4.990583 -5.348927 -141.065545
-4.956866 -5.449157 -141.066911
-4.923149 -5.549387 -141.068277
-4.889432 -5.649617 -141.069643
-4.855715 -5.749846 -141.071009
-4.821998 -5.850076 -141.072375
-4.693932 -5.911820 -141.076164
-4.660215 -6.012050 -141.077530
-4.532149 -6.073793 -141.081319
-4.498432 -6.174023 -141.082685
-4.370366 -6.235767 -141.086474
-4.336649 -6.335997 -141.087840
-4.302932 -6.436227 -141.089206
-4.363564 -6.574943 -141.088149
-4.329847 -6.675173 -141.089515
-4.296130 -6.775403 -141.090881
-4.168064 -6.837146 -141.094671
-4.134347 -6.937376 -141.096037
-4.100630 -7.037606 -141.097403
-3.972564 -7.099350 -141.101192
-3.938847 -7.199580 -141.102558
-3.810781 -7.261323 -141.106347
-3.777064 -7.361553 -141.107713
-3.648997 -7.423297 -141.111502
-3.615280 -7.523527 -141.112868
-3.581563 -7.623757 -141.114234
-3.547846 -7.723987 -141.115600
-3.514129 -7.824216 -141.116966
-3.480412 -7.924446 -141.118332
-3.352346 -7.986190 -141.122121
-3.224280 -8.047933 -141.125910
-3.096214 -8.109677 -141.129700
-2.968148 -8.171421 -141.133489
-2.840082 -8.233164 -141.137278
-2.712016 -8.294908 -141.141067
-2.583950 -8.356651 -141.144856
-2.550233 -8.456881 -141.146222
-2.516516 -8.557111 -141.147588
-2.482799 -8.657341 -141.148954
-2.449082 -8.757571 -141.150320
-2.321016 -8.819314 -141.154109
-2.192949 -8.881058 -141.157898
-5.235576 -5.726145 -140.986234
-5.156261 -5.796088 -140.987600
-5.139412 -5.946536 -140.986543
-5.060098 -6.016479 -140.987909
-4.980783 -6.086422 -140.989275
-4.901468 -6.156366 -140.990641
-4.822153 -6.226309 -140.992007
-4.805304 -6.376757 -140.990950
-4.850921 -6.607709 -140.987469
-4.834072 -6.758157 -140.986412
-4.754757 -6.828100 -140.987778
-4.737908 -6.978548 -140.986721
-4.658593 -7.048491 -140.988087
-4.579278 -7.118434 -140.989453
-4.562429 -7.268882 -140.988396
-4.483115 -7.338825 -140.989762
-4.466265 -7.489273 -140.988705
-4.386951 -7.559216 -140.990071
-4.307636 -7.629159 -140.991437
-4.228321 -7.699103 -140.992803
-4.211472 -7.849550 -140.991746
-4.132158 -7.919494 -140.993112
-4.052843 -7.989437 -140.994478
-3.973528 -8.059380 -140.995844
-3.894213 -8.129323 -140.997210
-3.877364 -8.279771 -140.996153
-3.798050 -8.349714 -140.997519
-3.718735 -8.419657 -140.998885
-3.639420 -8.489600 -141.000251
-3.560106 -8.559543 -141.001617
-3.480791 -8.629487 -141.002983
-3.401476 -8.699430 -141.004349
-3.322162 -8.769373 -141.005715
-3.242847 -8.839316 -141.007081
-3.163532 -8.909259 -141.008447
-3.084217 -8.979202 -141.009813
-3.004903 -9.049146 -141.011179
-2.925588 -9.119089 -141.012545
-2.846273 -9.189032 -141.013911
-2.766959 -9.258975 -141.015277
-2.687644 -9.328918 -141.016643
-2.608329 -9.398861 -141.018009
-2.529015 -9.468805 -141.019375
-2.449700 -9.538748 -141.020741
-2.370385 -9.608691 -141.022107
-2.291071 -9.678634 -141.023473
-2.211756 -9.748577 -141.024839
-2.132441 -9.818520 -141.026205
-2.053127 -9.888463 -141.027571
-1.973812 -9.958407 -141.028937
-1.894497 -10.028350 -141.030303
-1.752717 -10.017788 -141.034092
-1.673402 -10.087731 -141.035458
-1.594088 -10.157675 -141.036824
-1.514773 -10.227618 -141.038190
-1.435458 -10.297561 -141.039556
-1.356144 -10.367504 -141.040923
-1.276829 -10.437447 -141.042289
-1.197514 -10.507390 -141.043655
-1.118199 -10.577334 -141.045021
-1.038885 -10.647277 -141.046387
-0.959570 -10.717220 -141.047753
-0.880255 -10.787163 -141.049119
-0.738475 -10.776601 -141.052908
-0.659160 -10.846545 -141.054274
-0.579846 -10.916488 -141.055640
-0.500531 -10.986431 -141.057006
-0.421216 -11.056374 -141.058372
-0.279436 -11.045813 -141.062161
-0.200122 -11.115756 -141.063527
-0.120807 -11.185699 -141.064893
0.020973 -11.175137 -141.068682
0.100288 -11.245080 -141.070048
0.242068 -11.234519 -141.073837
0.321383 -11.304462 -141.075203
0.525629 -11.213396 -141.081416
0.854806 -10.961320 -141.092474
-4.352384 -6.932033 -140.953140
-4.262568 -7.053900 -140.952083
-4.172752 -7.175768 -140.951026
-4.152158 -7.802394 -140.937853
-4.062342 -7.924261 -140.936796
-3.958682 -7.945176 -140.938162
-3.868866 -8.067043 -140.937105
-3.779050 -8.188910 -140.936048
-3.675390 -8.209826 -140.937414
-3.585574 -8.331693 -140.936357
-3.495758 -8.453560 -140.935300
-3.405942 -8.575427 -140.934243
-3.316127 -8.697294 -140.933186
-3.226311 -8.819161 -140.932129
-3.136495 -8.941028 -140.931072
-3.032835 -8.961943 -140.932438
-2.929175 -8.982858 -140.933804
-2.839359 -9.104725 -140.932746
-2.735699 -9.125640 -140.934112
-2.645883 -9.247507 -140.933055
-2.556067 -9.369374 -140.931998
-2.480095 -9.592193 -140.928518
-2.390280 -9.714060 -140.927461
-2.300464 -9.835927 -140.926404
-2.196804 -9.856842 -140.927770
-2.120832 -10.079661 -140.924290
-2.017172 -10.100577 -140.925656
-1.927356 -10.222444 -140.924599
-1.837540 -10.344311 -140.923541
-1.733880 -10.365226 -140.924907
-1.644064 -10.487093 -140.923850
-1.554248 -10.608960 -140.922793
-1.450588 -10.629875 -140.924159
-1.360772 -10.751742 -140.923102
-1.257112 -10.772657 -140.924468
-1.167296 -10.894524 -140.923411
-1.063636 -10.915439 -140.924777
-0.973820 -11.037306 -140.923720
-0.870160 -11.058222 -140.925086
-0.766500 -11.079137 -140.926452
-0.676684 -11.201004 -140.925395
-0.573024 -11.221919 -140.926761
-0.469364 -11.242834 -140.928127
-0.365704 -11.263749 -140.929493
-0.262044 -11.284664 -140.930859
-0.158384 -11.305579 -140.932225
-0.054723 -11.326495 -140.933591
0.048937 -11.347410 -140.934957
0.152597 -11.368325 -140.936323
0.256257 -11.389240 -140.937689
0.359917 -11.410155 -140.939055
0.463577 -11.431070 -140.940421
0.567238 -11.451985 -140.941787
0.670898 -11.472900 -140.943153
0.774558 -11.493816 -140.944519
0.878218 -11.514731 -140.945885
0.968034 -11.636598 -140.944828
1.071694 -11.657513 -140.946194
1.175354 -11.678428 -140.947560
1.279014 -11.699343 -140.948926
1.396519 -11.619306 -140.952715
1.500179 -11.640221 -140.954081
1.603839 -11.661137 -140.955447
1.707499 -11.682052 -140.956813
1.811160 -11.702967 -140.958179
1.914820 -11.723882 -140.959545
2.018480 -11.744797 -140.960911
2.122140 -11.765712 -140.962277
2.225800 -11.786627 -140.963643
2.329460 -11.807543 -140.965009
2.433120 -11.828458 -140.966375
2.536781 -11.849373 -140.967741
2.640441 -11.870288 -140.969107
2.744101 -11.891203 -140.970473
2.847761 -11.912118 -140.971839
2.951421 -11.933033 -140.973205
3.068926 -11.852997 -140.976995
3.172586 -11.873912 -140.978361
3.276246 -11.894827 -140.979727
3.393751 -11.814790 -140.983516
3.497411 -11.835705 -140.984882
3.601071 -11.856620 -140.986248
3.718575 -11.776583 -140.990037
3.822236 -11.797499 -140.991403
3.925896 -11.818414 -140.992769
4.043400 -11.738377 -140.996558
4.160905 -11.658340 -141.000347
4.292253 -11.477351 -141.006559
4.409758 -11.397315 -141.010349
4.513418 -11.418230 -141.011715
4.630923 -11.338193 -141.015504
4.734583 -11.359108 -141.016870
4.852087 -11.279071 -141.020659
5.038813 -10.694275 -141.036564
5.142474 -10.715190 -141.037930
5.246134 -10.736105 -141.039296
5.363638 -10.656069 -141.043085
5.467298 -10.676984 -141.044451
5.570959 -10.697899 -141.045817
5.674619 -10.718814 -141.047183
5.778279 -10.739729 -141.048549
5.895783 -10.659692 -141.052338
5.999443 -10.680607 -141.053704
6.116948 -10.600571 -141.057493
6.234452 -10.520534 -141.061282
6.393490 -10.137641 -141.072341
6.510994 -10.057605 -141.076130
6.614655 -10.078520 -141.077496
6.746003 -9.897531 -141.083708
0.049490 -11.279719 -140.869519
0.188206 -11.340351 -140.868461
0.365409 -11.495332 -140.864981
0.504125 -11.555964 -140.863924
0.604355 -11.522247 -140.865290
0.743071 -11.582879 -140.864233
0.843301 -11.549162 -140.865599
0.982018 -11.609794 -140.864542
1.120734 -11.670427 -140.863485
1.259450 -11.731059 -140.862428
1.359680 -11.697342 -140.863794
1.498396 -11.757974 -140.862737
1.598626 -11.724257 -140.864103
1.737343 -11.784889 -140.863046
1.876059 -11.845521 -140.861988
2.053262 -12.000502 -140.858508
2.191978 -12.061134 -140.857451
2.292208 -12.027417 -140.858817
2.392438 -11.993700 -140.860183
2.492668 -11.959983 -140.861549
2.592898 -11.926266 -140.862915
2.731614 -11.986899 -140.861858
2.831844 -11.953182 -140.863224
2.932074 -11.919465 -140.864590
3.032304 -11.885748 -140.865956
3.171020 -11.946380 -140.864899
3.271250 -11.912663 -140.866265
3.371480 -11.878946 -140.867631
3.471710 -11.845229 -140.868997
3.571940 -11.811512 -140.870363
3.672170 -11.777795 -140.871729
3.772400 -11.744078 -140.873095
3.872629 -11.710361 -140.874461
3.972859 -11.676644 -140.875827
4.111576 -11.737276 -140.874770
4.211806 -11.703559 -140.876136
4.312036 -11.669842 -140.877502
4.412265 -11.636125 -140.878868
4.512495 -11.602408 -140.880234
4.612725 -11.568691 -140.881600
4.712955 -11.534974 -140.882966
4.813185 -11.501257 -140.884332
4.913415 -11.467540 -140.885698
5.013645 -11.433823 -140.887064
5.113875 -11.400106 -140.888430
5.214105 -11.366389 -140.889796
5.314335 -11.332672 -140.891162
5.414565 -11.298955 -140.892528
5.514795 -11.265238 -140.893894
5.615025 -11.231521 -140.895260
5.715254 -11.197804 -140.896626
5.815484 -11.164087 -140.897992
5.915714 -11.130370 -140.899358
6.015944 -11.096653 -140.900724
6.116174 -11.062936 -140.902090
6.216404 -11.029219 -140.903456
6.278148 -10.901153 -140.907245
6.378378 -10.867436 -140.908612
6.478607 -10.833719 -140.909978
6.578837 -10.800002 -140.911344
6.679067 -10.766285 -140.912710
6.779297 -10.732568 -140.914076
6.879527 -10.698851 -140.915442
6.979757 -10.665134 -140.916808
7.041501 -10.537068 -140.920597
7.141731 -10.503351 -140.921963
7.241960 -10.469634 -140.923329
7.342190 -10.435917 -140.924695
7.403934 -10.307850 -140.928484
7.504164 -10.274133 -140.929850
7.604394 -10.240416 -140.931216
7.666137 -10.112350 -140.935005
7.766367 -10.078633 -140.936371
7.828111 -9.950567 -140.940160
7.928341 -9.916850 -140.941526
7.990084 -9.788784 -140.945315
8.051828 -9.660718 -140.949105
8.113571 -9.532652 -140.952894
8.059856 -9.121538 -140.963952
8.160086 -9.087821 -140.965318
8.260316 -9.054104 -140.966684
8.360546 -9.020387 -140.968050
8.422289 -8.892321 -140.971839
8.522519 -8.858604 -140.973205
8.622749 -8.824887 -140.974571
8.722979 -8.791170 -140.975937
8.784722 -8.663104 -140.979727
8.884952 -8.629387 -140.981093
8.946696 -8.501321 -140.984882
9.046926 -8.467604 -140.986248
9.108669 -8.339538 -140.990037
9.170413 -8.211472 -140.993826
9.270643 -8.177755 -140.995192
9.332386 -8.049689 -140.998981
9.394130 -7.921623 -141.002770
9.455873 -7.793557 -141.006559
9.479131 -7.571141 -141.012772
9.540874 -7.443075 -141.016561
9.602618 -7.315009 -141.020350
9.664361 -7.186943 -141.024139
9.726105 -7.058877 -141.027928
