ply
format ascii 1.0
element vertex 1144
property float x
property float y
property float z
element face 0
property list uchar uint vertex_indices
end_header
3.272962 -12.015135 -139.834441
3.584419 -12.123217 -139.828538
3.734867 -12.106367 -139.827481
3.885315 -12.089518 -139.826424
4.035762 -12.072669 -139.825367
4.186210 -12.055820 -139.824310
4.336658 -12.038971 -139.823253
4.406601 -11.959656 -139.824619
4.557049 -11.942807 -139.823561
4.626992 -11.863492 -139.824927
4.777440 -11.846643 -139.823870
4.847383 -11.767329 -139.825236
4.997831 -11.750479 -139.824179
5.148279 -11.733630 -139.823122
5.379231 -11.779247 -139.819642
5.449175 -11.699932 -139.821008
5.599622 -11.683083 -139.819951
5.750070 -11.666234 -139.818894
5.820013 -11.586919 -139.820260
5.889957 -11.507604 -139.821626
6.040404 -11.490755 -139.820569
6.110348 -11.411440 -139.821935
6.260795 -11.394591 -139.820878
6.411243 -11.377742 -139.819820
6.481186 -11.298428 -139.821186
6.631634 -11.281578 -139.820129
6.701577 -11.202264 -139.821495
6.771521 -11.122949 -139.822861
6.841464 -11.043634 -139.824227
6.911407 -10.964320 -139.825593
6.981350 -10.885005 -139.826959
7.131798 -10.868156 -139.825902
7.201741 -10.788841 -139.827268
7.352189 -10.771992 -139.826211
7.422132 -10.692677 -139.827577
7.572580 -10.675828 -139.826520
7.642523 -10.596513 -139.827886
7.712466 -10.517199 -139.829252
7.862914 -10.500350 -139.828195
7.932857 -10.421035 -139.829561
8.083305 -10.404186 -139.828504
8.153248 -10.324871 -139.829870
8.223191 -10.245556 -139.831236
8.293134 -10.166242 -139.832602
8.363078 -10.086927 -139.833968
8.433021 -10.007612 -139.835334
8.583469 -9.990763 -139.834277
8.653412 -9.911449 -139.835643
8.723355 -9.832134 -139.837009
8.793298 -9.752819 -139.838375
8.863241 -9.673504 -139.839741
9.013689 -9.656655 -139.838684
9.083632 -9.577341 -139.840050
9.153575 -9.498026 -139.841416
9.223519 -9.418711 -139.842782
9.293462 -9.339397 -139.844148
9.363405 -9.260082 -139.845514
9.433348 -9.180767 -139.846880
9.503291 -9.101453 -139.848246
9.573234 -9.022138 -139.849612
9.643178 -8.942823 -139.850978
9.632616 -8.801043 -139.854767
9.702559 -8.721728 -139.856133
9.772502 -8.642414 -139.857499
9.842445 -8.563099 -139.858865
9.831884 -8.421319 -139.862654
9.901827 -8.342004 -139.864020
9.971770 -8.262689 -139.865386
10.041713 -8.183375 -139.866752
10.111657 -8.104060 -139.868118
10.181600 -8.024745 -139.869484
10.171038 -7.882965 -139.873274
10.240981 -7.803650 -139.874640
10.310925 -7.724336 -139.876006
10.300363 -7.582555 -139.879795
10.370306 -7.503241 -139.881161
10.440249 -7.423926 -139.882527
10.510192 -7.344611 -139.883893
10.499631 -7.202831 -139.887682
10.569574 -7.123516 -139.889048
10.559013 -6.981736 -139.892837
10.548451 -6.839956 -139.896626
10.537890 -6.698176 -139.900415
10.527328 -6.556396 -139.904205
10.597271 -6.477081 -139.905571
10.586710 -6.335301 -139.909360
10.656653 -6.255986 -139.910726
10.646091 -6.114206 -139.914515
10.635530 -5.972425 -139.918304
10.544464 -5.768180 -139.924516
10.533902 -5.626399 -139.928305
10.523340 -5.484619 -139.932095
10.512779 -5.342839 -139.935884
10.502217 -5.201059 -139.939673
10.491656 -5.059279 -139.943462
10.400590 -4.855033 -139.949674
10.390028 -4.713253 -139.953463
10.379467 -4.571472 -139.957253
10.449410 -4.492158 -139.958619
10.438848 -4.350377 -139.962408
10.267277 -4.083666 -139.971043
10.256716 -3.941886 -139.974832
10.326659 -3.862571 -139.976198
10.316097 -3.720791 -139.979987
10.305536 -3.579011 -139.983776
10.294974 -3.437231 -139.987566
10.203908 -3.232985 -139.993778
6.783973 -11.256426 -139.835272
6.905840 -11.166610 -139.834215
7.027707 -11.076794 -139.833158
7.149574 -10.986978 -139.832101
7.170489 -10.883318 -139.833467
7.494260 -10.821191 -139.827563
7.717079 -10.745219 -139.824083
7.838946 -10.655404 -139.823026
7.859861 -10.551744 -139.824392
7.981728 -10.461928 -139.823335
8.002643 -10.358268 -139.824701
8.124510 -10.268452 -139.823644
8.246377 -10.178636 -139.822587
8.772052 -10.144197 -139.811837
8.893919 -10.054381 -139.810780
8.914834 -9.950721 -139.812146
9.036701 -9.860906 -139.811089
9.057616 -9.757245 -139.812455
9.179483 -9.667430 -139.811398
9.200399 -9.563769 -139.812764
9.322266 -9.473954 -139.811707
9.343181 -9.370293 -139.813073
9.364096 -9.266633 -139.814439
9.385011 -9.162973 -139.815805
9.506878 -9.073157 -139.814748
9.527793 -8.969497 -139.816114
9.548708 -8.865837 -139.817480
9.670575 -8.776021 -139.816422
9.691491 -8.672361 -139.817788
9.813358 -8.582545 -139.816731
9.834273 -8.478885 -139.818097
9.956140 -8.389069 -139.817040
9.977055 -8.285409 -139.818406
10.098922 -8.195593 -139.817349
10.321741 -8.119622 -139.813869
10.443608 -8.029806 -139.812812
10.565475 -7.939990 -139.811755
10.586390 -7.836330 -139.813121
10.607305 -7.732670 -139.814487
10.628220 -7.629009 -139.815853
10.649135 -7.525349 -139.817219
10.670051 -7.421689 -139.818585
10.791918 -7.331873 -139.817528
10.812833 -7.228213 -139.818894
10.833748 -7.124553 -139.820260
10.955615 -7.034737 -139.819203
10.976530 -6.931077 -139.820569
10.997445 -6.827417 -139.821935
11.018360 -6.723757 -139.823301
11.039276 -6.620096 -139.824667
11.161143 -6.530281 -139.823610
11.182058 -6.426621 -139.824976
11.102021 -6.309116 -139.828765
11.122936 -6.205456 -139.830131
11.143851 -6.101796 -139.831497
11.164766 -5.998136 -139.832863
11.084730 -5.880631 -139.836652
11.105645 -5.776971 -139.838018
11.126560 -5.673311 -139.839384
11.147475 -5.569651 -139.840750
11.168390 -5.465990 -139.842116
11.189305 -5.362330 -139.843482
11.210220 -5.258670 -139.844848
11.130184 -5.141166 -139.848637
11.151099 -5.037505 -139.850003
11.071062 -4.920001 -139.853792
11.091977 -4.816341 -139.855158
11.011940 -4.698836 -139.858948
11.032855 -4.595176 -139.860314
10.952819 -4.477672 -139.864103
10.973734 -4.374012 -139.865469
10.893697 -4.256507 -139.869258
10.914612 -4.152847 -139.870624
10.834575 -4.035342 -139.874413
10.855490 -3.931682 -139.875779
10.876406 -3.828022 -139.877145
10.897321 -3.724362 -139.878511
10.817284 -3.606857 -139.882300
10.838199 -3.503197 -139.883666
10.758162 -3.385693 -139.887455
10.678125 -3.268188 -139.891244
10.699041 -3.164528 -139.892610
10.719956 -3.060868 -139.893976
10.740871 -2.957208 -139.895343
10.660834 -2.839703 -139.899132
10.681749 -2.736043 -139.900498
10.702664 -2.632383 -139.901864
10.622628 -2.514879 -139.905653
10.643543 -2.411218 -139.907019
10.664458 -2.307558 -139.908385
10.685373 -2.203898 -139.909751
10.605336 -2.086394 -139.913540
10.626251 -1.982733 -139.914906
10.546214 -1.865229 -139.918695
10.567130 -1.761569 -139.920061
10.487093 -1.644064 -139.923850
10.407056 -1.526560 -139.927639
10.327019 -1.409055 -139.931429
10.347934 -1.305395 -139.932795
10.267898 -1.187891 -139.936584
10.288813 -1.084230 -139.937950
10.309728 -0.980570 -139.939316
10.330643 -0.876910 -139.940682
10.250606 -0.759406 -139.944471
10.271521 -0.655746 -139.945837
10.292436 -0.552085 -139.947203
10.212400 -0.434581 -139.950992
10.233315 -0.330921 -139.952358
10.254230 -0.227261 -139.953724
10.275145 -0.123600 -139.955090
10.195108 -0.006096 -139.958879
10.216023 0.097564 -139.960245
10.135987 0.215069 -139.964034
10.156902 0.318729 -139.965400
10.076865 0.436233 -139.969190
9.996828 0.553738 -139.972979
9.512984 0.726620 -139.986460
9.533899 0.830280 -139.987826
9.453862 0.947784 -139.991616
9.474777 1.051444 -139.992982
9.495692 1.155105 -139.994348
9.516608 1.258765 -139.995714
9.537523 1.362425 -139.997080
9.558438 1.466085 -139.998446
9.478401 1.583590 -140.002235
9.499316 1.687250 -140.003601
9.520231 1.790910 -140.004967
9.440195 1.908414 -140.008756
9.461110 2.012075 -140.010122
9.482025 2.115735 -140.011488
9.401988 2.233239 -140.015277
9.422903 2.336899 -140.016643
9.342866 2.454404 -140.020432
9.060926 2.599597 -140.029068
9.081841 2.703257 -140.030434
9.001804 2.820762 -140.034223
9.022719 2.924422 -140.035589
8.942682 3.041926 -140.039378
8.357886 3.228652 -140.055283
8.378801 3.332313 -140.056649
8.298764 3.449817 -140.060438
10.148992 -8.390601 -139.863553
10.209624 -8.251884 -139.862496
10.742001 -7.920736 -139.849323
10.802634 -7.782020 -139.848266
10.768917 -7.681790 -139.849632
10.829549 -7.543074 -139.848575
10.890181 -7.404357 -139.847518
11.045162 -7.227155 -139.844038
11.105794 -7.088438 -139.842981
11.449474 -6.834263 -139.834654
11.415757 -6.734033 -139.836020
11.476389 -6.595317 -139.834963
11.442672 -6.495087 -139.836329
11.503304 -6.356370 -139.835272
11.563936 -6.217654 -139.834215
11.530219 -6.117424 -139.835581
11.590851 -5.978708 -139.834524
11.557134 -5.878478 -139.835890
11.523417 -5.778248 -139.837256
11.584049 -5.639532 -139.836199
11.550332 -5.539302 -139.837565
11.516615 -5.439072 -139.838931
11.577247 -5.300356 -139.837874
11.543530 -5.200126 -139.839240
11.509813 -5.099896 -139.840606
11.476096 -4.999666 -139.841972
11.442379 -4.899436 -139.843338
11.503011 -4.760720 -139.842281
11.469294 -4.660490 -139.843647
11.435577 -4.560260 -139.845013
11.401860 -4.460030 -139.846379
11.368143 -4.359800 -139.847745
11.428775 -4.221084 -139.846687
11.489408 -4.082367 -139.845630
11.550040 -3.943651 -139.844573
11.516323 -3.843421 -139.845939
11.482606 -3.743191 -139.847305
11.448889 -3.642961 -139.848671
11.509521 -3.504245 -139.847614
11.475804 -3.404015 -139.848980
11.442087 -3.303785 -139.850346
11.408370 -3.203555 -139.851712
11.374653 -3.103325 -139.853078
11.340936 -3.003095 -139.854444
11.307219 -2.902865 -139.855810
11.273502 -2.802636 -139.857176
11.334134 -2.663919 -139.856119
11.300417 -2.563689 -139.857485
11.266700 -2.463459 -139.858851
11.232983 -2.363229 -139.860217
11.199266 -2.263000 -139.861583
11.259898 -2.124283 -139.860526
11.226181 -2.024053 -139.861892
11.192464 -1.923823 -139.863258
11.064398 -1.862080 -139.867047
11.125030 -1.723364 -139.865990
11.091313 -1.623134 -139.867356
11.057596 -1.522904 -139.868722
11.023879 -1.422674 -139.870088
10.990162 -1.322444 -139.871454
11.050794 -1.183728 -139.870397
11.017077 -1.083498 -139.871763
10.983360 -0.983268 -139.873129
10.949643 -0.883038 -139.874495
10.915926 -0.782808 -139.875861
10.882209 -0.682578 -139.877227
10.942841 -0.543862 -139.876170
10.814775 -0.482118 -139.879959
10.781058 -0.381888 -139.881325
10.747341 -0.281658 -139.882691
10.807973 -0.142942 -139.881634
10.774256 -0.042712 -139.883000
10.740539 0.057518 -139.884366
10.706822 0.157748 -139.885732
10.767454 0.296464 -139.884675
10.733737 0.396694 -139.886041
10.700020 0.496924 -139.887407
10.666303 0.597154 -139.888773
10.632586 0.697384 -139.890139
10.693218 0.836100 -139.889082
10.659501 0.936330 -139.890448
10.625784 1.036560 -139.891814
10.592067 1.136790 -139.893180
10.558350 1.237020 -139.894546
10.524633 1.337250 -139.895912
10.490916 1.437480 -139.897278
10.457199 1.537710 -139.898644
10.423482 1.637939 -139.900010
10.389765 1.738169 -139.901376
10.356048 1.838399 -139.902742
10.322331 1.938629 -139.904108
10.288614 2.038859 -139.905474
10.254897 2.139089 -139.906840
10.221180 2.239319 -139.908206
10.187463 2.339549 -139.909572
10.153746 2.439779 -139.910938
10.120029 2.540009 -139.912304
10.086312 2.640239 -139.913670
10.052595 2.740469 -139.915036
10.018878 2.840699 -139.916402
9.985161 2.940928 -139.917768
9.951444 3.041158 -139.919134
9.917727 3.141388 -139.920500
9.789661 3.203132 -139.924290
9.755944 3.303362 -139.925656
9.722227 3.403592 -139.927022
9.688510 3.503822 -139.928388
9.654793 3.604052 -139.929754
9.526727 3.665795 -139.933543
9.493010 3.766025 -139.934909
9.459293 3.866255 -139.936275
9.425576 3.966485 -139.937641
9.391859 4.066715 -139.939007
9.358142 4.166945 -139.940373
9.230076 4.228688 -139.944162
9.196359 4.328918 -139.945528
9.162642 4.429148 -139.946894
9.128925 4.529378 -139.948260
9.095208 4.629608 -139.949626
8.967142 4.691351 -139.953415
8.933425 4.791581 -139.954781
8.899708 4.891811 -139.956147
8.771642 4.953555 -139.959936
8.737925 5.053785 -139.961302
8.609859 5.115528 -139.965092
8.576142 5.215758 -139.966458
8.448076 5.277502 -139.970247
8.320010 5.339245 -139.974036
10.256244 2.383431 -139.888986
10.239395 2.533879 -139.887929
10.160080 2.603822 -139.889295
10.080765 2.673765 -139.890661
10.001450 2.743708 -139.892027
9.984601 2.894156 -139.890970
9.905286 2.964100 -139.892336
10.138299 3.436567 -139.881586
10.058984 3.506510 -139.882952
9.979669 3.576453 -139.884318
9.962820 3.726901 -139.883261
9.883505 3.796844 -139.884627
9.804191 3.866787 -139.885993
9.787341 4.017235 -139.884936
9.708027 4.087178 -139.886302
9.628712 4.157121 -139.887668
9.611862 4.307569 -139.886611
9.532548 4.377513 -139.887977
9.515698 4.527961 -139.886920
9.498849 4.678408 -139.885863
9.482000 4.828856 -139.884806
9.402685 4.898800 -139.886172
9.385836 5.049248 -139.885114
9.306521 5.119191 -139.886480
9.227206 5.189134 -139.887846
9.147892 5.259077 -139.889212
9.068577 5.329020 -139.890578
8.989262 5.398963 -139.891945
8.972413 5.549411 -139.890887
8.893098 5.619354 -139.892253
8.813783 5.689298 -139.893619
8.734468 5.759241 -139.894985
8.717619 5.909689 -139.893928
8.638304 5.979632 -139.895294
8.558989 6.049575 -139.896660
8.479675 6.119518 -139.898026
8.400360 6.189461 -139.899392
8.321045 6.259404 -139.900758
8.241730 6.329348 -139.902124
8.162416 6.399291 -139.903490
8.083101 6.469234 -139.904856
8.003786 6.539177 -139.906222
7.924471 6.609120 -139.907589
7.845156 6.679063 -139.908955
7.828307 6.829511 -139.907897
7.748992 6.899455 -139.909263
7.669678 6.969398 -139.910629
7.590363 7.039341 -139.911995
7.511048 7.109284 -139.913361
7.431733 7.179227 -139.914727
7.289953 7.168666 -139.918517
7.210638 7.238609 -139.919883
7.131323 7.308552 -139.921249
7.052008 7.378495 -139.922615
6.972694 7.448438 -139.923981
6.893379 7.518381 -139.925347
6.814064 7.588325 -139.926713
6.672284 7.577763 -139.930502
6.592969 7.647706 -139.931868
6.513654 7.717649 -139.933234
6.434339 7.787592 -139.934600
6.355025 7.857536 -139.935966
6.275710 7.927479 -139.937332
6.196395 7.997422 -139.938698
6.054615 7.986860 -139.942487
5.975300 8.056803 -139.943853
5.895985 8.126747 -139.945219
5.754205 8.116185 -139.949008
5.612424 8.105623 -139.952797
5.283247 7.853547 -139.963856
5.141467 7.842986 -139.967645
5.062152 7.912929 -139.969011
4.920372 7.902367 -139.972800
4.778592 7.891806 -139.976589
4.699277 7.961749 -139.977955
4.557497 7.951187 -139.981745
4.415716 7.940626 -139.985534
4.273936 7.930064 -139.989323
3.944759 7.677988 -140.000381
3.865444 7.747931 -140.001747
3.723664 7.737369 -140.005536
3.644349 7.807313 -140.006902
3.502569 7.796751 -140.010692
3.423254 7.866694 -140.012058
3.281474 7.856133 -140.015847
3.139693 7.845571 -140.019636
3.060378 7.915514 -140.021002
2.918598 7.904952 -140.024791
7.662759 6.990328 -139.893832
7.572943 7.112195 -139.892775
7.483127 7.234062 -139.891718
7.393311 7.355929 -139.890661
7.289651 7.376844 -139.892027
7.199835 7.498711 -139.890970
7.096175 7.519626 -139.892336
7.006359 7.641493 -139.891279
6.902699 7.662408 -139.892645
6.826728 7.885227 -139.889164
6.736912 8.007094 -139.888107
6.633252 8.028010 -139.889473
6.529591 8.048925 -139.890839
6.412087 7.968888 -139.894628
6.322271 8.090755 -139.893571
6.218611 8.111670 -139.894937
6.128795 8.233537 -139.893880
6.025135 8.254452 -139.895246
5.921475 8.275367 -139.896612
5.831659 8.397234 -139.895555
5.727999 8.418150 -139.896921
5.624339 8.439065 -139.898287
5.520679 8.459980 -139.899653
5.417018 8.480895 -139.901019
5.313358 8.501810 -139.902385
5.209698 8.522725 -139.903751
5.106038 8.543640 -139.905117
5.002378 8.564555 -139.906483
4.884873 8.484519 -139.910272
4.781213 8.505434 -139.911638
4.677553 8.526349 -139.913004
4.573893 8.547264 -139.914370
4.470233 8.568179 -139.915736
4.352728 8.488142 -139.919526
4.249068 8.509058 -139.920892
4.145408 8.529973 -139.922258
4.041748 8.550888 -139.923624
3.938088 8.571803 -139.924990
3.834427 8.592718 -139.926356
3.730767 8.613633 -139.927722
3.627107 8.634548 -139.929088
3.509603 8.554512 -139.932877
3.405942 8.575427 -139.934243
3.302282 8.596342 -139.935609
3.184778 8.516305 -139.939398
3.081118 8.537220 -139.940764
2.977457 8.558135 -139.942130
2.873797 8.579050 -139.943496
2.756293 8.499014 -139.947285
2.652633 8.519929 -139.948651
2.535128 8.439892 -139.952440
2.417624 8.359855 -139.956230
2.313963 8.380770 -139.957596
2.210303 8.401685 -139.958962
2.106643 8.422601 -139.960328
1.989139 8.342564 -139.964117
1.871634 8.262527 -139.967906
1.767974 8.283442 -139.969272
1.664314 8.304357 -139.970638
1.560654 8.325272 -139.972004
1.456994 8.346188 -139.973370
1.339489 8.266151 -139.977159
1.235829 8.287066 -139.978525
1.118324 8.207029 -139.982314
1.000820 8.126992 -139.986103
0.897160 8.147907 -139.987469
0.779655 8.067871 -139.991258
0.675995 8.088786 -139.992625
0.558491 8.008749 -139.996414
0.454830 8.029664 -139.997780
0.323482 7.848675 -140.003992
0.205977 7.768639 -140.007781
0.088473 7.688602 -140.011570
5.352418 8.375887 -139.925593
5.213701 8.436519 -139.924536
5.113472 8.402802 -139.925902
4.820810 8.840831 -139.915153
4.682093 8.901463 -139.914096
4.581864 8.867746 -139.915462
4.443147 8.928378 -139.914405
4.342917 8.894661 -139.915771
4.242687 8.860944 -139.917137
4.103971 8.921576 -139.916079
4.003741 8.887859 -139.917445
3.865025 8.948491 -139.916388
3.764795 8.914774 -139.917754
3.626079 8.975406 -139.916697
3.525849 8.941689 -139.918063
3.425619 8.907972 -139.919429
3.325389 8.874255 -139.920795
3.186673 8.934887 -139.919738
3.086443 8.901170 -139.921104
2.986213 8.867453 -139.922470
2.885983 8.833736 -139.923836
2.785753 8.800019 -139.925202
2.647037 8.860651 -139.924145
2.546807 8.826934 -139.925511
2.446577 8.793217 -139.926877
2.346347 8.759500 -139.928243
2.246117 8.725783 -139.929609
2.145887 8.692066 -139.930975
2.007171 8.752698 -139.929918
1.906941 8.718981 -139.931284
1.806711 8.685264 -139.932650
1.706481 8.651547 -139.934016
1.606251 8.617830 -139.935382
1.506021 8.584113 -139.936748
1.405791 8.550396 -139.938114
1.305561 8.516679 -139.939480
1.166845 8.577312 -139.938423
1.066615 8.543595 -139.939789
0.966385 8.509878 -139.941155
0.866155 8.476161 -139.942521
0.765925 8.442444 -139.943887
0.665695 8.408727 -139.945253
0.565465 8.375010 -139.946619
0.465235 8.341293 -139.947985
0.365006 8.307576 -139.949351
0.264776 8.273859 -139.950717
0.164546 8.240142 -139.952083
0.064316 8.206425 -139.953449
-0.035914 8.172708 -139.954815
-0.174630 8.233340 -139.953758
-0.274860 8.199623 -139.955124
-0.375090 8.165906 -139.956490
-0.475320 8.132189 -139.957856
-0.575550 8.098472 -139.959222
-0.675780 8.064755 -139.960588
-0.776010 8.031038 -139.961954
-0.837754 7.902972 -139.965743
-0.937983 7.869255 -139.967109
-1.038213 7.835538 -139.968476
-1.138443 7.801821 -139.969842
-1.238673 7.768104 -139.971208
-1.338903 7.734387 -139.972574
-1.439133 7.700670 -139.973940
-1.500877 7.572603 -139.977729
-1.601107 7.538886 -139.979095
-1.701336 7.505169 -139.980461
-1.801566 7.471452 -139.981827
-1.901796 7.437735 -139.983193
-2.002026 7.404018 -139.984559
-2.102256 7.370301 -139.985925
-2.202486 7.336584 -139.987291
-2.264230 7.208518 -139.991080
-2.364460 7.174801 -139.992446
-2.464689 7.141084 -139.993812
-2.526433 7.013018 -139.997601
-2.626663 6.979301 -139.998967
-2.688406 6.851235 -140.002756
-2.788636 6.817518 -140.004122
-2.850380 6.689452 -140.007911
-2.912124 6.561386 -140.011701
-2.973867 6.433320 -140.015490
-3.035611 6.305254 -140.019279
-3.135841 6.271537 -140.020645
-3.197584 6.143471 -140.024434
-3.297814 6.109754 -140.025800
-3.359558 5.981687 -140.029589
-3.459787 5.947970 -140.030955
-3.521531 5.819904 -140.034744
-3.621761 5.786187 -140.036110
-3.721991 5.752470 -140.037476
-3.783734 5.624404 -140.041266
-3.845478 5.496338 -140.045055
-3.907222 5.368272 -140.048844
-4.007451 5.334555 -140.050210
-4.069195 5.206489 -140.053999
-4.169425 5.172772 -140.055365
-4.269655 5.139055 -140.056731
-4.331398 5.010989 -140.060520
-4.393142 4.882923 -140.064309
-4.454885 4.754857 -140.068098
-4.516629 4.626790 -140.071888
-4.578373 4.498724 -140.075677
-1.101922 8.326793 -139.951857
-1.252370 8.309944 -139.950800
-1.322313 8.230629 -139.952166
-1.392256 8.151314 -139.953532
-1.542704 8.134465 -139.952474
-1.612647 8.055150 -139.953840
-1.763095 8.038301 -139.952783
-1.913543 8.021452 -139.951726
-2.063990 8.004603 -139.950669
-2.133933 7.925288 -139.952035
-2.203877 7.845974 -139.953401
-2.273820 7.766659 -139.954767
-2.343763 7.687344 -139.956133
-2.494211 7.670495 -139.955076
-2.564154 7.591180 -139.956442
-2.634097 7.511866 -139.957808
-2.704040 7.432551 -139.959174
-2.773983 7.353236 -139.960540
-2.924431 7.336387 -139.959483
-2.994374 7.257073 -139.960849
-3.064318 7.177758 -139.962215
-3.134261 7.098443 -139.963581
-3.204204 7.019128 -139.964947
-3.354652 7.002279 -139.963890
-3.424595 6.922965 -139.965256
-3.494538 6.843650 -139.966622
-3.564481 6.764335 -139.967988
-3.634424 6.685021 -139.969354
-3.704368 6.605706 -139.970720
-3.774311 6.526391 -139.972086
-3.844254 6.447077 -139.973452
-3.994702 6.430227 -139.972395
-4.064645 6.350913 -139.973761
-4.134588 6.271598 -139.975127
-4.204531 6.192283 -139.976493
-4.274474 6.112969 -139.977859
-4.344417 6.033654 -139.979225
-4.414361 5.954339 -139.980591
-4.484304 5.875025 -139.981957
-4.554247 5.795710 -139.983323
-4.704695 5.778861 -139.982266
-4.774638 5.699546 -139.983632
-4.844581 5.620231 -139.984998
-4.914524 5.540917 -139.986364
-4.984467 5.461602 -139.987730
-5.054411 5.382287 -139.989096
-5.124354 5.302973 -139.990462
-5.113792 5.161192 -139.994251
-5.183735 5.081878 -139.995617
-5.253679 5.002563 -139.996983
-5.323622 4.923248 -139.998349
-5.393565 4.843934 -139.999715
-5.383003 4.702153 -140.003504
-5.452946 4.622839 -140.004871
-5.522890 4.543524 -140.006237
-5.592833 4.464209 -140.007603
-5.662776 4.384895 -140.008969
-5.732719 4.305580 -140.010335
-5.802662 4.226265 -140.011701
-5.872605 4.146951 -140.013067
-5.862044 4.005170 -140.016856
-5.851482 3.863390 -140.020645
-5.840921 3.721610 -140.024434
-5.830359 3.579830 -140.028223
-5.900302 3.500515 -140.029589
-5.889741 3.358735 -140.033378
-5.959684 3.279420 -140.034744
-5.949123 3.137640 -140.038533
-5.938561 2.995860 -140.042323
-5.347762 5.519989 -139.966883
-5.368677 5.416329 -139.968249
-5.490544 5.326513 -139.967192
-5.511459 5.222853 -139.968558
-5.532374 5.119193 -139.969924
-5.654241 5.029377 -139.968867
-5.675156 4.925717 -139.970233
-5.696072 4.822057 -139.971599
-5.716987 4.718397 -139.972965
-5.838854 4.628581 -139.971908
-5.960721 4.538765 -139.970850
-5.981636 4.435105 -139.972217
-6.002551 4.331445 -139.973583
-6.124418 4.241629 -139.972525
-6.145333 4.137969 -139.973891
-6.166248 4.034309 -139.975257
-6.187164 3.930648 -139.976623
-6.309031 3.840833 -139.975566
-6.329946 3.737172 -139.976932
-6.350861 3.633512 -139.978298
-6.371776 3.529852 -139.979664
-6.392691 3.426192 -139.981030
-6.413606 3.322532 -139.982396
-6.434521 3.218872 -139.983762
-6.455436 3.115212 -139.985128
-6.476352 3.011551 -139.986494
-6.396315 2.894047 -139.990284
-6.417230 2.790387 -139.991650
-6.438145 2.686727 -139.993016
-6.459060 2.583066 -139.994382
-6.479975 2.479406 -139.995748
-6.500890 2.375746 -139.997114
-6.420854 2.258242 -140.000903
-6.441769 2.154581 -140.002269
-6.462684 2.050921 -140.003635
-6.382647 1.933417 -140.007424
-6.403562 1.829757 -140.008790
-6.323526 1.712252 -140.012579
-6.344441 1.608592 -140.013945
-6.365356 1.504932 -140.015311
-6.285319 1.387427 -140.019100
-6.306234 1.283767 -140.020466
-6.327149 1.180107 -140.021832
-6.348064 1.076447 -140.023198
-6.469931 0.986631 -140.022141
-6.490847 0.882971 -140.023507
-6.410810 0.765466 -140.027296
-6.431725 0.661806 -140.028662
-6.452640 0.558146 -140.030028
-6.473555 0.454486 -140.031394
-6.494470 0.350826 -140.032761
-6.515385 0.247166 -140.034127
-6.536301 0.143505 -140.035493
-6.557216 0.039845 -140.036859
-6.578131 -0.063815 -140.038225
-6.498094 -0.181319 -140.042014
-7.074528 2.121803 -139.975518
-7.135160 1.983087 -139.974461
-7.101443 1.882857 -139.975827
-7.162075 1.744141 -139.974770
-7.128358 1.643911 -139.976136
-7.094641 1.543681 -139.977502
-7.155273 1.404964 -139.976445
-7.215905 1.266248 -139.975388
-7.465235 1.050559 -139.969484
-7.525868 0.911843 -139.968427
-7.492151 0.811613 -139.969793
-7.552783 0.672897 -139.968736
-7.519066 0.572667 -139.970102
-7.485349 0.472437 -139.971468
-7.451632 0.372207 -139.972834
-7.417915 0.271977 -139.974200
-7.384198 0.171747 -139.975566
-7.350481 0.071517 -139.976932
-7.316764 -0.028713 -139.978298
-7.283047 -0.128943 -139.979664
-7.249330 -0.229173 -139.981030
-7.309962 -0.367889 -139.979973
-7.276245 -0.468119 -139.981339
-7.242528 -0.568349 -139.982705
-7.208811 -0.668579 -139.984071
-7.175094 -0.768809 -139.985437
-7.141377 -0.869039 -139.986803
-7.107660 -0.969269 -139.988169
-7.073943 -1.069499 -139.989535
-7.040226 -1.169728 -139.990901
-7.006509 -1.269958 -139.992267
-6.972792 -1.370188 -139.993633
-6.939075 -1.470418 -139.994999
-6.905358 -1.570648 -139.996366
-6.871641 -1.670878 -139.997732
-6.837924 -1.771108 -139.999098
-6.709858 -1.832852 -140.002887
-6.676141 -1.933081 -140.004253
-6.642424 -2.033311 -140.005619
-6.608707 -2.133541 -140.006985
-6.574990 -2.233771 -140.008351
-6.541273 -2.334001 -140.009717
-6.507556 -2.434231 -140.011083
-6.473839 -2.534461 -140.012449
-6.440122 -2.634691 -140.013815
-6.406405 -2.734921 -140.015181
-6.372688 -2.835151 -140.016547
-6.338971 -2.935381 -140.017913
-6.210905 -2.997124 -140.021702
-6.177188 -3.097354 -140.023068
-6.143471 -3.197584 -140.024434
-6.109754 -3.297814 -140.025800
-6.076037 -3.398044 -140.027166
-6.042320 -3.498274 -140.028532
-6.008603 -3.598504 -140.029898
-5.974886 -3.698734 -140.031264
-5.941169 -3.798964 -140.032630
-5.907452 -3.899194 -140.033996
-5.873735 -3.999423 -140.035362
-5.840018 -4.099653 -140.036728
-5.711951 -4.161397 -140.040517
-5.678234 -4.261627 -140.041883
-5.644517 -4.361857 -140.043249
-5.610800 -4.462087 -140.044615
-5.577083 -4.562317 -140.045981
-5.543366 -4.662547 -140.047347
-5.415300 -4.724290 -140.051137
-5.381583 -4.824520 -140.052503
-5.347866 -4.924750 -140.053869
-5.314149 -5.024980 -140.055235
-5.280432 -5.125210 -140.056601
-5.246715 -5.225440 -140.057967
-5.212998 -5.325670 -140.059333
-5.084932 -5.387413 -140.063122
-5.051215 -5.487643 -140.064488
-5.017498 -5.587873 -140.065854
-4.889432 -5.649617 -140.069643
-4.855715 -5.749846 -140.071009
-4.821998 -5.850076 -140.072375
-4.788281 -5.950306 -140.073741
-4.754564 -6.050536 -140.075107
-4.720847 -6.150766 -140.076473
-4.687130 -6.250996 -140.077839
-4.653413 -6.351226 -140.079205
-4.619696 -6.451456 -140.080571
-4.585979 -6.551686 -140.081937
-4.457913 -6.613429 -140.085726
-4.424196 -6.713659 -140.087092
-4.296130 -6.775403 -140.090881
-4.262413 -6.875633 -140.092247
-4.228696 -6.975863 -140.093613
-4.100630 -7.037606 -140.097403
-4.066913 -7.137836 -140.098769
-3.938847 -7.199580 -140.102558
-3.905130 -7.299810 -140.103924
-3.777064 -7.361553 -140.107713
-3.743347 -7.461783 -140.109079
-3.709630 -7.562013 -140.110445
-3.581563 -7.623757 -140.114234
-3.547846 -7.723987 -140.115600
-3.419780 -7.785730 -140.119389
-3.291714 -7.847474 -140.123178
-3.069299 -7.870731 -140.129391
-2.941233 -7.932474 -140.133180
-5.009550 -6.467823 -139.984737
-4.992701 -6.618271 -139.983680
-4.975852 -6.768718 -139.982623
-4.896537 -6.838662 -139.983989
-4.817222 -6.908605 -139.985355
-4.737908 -6.978548 -139.986721
-4.658593 -7.048491 -139.988087
-4.579278 -7.118434 -139.989453
-4.562429 -7.268882 -139.988396
-4.483115 -7.338825 -139.989762
-4.403800 -7.408768 -139.991128
-4.386951 -7.559216 -139.990071
-4.307636 -7.629159 -139.991437
-4.228321 -7.699103 -139.992803
-4.149007 -7.769046 -139.994169
-4.069692 -7.838989 -139.995535
-3.990377 -7.908932 -139.996901
-3.973528 -8.059380 -139.995844
-3.894213 -8.129323 -139.997210
-3.814899 -8.199266 -139.998576
-3.735584 -8.269209 -139.999942
-3.656269 -8.339152 -140.001308
-3.576955 -8.409096 -140.002674
-3.497640 -8.479039 -140.004040
-3.418325 -8.548982 -140.005406
-3.401476 -8.699430 -140.004349
-3.322162 -8.769373 -140.005715
-3.242847 -8.839316 -140.007081
-3.163532 -8.909259 -140.008447
-3.084217 -8.979202 -140.009813
-3.004903 -9.049146 -140.011179
-2.925588 -9.119089 -140.012545
-2.846273 -9.189032 -140.013911
-2.766959 -9.258975 -140.015277
-2.687644 -9.328918 -140.016643
-2.608329 -9.398861 -140.018009
-2.529015 -9.468805 -140.019375
-2.449700 -9.538748 -140.020741
-2.370385 -9.608691 -140.022107
-2.291071 -9.678634 -140.023473
-2.211756 -9.748577 -140.024839
-2.132441 -9.818520 -140.026205
-2.053127 -9.888463 -140.027571
-1.973812 -9.958407 -140.028937
-1.894497 -10.028350 -140.030303
-1.815182 -10.098293 -140.031669
-1.735868 -10.168236 -140.033035
-1.656553 -10.238179 -140.034401
-1.577238 -10.308122 -140.035767
-1.497924 -10.378066 -140.037133
-1.356144 -10.367504 -140.040923
-1.276829 -10.437447 -140.042289
-1.197514 -10.507390 -140.043655
-1.118199 -10.577334 -140.045021
-1.038885 -10.647277 -140.046387
-0.959570 -10.717220 -140.047753
-0.817790 -10.706658 -140.051542
-0.738475 -10.776601 -140.052908
-0.659160 -10.846545 -140.054274
-0.517380 -10.835983 -140.058063
-0.438066 -10.905926 -140.059429
-0.358751 -10.975869 -140.060795
-0.216971 -10.965308 -140.064584
-0.137656 -11.035251 -140.065950
0.004124 -11.024690 -140.069739
0.145904 -11.014128 -140.073528
0.287685 -11.003566 -140.077318
0.366999 -11.073510 -140.078684
0.571245 -10.982443 -140.084896
0.713025 -10.971882 -140.088685
0.854806 -10.961320 -140.092474
0.996586 -10.950759 -140.096263
1.075901 -11.020702 -140.097629
1.217681 -11.010140 -140.101418
-3.046679 -9.062895 -139.930014
-2.956863 -9.184762 -139.928957
-2.867047 -9.306629 -139.927900
-2.777232 -9.428496 -139.926843
-2.673571 -9.449411 -139.928209
-2.583756 -9.571278 -139.927152
-2.480095 -9.592193 -139.928518
-2.390280 -9.714060 -139.927461
-2.300464 -9.835927 -139.926404
-2.196804 -9.856842 -139.927770
-2.106988 -9.978710 -139.926713
-2.017172 -10.100577 -139.925656
-1.927356 -10.222444 -139.924599
-1.851385 -10.445263 -139.921118
-1.761569 -10.567130 -139.920061
-1.657909 -10.588045 -139.921427
-1.568093 -10.709912 -139.920370
-1.464433 -10.730827 -139.921736
-1.360772 -10.751742 -139.923102
-1.270957 -10.873609 -139.922045
-1.167296 -10.894524 -139.923411
-1.077481 -11.016391 -139.922354
-0.973820 -11.037306 -139.923720
-0.870160 -11.058222 -139.925086
-0.780344 -11.180089 -139.924029
-0.676684 -11.201004 -139.925395
-0.573024 -11.221919 -139.926761
-0.469364 -11.242834 -139.928127
-0.365704 -11.263749 -139.929493
-0.262044 -11.284664 -139.930859
-0.158384 -11.305579 -139.932225
-0.054723 -11.326495 -139.933591
0.048937 -11.347410 -139.934957
0.152597 -11.368325 -139.936323
0.256257 -11.389240 -139.937689
0.359917 -11.410155 -139.939055
0.463577 -11.431070 -139.940421
0.567238 -11.451985 -139.941787
0.670898 -11.472900 -139.943153
0.760714 -11.594767 -139.942096
0.864374 -11.615683 -139.943462
0.968034 -11.636598 -139.944828
1.071694 -11.657513 -139.946194
1.175354 -11.678428 -139.947560
1.279014 -11.699343 -139.948926
1.396519 -11.619306 -139.952715
1.500179 -11.640221 -139.954081
1.603839 -11.661137 -139.955447
1.707499 -11.682052 -139.956813
1.811160 -11.702967 -139.958179
1.914820 -11.723882 -139.959545
2.018480 -11.744797 -139.960911
2.122140 -11.765712 -139.962277
2.225800 -11.786627 -139.963643
2.329460 -11.807543 -139.965009
2.433120 -11.828458 -139.966375
2.536781 -11.849373 -139.967741
2.640441 -11.870288 -139.969107
2.744101 -11.891203 -139.970473
2.847761 -11.912118 -139.971839
2.951421 -11.933033 -139.973205
3.068926 -11.852997 -139.976995
3.172586 -11.873912 -139.978361
3.276246 -11.894827 -139.979727
3.393751 -11.814790 -139.983516
3.497411 -11.835705 -139.984882
3.601071 -11.856620 -139.986248
3.746264 -11.574680 -139.994883
3.863769 -11.494643 -139.998672
3.967429 -11.515558 -140.000038
4.084933 -11.435521 -140.003827
4.202438 -11.355484 -140.007617
4.319942 -11.275448 -140.011406
4.437447 -11.195411 -140.015195
4.568795 -11.014422 -140.021407
4.686300 -10.934385 -140.025196
4.803804 -10.854349 -140.028985
4.921309 -10.774312 -140.032775
5.024969 -10.795227 -140.034141
5.142474 -10.715190 -140.037930
5.246134 -10.736105 -140.039296
5.349794 -10.757020 -140.040662
5.453454 -10.777936 -140.042028
5.570959 -10.697899 -140.045817
5.674619 -10.718814 -140.047183
5.778279 -10.739729 -140.048549
5.895783 -10.659692 -140.052338
5.999443 -10.680607 -140.053704
6.130792 -10.499619 -140.059916
6.303674 -10.015774 -140.073398
6.421179 -9.935738 -140.077187
6.538683 -9.855701 -140.080976
6.656188 -9.775664 -140.084765
-0.898267 -10.632879 -139.883131
-0.759551 -10.693511 -139.882073
-0.620834 -10.754143 -139.881016
-0.366659 -11.097822 -139.872690
-0.227943 -11.158455 -139.871633
-0.127713 -11.124738 -139.872999
0.011004 -11.185370 -139.871942
0.111233 -11.151653 -139.873308
0.249950 -11.212285 -139.872251
0.388666 -11.272917 -139.871194
0.527382 -11.333549 -139.870136
0.666099 -11.394181 -139.869079
0.804815 -11.454813 -139.868022
0.943531 -11.515445 -139.866965
1.082248 -11.576077 -139.865908
1.220964 -11.636710 -139.864851
1.321194 -11.602993 -139.866217
1.459910 -11.663625 -139.865160
1.598626 -11.724257 -139.864103
1.737343 -11.784889 -139.863046
1.876059 -11.845521 -139.861988
2.014775 -11.906153 -139.860931
2.153492 -11.966785 -139.859874
2.253721 -11.933068 -139.861240
2.392438 -11.993700 -139.860183
2.492668 -11.959983 -139.861549
2.592898 -11.926266 -139.862915
2.693128 -11.892549 -139.864281
2.831844 -11.953182 -139.863224
2.932074 -11.919465 -139.864590
3.032304 -11.885748 -139.865956
3.132534 -11.852031 -139.867322
3.232764 -11.818314 -139.868688
3.332993 -11.784597 -139.870054
3.433223 -11.750880 -139.871420
3.533453 -11.717163 -139.872786
3.633683 -11.683446 -139.874152
3.733913 -11.649729 -139.875518
3.872629 -11.710361 -139.874461
3.972859 -11.676644 -139.875827
4.073089 -11.642927 -139.877193
4.173319 -11.609210 -139.878559
4.273549 -11.575493 -139.879925
4.373779 -11.541776 -139.881291
4.512495 -11.602408 -139.880234
4.612725 -11.568691 -139.881600
4.712955 -11.534974 -139.882966
4.813185 -11.501257 -139.884332
4.913415 -11.467540 -139.885698
5.013645 -11.433823 -139.887064
5.113875 -11.400106 -139.888430
5.214105 -11.366389 -139.889796
5.314335 -11.332672 -139.891162
5.414565 -11.298955 -139.892528
5.514795 -11.265238 -139.893894
5.615025 -11.231521 -139.895260
5.715254 -11.197804 -139.896626
5.815484 -11.164087 -139.897992
5.915714 -11.130370 -139.899358
5.977458 -11.002304 -139.903147
6.077688 -10.968587 -139.904513
6.177918 -10.934870 -139.905879
6.278148 -10.901153 -139.907245
6.378378 -10.867436 -139.908612
6.478607 -10.833719 -139.909978
6.578837 -10.800002 -139.911344
6.640581 -10.671936 -139.915133
6.740811 -10.638219 -139.916499
6.841041 -10.604502 -139.917865
6.902784 -10.476435 -139.921654
7.003014 -10.442718 -139.923020
7.103244 -10.409001 -139.924386
7.203474 -10.375284 -139.925752
7.265218 -10.247218 -139.929541
7.365448 -10.213501 -139.930907
7.465677 -10.179784 -139.932273
7.565907 -10.146067 -139.933639
7.666137 -10.112350 -139.935005
7.727881 -9.984284 -139.938794
7.789624 -9.856218 -139.942583
7.851368 -9.728152 -139.946373
7.913111 -9.600086 -139.950162
8.013341 -9.566369 -139.951528
8.113571 -9.532652 -139.952894
8.175315 -9.404586 -139.956683
8.237058 -9.276520 -139.960472
8.298802 -9.148454 -139.964261
8.360546 -9.020387 -139.968050
8.422289 -8.892321 -139.971839
8.522519 -8.858604 -139.973205
8.584263 -8.730538 -139.976995
8.646006 -8.602472 -139.980784
8.707750 -8.474406 -139.984573
8.769493 -8.346340 -139.988362
8.869723 -8.312623 -139.989728
8.931467 -8.184557 -139.993517
8.993210 -8.056491 -139.997306
9.016467 -7.834075 -140.003519
9.078211 -7.706009 -140.007308
9.139954 -7.577943 -140.011097
9.201698 -7.449877 -140.014886
9.301928 -7.416160 -140.016252
9.402158 -7.382443 -140.017618
9.463901 -7.254377 -140.021407
9.525645 -7.126311 -140.025196
9.433443 -6.620848 -140.038678
9.495187 -6.492782 -140.042467
9.556930 -6.364716 -140.046256
9.618674 -6.236650 -140.050045
