ply
format ascii 1.0
element vertex 1091
property float x
property float y
property float z
element face 0
property list uchar uint vertex_indices
end_header
2.370275 -12.116230 -138.840784
2.520722 -12.099380 -138.839727
2.671170 -12.082531 -138.838670
2.982627 -12.190613 -138.832767
3.133075 -12.173764 -138.831709
3.283523 -12.156915 -138.830652
3.433971 -12.140066 -138.829595
3.584419 -12.123217 -138.828538
3.734867 -12.106367 -138.827481
3.885315 -12.089518 -138.826424
4.035762 -12.072669 -138.825367
4.186210 -12.055820 -138.824310
4.336658 -12.038971 -138.823253
4.406601 -11.959656 -138.824619
4.557049 -11.942807 -138.823561
4.707497 -11.925958 -138.822504
4.777440 -11.846643 -138.823870
4.847383 -11.767329 -138.825236
4.997831 -11.750479 -138.824179
5.067774 -11.671165 -138.825545
5.137717 -11.591850 -138.826911
5.207661 -11.512535 -138.828277
5.358108 -11.495686 -138.827220
5.428052 -11.416372 -138.828586
5.497995 -11.337057 -138.829952
5.648443 -11.320208 -138.828895
5.879395 -11.365824 -138.825415
6.029843 -11.348975 -138.824358
6.180291 -11.332126 -138.823301
6.250234 -11.252811 -138.824667
6.320177 -11.173496 -138.826033
6.470625 -11.156647 -138.824976
6.540568 -11.077333 -138.826342
6.610511 -10.998018 -138.827708
6.680454 -10.918703 -138.829074
6.830902 -10.901854 -138.828017
6.900845 -10.822539 -138.829383
7.051293 -10.805690 -138.828325
7.201741 -10.788841 -138.827268
7.271684 -10.709526 -138.828634
7.422132 -10.692677 -138.827577
7.492075 -10.613363 -138.828943
7.642523 -10.596513 -138.827886
7.712466 -10.517199 -138.829252
7.782409 -10.437884 -138.830618
7.932857 -10.421035 -138.829561
8.002800 -10.341720 -138.830927
8.072743 -10.262406 -138.832293
8.142687 -10.183091 -138.833659
8.212630 -10.103776 -138.835025
8.363078 -10.086927 -138.833968
8.433021 -10.007612 -138.835334
8.502964 -9.928298 -138.836700
8.572907 -9.848983 -138.838066
8.642850 -9.769668 -138.839432
8.793298 -9.752819 -138.838375
8.863241 -9.673504 -138.839741
8.933184 -9.594190 -138.841107
9.003128 -9.514875 -138.842473
9.073071 -9.435560 -138.843839
9.143014 -9.356246 -138.845205
9.212957 -9.276931 -138.846571
9.282900 -9.197616 -138.847937
9.352843 -9.118302 -138.849303
9.422787 -9.038987 -138.850669
9.492730 -8.959672 -138.852035
9.482168 -8.817892 -138.855824
9.552111 -8.738577 -138.857190
9.622054 -8.659263 -138.858556
9.611493 -8.517482 -138.862345
9.681436 -8.438168 -138.863712
9.751379 -8.358853 -138.865078
9.821322 -8.279538 -138.866444
9.891266 -8.200224 -138.867810
9.961209 -8.120909 -138.869176
10.031152 -8.041594 -138.870542
10.020590 -7.899814 -138.874331
10.090534 -7.820499 -138.875697
10.160477 -7.741185 -138.877063
10.230420 -7.661870 -138.878429
10.219858 -7.520090 -138.882218
10.289801 -7.440775 -138.883584
10.279240 -7.298995 -138.887373
10.268678 -7.157215 -138.891162
10.338622 -7.077900 -138.892528
10.328060 -6.936120 -138.896317
10.398003 -6.856805 -138.897683
10.387442 -6.715025 -138.901473
10.457385 -6.635710 -138.902839
10.446823 -6.493930 -138.906628
10.436262 -6.352150 -138.910417
10.506205 -6.272835 -138.911783
10.495643 -6.131055 -138.915572
10.485082 -5.989275 -138.919361
10.474520 -5.847494 -138.923150
10.463959 -5.705714 -138.926939
10.453397 -5.563934 -138.930729
10.362331 -5.359688 -138.936941
10.351770 -5.217908 -138.940730
10.341208 -5.076128 -138.944519
10.411151 -4.996813 -138.945885
10.400590 -4.855033 -138.949674
10.470533 -4.775718 -138.951040
10.298962 -4.509007 -138.959676
10.207896 -4.304761 -138.965888
10.197334 -4.162981 -138.969677
10.186773 -4.021201 -138.973466
8.204547 -10.385956 -138.819855
8.326414 -10.296140 -138.818797
8.347329 -10.192480 -138.820163
8.469196 -10.102664 -138.819106
8.692015 -10.026693 -138.815626
8.813882 -9.936877 -138.814569
8.834797 -9.833217 -138.815935
8.956665 -9.743401 -138.814878
9.078532 -9.653585 -138.813821
9.099447 -9.549925 -138.815187
9.120362 -9.446265 -138.816553
9.242229 -9.356449 -138.815496
9.263144 -9.252789 -138.816862
9.485963 -9.176817 -138.813382
9.607830 -9.087002 -138.812324
9.729697 -8.997186 -138.811267
9.750612 -8.893526 -138.812633
9.872479 -8.803710 -138.811576
9.893394 -8.700050 -138.812942
9.914309 -8.596389 -138.814308
10.036177 -8.506574 -138.813251
10.057092 -8.402913 -138.814617
10.178959 -8.313098 -138.813560
10.300826 -8.223282 -138.812503
10.321741 -8.119622 -138.813869
10.443608 -8.029806 -138.812812
10.464523 -7.926146 -138.814178
10.485438 -7.822485 -138.815544
10.506353 -7.718825 -138.816910
10.527268 -7.615165 -138.818276
10.649135 -7.525349 -138.817219
10.670051 -7.421689 -138.818585
10.791918 -7.331873 -138.817528
10.812833 -7.228213 -138.818894
10.833748 -7.124553 -138.820260
10.854663 -7.020893 -138.821626
10.976530 -6.931077 -138.820569
10.997445 -6.827417 -138.821935
11.018360 -6.723757 -138.823301
11.039276 -6.620096 -138.824667
11.060191 -6.516436 -138.826033
11.081106 -6.412776 -138.827399
11.102021 -6.309116 -138.828765
11.122936 -6.205456 -138.830131
11.042899 -6.087951 -138.833920
11.063814 -5.984291 -138.835286
11.084730 -5.880631 -138.836652
11.004693 -5.763127 -138.840441
11.025608 -5.659466 -138.841807
10.945571 -5.541962 -138.845596
10.966486 -5.438302 -138.846962
10.987401 -5.334642 -138.848328
11.008316 -5.230981 -138.849694
11.029232 -5.127321 -138.851060
11.050147 -5.023661 -138.852426
10.970110 -4.906157 -138.856215
10.890073 -4.788652 -138.860005
10.910988 -4.684992 -138.861371
10.931903 -4.581332 -138.862737
10.851867 -4.463827 -138.866526
10.872782 -4.360167 -138.867892
10.792745 -4.242663 -138.871681
10.712708 -4.125158 -138.875470
10.733623 -4.021498 -138.876836
10.653587 -3.903994 -138.880625
10.674502 -3.800333 -138.881991
10.695417 -3.696673 -138.883357
10.716332 -3.593013 -138.884723
10.737247 -3.489353 -138.886089
10.657210 -3.371848 -138.889878
10.577174 -3.254344 -138.893668
10.598089 -3.150684 -138.895034
10.619004 -3.047024 -138.896400
10.639919 -2.943363 -138.897766
10.660834 -2.839703 -138.899132
10.681749 -2.736043 -138.900498
10.601712 -2.618539 -138.904287
10.361602 -2.266025 -138.915654
10.483469 -2.176209 -138.914597
10.504384 -2.072549 -138.915963
10.525299 -1.968889 -138.917329
10.445263 -1.851385 -138.921118
10.466178 -1.747724 -138.922484
10.487093 -1.644064 -138.923850
10.407056 -1.526560 -138.927639
10.327019 -1.409055 -138.931429
10.347934 -1.305395 -138.932795
10.267898 -1.187891 -138.936584
10.288813 -1.084230 -138.937950
10.309728 -0.980570 -138.939316
10.330643 -0.876910 -138.940682
10.250606 -0.759406 -138.944471
10.271521 -0.655746 -138.945837
10.191485 -0.538241 -138.949626
10.111448 -0.420737 -138.953415
10.132363 -0.317076 -138.954781
10.052326 -0.199572 -138.958570
10.073241 -0.095912 -138.959936
9.993205 0.021593 -138.963726
9.913168 0.139097 -138.967515
9.934083 0.242757 -138.968881
9.954998 0.346418 -138.970247
9.874961 0.463922 -138.974036
9.794924 0.581427 -138.977825
9.714888 0.698931 -138.981614
9.735803 0.802591 -138.982980
9.655766 0.920096 -138.986769
9.676681 1.023756 -138.988135
9.697596 1.127416 -138.989501
9.718511 1.231076 -138.990867
9.638475 1.348581 -138.994656
9.659390 1.452241 -138.996022
9.680305 1.555901 -138.997389
9.600268 1.673405 -139.001178
9.621183 1.777066 -139.002544
9.541146 1.894570 -139.006333
9.461110 2.012075 -139.010122
9.482025 2.115735 -139.011488
9.301036 2.247084 -139.017700
9.120047 2.378432 -139.023912
9.140963 2.482093 -139.025279
9.060926 2.599597 -139.029068
9.081841 2.703257 -139.030434
9.001804 2.820762 -139.034223
9.022719 2.924422 -139.035589
8.942682 3.041926 -139.039378
8.963598 3.145586 -139.040744
8.883561 3.263091 -139.044533
8.904476 3.366751 -139.045899
8.824439 3.484256 -139.049688
8.744402 3.601760 -139.053477
8.664366 3.719265 -139.057267
8.584329 3.836769 -139.061056
8.504292 3.954274 -139.064845
8.424255 4.071778 -139.068634
8.344218 4.189282 -139.072423
10.890181 -7.404357 -138.847518
11.045162 -7.227155 -138.844038
11.011445 -7.126925 -138.845404
11.072077 -6.988208 -138.844347
11.132709 -6.849492 -138.843289
11.098992 -6.749262 -138.844655
11.065275 -6.649032 -138.846022
11.125907 -6.510316 -138.844964
11.280889 -6.333113 -138.841484
11.341521 -6.194397 -138.840427
11.402153 -6.055681 -138.839370
11.368436 -5.955451 -138.840736
11.334719 -5.855221 -138.842102
11.395351 -5.716505 -138.841045
11.361634 -5.616275 -138.842411
11.327917 -5.516045 -138.843777
11.388549 -5.377328 -138.842720
11.354832 -5.277098 -138.844086
11.415464 -5.138382 -138.843029
11.381747 -5.038152 -138.844395
11.348030 -4.937922 -138.845761
11.314313 -4.837692 -138.847127
11.280596 -4.737462 -138.848493
11.246879 -4.637233 -138.849859
11.307511 -4.498516 -138.848802
11.368143 -4.359800 -138.847745
11.428775 -4.221084 -138.846687
11.395058 -4.120854 -138.848053
11.361341 -4.020624 -138.849419
11.421974 -3.881908 -138.848362
11.388257 -3.781678 -138.849728
11.354540 -3.681448 -138.851094
11.415172 -3.542731 -138.850037
11.381455 -3.442501 -138.851403
11.347738 -3.342272 -138.852769
11.314021 -3.242042 -138.854135
11.280304 -3.141812 -138.855501
11.246587 -3.041582 -138.856867
11.307219 -2.902865 -138.855810
11.273502 -2.802636 -138.857176
11.239785 -2.702406 -138.858542
11.206068 -2.602176 -138.859908
11.172351 -2.501946 -138.861274
11.138634 -2.401716 -138.862640
11.104917 -2.301486 -138.864006
11.071200 -2.201256 -138.865372
11.037483 -2.101026 -138.866738
11.003766 -2.000796 -138.868104
11.064398 -1.862080 -138.867047
11.030681 -1.761850 -138.868413
10.996964 -1.661620 -138.869779
11.057596 -1.522904 -138.868722
11.023879 -1.422674 -138.870088
10.990162 -1.322444 -138.871454
10.956445 -1.222214 -138.872820
10.922728 -1.121984 -138.874186
10.889011 -1.021754 -138.875552
10.949643 -0.883038 -138.874495
10.915926 -0.782808 -138.875861
10.882209 -0.682578 -138.877227
10.848492 -0.582348 -138.878593
10.814775 -0.482118 -138.879959
10.781058 -0.381888 -138.881325
10.747341 -0.281658 -138.882691
10.713624 -0.181428 -138.884057
10.679907 -0.081198 -138.885423
10.646190 0.019031 -138.886789
10.706822 0.157748 -138.885732
10.673105 0.257978 -138.887098
10.639388 0.358208 -138.888464
10.605671 0.458438 -138.889830
10.571954 0.558667 -138.891196
10.632586 0.697384 -138.890139
10.598869 0.797614 -138.891505
10.565152 0.897844 -138.892871
10.531435 0.998074 -138.894237
10.497718 1.098303 -138.895603
10.464001 1.198533 -138.896969
10.430284 1.298763 -138.898335
10.396567 1.398993 -138.899701
10.362850 1.499223 -138.901067
10.329133 1.599453 -138.902433
10.295416 1.699683 -138.903799
10.261699 1.799913 -138.905165
10.227982 1.900143 -138.906531
10.194265 2.000373 -138.907897
10.160548 2.100603 -138.909263
10.126831 2.200833 -138.910629
10.093114 2.301063 -138.911995
10.059397 2.401292 -138.913361
10.025680 2.501522 -138.914727
9.991963 2.601752 -138.916094
9.958246 2.701982 -138.917460
9.924529 2.802212 -138.918826
9.890812 2.902442 -138.920192
9.857095 3.002672 -138.921558
9.729029 3.064416 -138.925347
9.695312 3.164645 -138.926713
9.661595 3.264875 -138.928079
9.627878 3.365105 -138.929445
9.594161 3.465335 -138.930811
9.560444 3.565565 -138.932177
9.526727 3.665795 -138.933543
9.398661 3.727539 -138.937332
9.364944 3.827769 -138.938698
9.331227 3.927998 -138.940064
9.297510 4.028228 -138.941430
9.263793 4.128458 -138.942796
9.230076 4.228688 -138.944162
9.196359 4.328918 -138.945528
9.162642 4.429148 -138.946894
9.128925 4.529378 -138.948260
9.000859 4.591122 -138.952049
8.967142 4.691351 -138.953415
8.933425 4.791581 -138.954781
8.899708 4.891811 -138.956147
8.771642 4.953555 -138.959936
8.737925 5.053785 -138.961302
8.704208 5.154015 -138.962668
8.670491 5.254245 -138.964034
8.542425 5.315988 -138.967824
8.508708 5.416218 -138.969190
8.380642 5.477962 -138.972979
8.252576 5.539705 -138.976768
9.633643 3.474825 -138.894319
9.616794 3.625273 -138.893262
9.724876 3.936730 -138.887359
9.708027 4.087178 -138.886302
9.691177 4.237626 -138.885245
9.611862 4.307569 -138.886611
9.595013 4.458017 -138.885554
9.515698 4.527961 -138.886920
9.498849 4.678408 -138.885863
9.482000 4.828856 -138.884806
9.465151 4.979304 -138.883748
9.385836 5.049248 -138.885114
9.306521 5.119191 -138.886480
9.227206 5.189134 -138.887846
9.147892 5.259077 -138.889212
9.131042 5.409525 -138.888155
9.051727 5.479468 -138.889521
8.972413 5.549411 -138.890887
8.893098 5.619354 -138.892253
8.813783 5.689298 -138.893619
8.734468 5.759241 -138.894985
8.655154 5.829184 -138.896351
8.575839 5.899127 -138.897717
8.496524 5.969070 -138.899084
8.479675 6.119518 -138.898026
8.337894 6.108957 -138.901816
8.258580 6.178900 -138.903182
8.241730 6.329348 -138.902124
8.162416 6.399291 -138.903490
8.083101 6.469234 -138.904856
8.003786 6.539177 -138.906222
7.924471 6.609120 -138.907589
7.845156 6.679063 -138.908955
7.765842 6.749007 -138.910321
7.686527 6.818950 -138.911687
7.607212 6.888893 -138.913053
7.527897 6.958836 -138.914419
7.448582 7.028779 -138.915785
7.369268 7.098722 -138.917151
7.289953 7.168666 -138.918517
7.210638 7.238609 -138.919883
7.131323 7.308552 -138.921249
7.052008 7.378495 -138.922615
6.910228 7.367933 -138.926404
6.830913 7.437877 -138.927770
6.751599 7.507820 -138.929136
6.672284 7.577763 -138.930502
6.592969 7.647706 -138.931868
6.513654 7.717649 -138.933234
6.434339 7.787592 -138.934600
6.355025 7.857536 -138.935966
6.275710 7.927479 -138.937332
6.196395 7.997422 -138.938698
6.117080 8.067365 -138.940064
5.975300 8.056803 -138.943853
5.895985 8.126747 -138.945219
5.816670 8.196690 -138.946585
5.737355 8.266633 -138.947951
5.658041 8.336576 -138.949317
5.516260 8.326014 -138.953106
5.436946 8.395958 -138.954472
5.295165 8.385396 -138.958261
5.215850 8.455339 -138.959627
4.699277 7.961749 -138.977955
4.619962 8.031692 -138.979321
4.478182 8.021130 -138.983111
4.336401 8.010569 -138.986900
4.194621 8.000007 -138.990689
4.052841 7.989445 -138.994478
3.911060 7.978884 -138.998267
3.769280 7.968322 -139.002056
3.627500 7.957761 -139.005845
3.485719 7.947199 -139.009635
3.343939 7.936637 -139.013424
3.202159 7.926076 -139.017213
2.997913 7.835009 -139.023425
2.856133 7.824448 -139.027214
2.776818 7.894391 -139.028580
2.635038 7.883829 -139.032369
7.904518 6.422823 -138.901850
7.814702 6.544690 -138.900793
7.724886 6.666557 -138.899735
7.635070 6.788424 -138.898678
7.531410 6.809339 -138.900044
7.441594 6.931206 -138.898987
7.351778 7.053073 -138.897930
7.248118 7.073988 -138.899296
7.158302 7.195855 -138.898239
7.123864 7.721530 -138.887489
7.020204 7.742445 -138.888855
6.930388 7.864312 -138.887798
6.826728 7.885227 -138.889164
6.723067 7.906142 -138.890530
6.619407 7.927058 -138.891896
6.515747 7.947973 -138.893262
6.412087 7.968888 -138.894628
6.322271 8.090755 -138.893571
6.218611 8.111670 -138.894937
6.114951 8.132585 -138.896303
6.011291 8.153500 -138.897669
5.921475 8.275367 -138.896612
5.817815 8.296282 -138.897978
5.714155 8.317198 -138.899344
5.610494 8.338113 -138.900710
5.506834 8.359028 -138.902076
5.403174 8.379943 -138.903442
5.299514 8.400858 -138.904808
5.195854 8.421773 -138.906174
5.092194 8.442688 -138.907540
4.988533 8.463604 -138.908906
4.871029 8.383567 -138.912696
4.767369 8.404482 -138.914062
4.663709 8.425397 -138.915428
4.560048 8.446312 -138.916794
4.456388 8.467227 -138.918160
4.352728 8.488142 -138.919526
4.235224 8.408106 -138.923315
4.131563 8.429021 -138.924681
4.027903 8.449936 -138.926047
3.924243 8.470851 -138.927413
3.820583 8.491766 -138.928779
3.716923 8.512681 -138.930145
3.613263 8.533596 -138.931511
3.509603 8.554512 -138.932877
3.392098 8.474475 -138.936666
3.288438 8.495390 -138.938032
3.184778 8.516305 -138.939398
3.081118 8.537220 -138.940764
2.963613 8.457183 -138.944553
2.859953 8.478098 -138.945919
2.756293 8.499014 -138.947285
2.638788 8.418977 -138.951074
2.535128 8.439892 -138.952440
2.431468 8.460807 -138.953806
2.327808 8.481722 -138.955172
2.224148 8.502637 -138.956538
2.120487 8.523552 -138.957904
2.002983 8.443516 -138.961694
1.899323 8.464431 -138.963060
1.781818 8.384394 -138.966849
1.664314 8.304357 -138.970638
1.546809 8.224320 -138.974427
1.443149 8.245236 -138.975793
1.325645 8.165199 -138.979582
1.221985 8.186114 -138.980948
1.118324 8.207029 -138.982314
1.000820 8.126992 -138.986103
0.897160 8.147907 -138.987469
0.765811 7.966919 -138.993682
0.620618 7.684978 -139.002317
0.516958 7.705893 -139.003683
0.399453 7.625856 -139.007472
0.295793 7.646772 -139.008838
0.192133 7.667687 -139.010204
0.074628 7.587650 -139.013993
5.491134 8.315255 -138.926651
5.390904 8.281538 -138.928017
5.252188 8.342170 -138.926959
4.998012 8.685849 -138.918633
4.859296 8.746481 -138.917576
4.759066 8.712764 -138.918942
4.620350 8.773397 -138.917885
4.520120 8.739680 -138.919251
4.419890 8.705963 -138.920617
4.281174 8.766595 -138.919560
4.180944 8.732878 -138.920926
4.042228 8.793510 -138.919869
3.903511 8.854142 -138.918812
3.764795 8.914774 -138.917754
3.664565 8.881057 -138.919120
3.525849 8.941689 -138.918063
3.425619 8.907972 -138.919429
3.325389 8.874255 -138.920795
3.225159 8.840538 -138.922161
3.086443 8.901170 -138.921104
2.986213 8.867453 -138.922470
2.885983 8.833736 -138.923836
2.785753 8.800019 -138.925202
2.647037 8.860651 -138.924145
2.546807 8.826934 -138.925511
2.446577 8.793217 -138.926877
2.346347 8.759500 -138.928243
2.246117 8.725783 -138.929609
2.145887 8.692066 -138.930975
2.045657 8.658349 -138.932341
1.906941 8.718981 -138.931284
1.806711 8.685264 -138.932650
1.706481 8.651547 -138.934016
1.606251 8.617830 -138.935382
1.506021 8.584113 -138.936748
1.405791 8.550396 -138.938114
1.305561 8.516679 -138.939480
1.205331 8.482962 -138.940846
1.105101 8.449245 -138.942212
1.004871 8.415528 -138.943578
0.904642 8.381811 -138.944944
0.765925 8.442444 -138.943887
0.665695 8.408727 -138.945253
0.565465 8.375010 -138.946619
0.465235 8.341293 -138.947985
0.365006 8.307576 -138.949351
0.264776 8.273859 -138.950717
0.164546 8.240142 -138.952083
0.064316 8.206425 -138.953449
-0.035914 8.172708 -138.954815
-0.136144 8.138991 -138.956181
-0.236374 8.105274 -138.957547
-0.336604 8.071557 -138.958913
-0.436834 8.037840 -138.960279
-0.537064 8.004123 -138.961645
-0.637294 7.970406 -138.963011
-0.737524 7.936689 -138.964377
-0.837754 7.902972 -138.965743
-0.937983 7.869255 -138.967109
-1.038213 7.835538 -138.968476
-1.138443 7.801821 -138.969842
-1.238673 7.768104 -138.971208
-1.338903 7.734387 -138.972574
-1.400647 7.606320 -138.976363
-1.500877 7.572603 -138.977729
-1.601107 7.538886 -138.979095
-1.662850 7.410820 -138.982884
-1.763080 7.377103 -138.984250
-1.863310 7.343386 -138.985616
-1.963540 7.309669 -138.986982
-2.025283 7.181603 -138.990771
-2.125513 7.147886 -138.992137
-2.225743 7.114169 -138.993503
-2.325973 7.080452 -138.994869
-2.426203 7.046735 -138.996235
-2.526433 7.013018 -138.997601
-2.626663 6.979301 -138.998967
-2.688406 6.851235 -139.002756
-2.788636 6.817518 -139.004122
-2.888866 6.783801 -139.005488
-2.950610 6.655735 -139.009277
-3.050840 6.622018 -139.010643
-3.112583 6.493952 -139.014433
-3.174327 6.365886 -139.018222
-3.274557 6.332169 -139.019588
-3.336300 6.204103 -139.023377
-3.436530 6.170386 -139.024743
-3.498274 6.042320 -139.028532
-3.598504 6.008603 -139.029898
-3.698734 5.974886 -139.031264
-3.798964 5.941169 -139.032630
-3.860707 5.813102 -139.036419
-3.960937 5.779385 -139.037785
-4.022681 5.651319 -139.041574
-4.122911 5.617602 -139.042940
-4.223140 5.583885 -139.044306
-4.284884 5.455819 -139.048096
-4.346628 5.327753 -139.051885
-4.446857 5.294036 -139.053251
-4.508601 5.165970 -139.057040
-4.570345 5.037904 -139.060829
-4.670575 5.004187 -139.062195
-4.693832 4.781772 -139.068407
-4.678602 4.465007 -139.077043
-2.053429 7.862823 -138.954458
-2.203877 7.845974 -138.953401
-2.273820 7.766659 -138.954767
-2.343763 7.687344 -138.956133
-2.494211 7.670495 -138.955076
-2.564154 7.591180 -138.956442
-2.634097 7.511866 -138.957808
-2.784545 7.495017 -138.956751
-2.854488 7.415702 -138.958117
-2.924431 7.336387 -138.959483
-2.994374 7.257073 -138.960849
-3.144822 7.240223 -138.959792
-3.214765 7.160909 -138.961158
-3.284709 7.081594 -138.962524
-3.354652 7.002279 -138.963890
-3.505100 6.985430 -138.962833
-3.575043 6.906115 -138.964199
-3.644986 6.826801 -138.965565
-3.714929 6.747486 -138.966931
-3.784872 6.668171 -138.968297
-3.854815 6.588857 -138.969663
-3.924759 6.509542 -138.971029
-3.994702 6.430227 -138.972395
-4.064645 6.350913 -138.973761
-4.134588 6.271598 -138.975127
-4.285036 6.254749 -138.974070
-4.354979 6.175434 -138.975436
-4.424922 6.096119 -138.976802
-4.494865 6.016805 -138.978168
-4.564808 5.937490 -138.979534
-4.634752 5.858175 -138.980900
-4.704695 5.778861 -138.982266
-4.774638 5.699546 -138.983632
-4.844581 5.620231 -138.984998
-4.914524 5.540917 -138.986364
-4.984467 5.461602 -138.987730
-5.054411 5.382287 -138.989096
-5.124354 5.302973 -138.990462
-5.194297 5.223658 -138.991828
-5.264240 5.144343 -138.993194
-5.334183 5.065029 -138.994560
-5.404126 4.985714 -138.995926
-5.393565 4.843934 -138.999715
-5.463508 4.764619 -139.001081
-5.533451 4.685304 -139.002447
-5.603394 4.605990 -139.003813
-5.673337 4.526675 -139.005179
-5.743281 4.447360 -139.006545
-5.813224 4.368046 -139.007911
-5.883167 4.288731 -139.009277
-5.953110 4.209416 -139.010643
-5.942549 4.067636 -139.014433
-6.012492 3.988321 -139.015799
-6.082435 3.909007 -139.017165
-6.071873 3.767226 -139.020954
-5.900302 3.500515 -139.029589
-5.889741 3.358735 -139.033378
-5.879179 3.216955 -139.037167
-5.949123 3.137640 -139.038533
-6.019066 3.058325 -139.039899
-6.008504 2.916545 -139.043689
-4.839379 5.982913 -138.969745
-4.961246 5.893097 -138.968688
-5.083113 5.803281 -138.967631
-5.104028 5.699621 -138.968997
-5.124943 5.595961 -138.970363
-5.246810 5.506145 -138.969306
-5.267725 5.402485 -138.970672
-5.288640 5.298825 -138.972038
-5.410507 5.209009 -138.970981
-5.633326 5.133037 -138.967501
-5.755193 5.043222 -138.966444
-5.776108 4.939561 -138.967810
-5.897975 4.849746 -138.966752
-5.918891 4.746085 -138.968118
-6.040758 4.656270 -138.967061
-6.061673 4.552609 -138.968427
-6.082588 4.448949 -138.969793
-6.103503 4.345289 -138.971159
-6.225370 4.255473 -138.970102
-6.246285 4.151813 -138.971468
-6.368152 4.061997 -138.970411
-6.389067 3.958337 -138.971777
-6.409982 3.854677 -138.973143
-6.430898 3.751017 -138.974509
-6.552765 3.661201 -138.973452
-6.573680 3.557541 -138.974818
-6.594595 3.453881 -138.976184
-6.615510 3.350220 -138.977550
-6.636425 3.246560 -138.978916
-6.657340 3.142900 -138.980282
-6.577304 3.025396 -138.984071
-6.598219 2.921736 -138.985437
-6.619134 2.818075 -138.986803
-6.539097 2.700571 -138.990593
-6.560012 2.596911 -138.991959
-6.479975 2.479406 -138.995748
-6.500890 2.375746 -138.997114
-6.521806 2.272086 -138.998480
-6.542721 2.168426 -138.999846
-6.563636 2.064766 -139.001212
-6.584551 1.961105 -139.002578
-6.605466 1.857445 -139.003944
-6.525429 1.739941 -139.007733
-6.546344 1.636281 -139.009099
-6.466308 1.518776 -139.012888
-6.487223 1.415116 -139.014254
-6.609090 1.325300 -139.013197
-6.630005 1.221640 -139.014563
-6.650920 1.117980 -139.015929
-6.671835 1.014320 -139.017295
-6.692750 0.910660 -139.018661
-6.713666 0.806999 -139.020027
-6.734581 0.703339 -139.021393
-6.755496 0.599679 -139.022759
-6.675459 0.482175 -139.026548
-6.696374 0.378514 -139.027914
-6.717289 0.274854 -139.029280
-6.738204 0.171194 -139.030646
-6.759120 0.067534 -139.032012
-6.679083 -0.049971 -139.035801
-6.699998 -0.153631 -139.037167
-6.720913 -0.257291 -139.038533
-6.741828 -0.360951 -139.039899
-6.661791 -0.478456 -139.043689
-6.682707 -0.582116 -139.045055
-6.703622 -0.685776 -139.046421
-6.724537 -0.789436 -139.047787
-6.644500 -0.906941 -139.051576
-7.411405 1.528451 -138.968867
-7.472037 1.389735 -138.967810
-7.438320 1.289505 -138.969176
-7.498952 1.150789 -138.968118
-7.465235 1.050559 -138.969484
-7.525868 0.911843 -138.968427
-7.492151 0.811613 -138.969793
-7.458434 0.711383 -138.971159
-7.424717 0.611153 -138.972525
-7.391000 0.510923 -138.973891
-7.451632 0.372207 -138.972834
-7.417915 0.271977 -138.974200
-7.384198 0.171747 -138.975566
-7.350481 0.071517 -138.976932
-7.316764 -0.028713 -138.978298
-7.377396 -0.167429 -138.977241
-7.343679 -0.267659 -138.978607
-7.309962 -0.367889 -138.979973
-7.276245 -0.468119 -138.981339
-7.242528 -0.568349 -138.982705
-7.208811 -0.668579 -138.984071
-7.175094 -0.768809 -138.985437
-7.141377 -0.869039 -138.986803
-7.107660 -0.969269 -138.988169
-7.073943 -1.069499 -138.989535
-7.134575 -1.208215 -138.988478
-7.100858 -1.308445 -138.989844
-7.067141 -1.408675 -138.991210
-7.033424 -1.508905 -138.992576
-6.999707 -1.609135 -138.993942
-6.871641 -1.670878 -138.997732
-6.837924 -1.771108 -138.999098
-6.804207 -1.871338 -139.000464
-6.770490 -1.971568 -139.001830
-6.736773 -2.071798 -139.003196
-6.608707 -2.133541 -139.006985
-6.574990 -2.233771 -139.008351
-6.541273 -2.334001 -139.009717
-6.507556 -2.434231 -139.011083
-6.473839 -2.534461 -139.012449
-6.440122 -2.634691 -139.013815
-6.406405 -2.734921 -139.015181
-6.372688 -2.835151 -139.016547
-6.338971 -2.935381 -139.017913
-6.305254 -3.035611 -139.019279
-6.271537 -3.135841 -139.020645
-6.143471 -3.197584 -139.024434
-6.109754 -3.297814 -139.025800
-6.076037 -3.398044 -139.027166
-6.042320 -3.498274 -139.028532
-6.008603 -3.598504 -139.029898
-5.974886 -3.698734 -139.031264
-5.941169 -3.798964 -139.032630
-5.907452 -3.899194 -139.033996
-5.873735 -3.999423 -139.035362
-5.840018 -4.099653 -139.036728
-5.806301 -4.199883 -139.038094
-5.678234 -4.261627 -139.041883
-5.644517 -4.361857 -139.043249
-5.610800 -4.462087 -139.044615
-5.577083 -4.562317 -139.045981
-5.543366 -4.662547 -139.047347
-5.509649 -4.762776 -139.048713
-5.475932 -4.863006 -139.050079
-5.442215 -4.963236 -139.051445
-5.408498 -5.063466 -139.052811
-5.280432 -5.125210 -139.056601
-5.246715 -5.225440 -139.057967
-5.212998 -5.325670 -139.059333
-5.179281 -5.425900 -139.060699
-5.145564 -5.526129 -139.062065
-5.111847 -5.626359 -139.063431
-5.078130 -5.726589 -139.064797
-5.044413 -5.826819 -139.066163
-4.916347 -5.888563 -139.069952
-4.882630 -5.988793 -139.071318
-4.848913 -6.089023 -139.072684
-4.720847 -6.150766 -139.076473
-4.687130 -6.250996 -139.077839
-4.653413 -6.351226 -139.079205
-4.525347 -6.412970 -139.082994
-4.491630 -6.513199 -139.084360
-4.363564 -6.574943 -139.088149
-4.329847 -6.675173 -139.089515
-4.201781 -6.736917 -139.093305
-4.168064 -6.837146 -139.094671
-4.134347 -6.937376 -139.096037
-4.100630 -7.037606 -139.097403
-3.972564 -7.099350 -139.101192
-3.938847 -7.199580 -139.102558
-3.905130 -7.299810 -139.103924
-5.394205 -5.586259 -138.983502
-5.439822 -5.817211 -138.980021
-5.360507 -5.887154 -138.981387
-5.343658 -6.037602 -138.980330
-5.326809 -6.188050 -138.979273
-5.247494 -6.257993 -138.980639
-5.230645 -6.408441 -138.979582
-5.151330 -6.478384 -138.980948
-5.072016 -6.548327 -138.982314
-4.992701 -6.618271 -138.983680
-4.913386 -6.688214 -138.985046
-4.896537 -6.838662 -138.983989
-4.817222 -6.908605 -138.985355
-4.737908 -6.978548 -138.986721
-4.658593 -7.048491 -138.988087
-4.641744 -7.198939 -138.987030
-4.562429 -7.268882 -138.988396
-4.483115 -7.338825 -138.989762
-4.403800 -7.408768 -138.991128
-4.386951 -7.559216 -138.990071
-4.307636 -7.629159 -138.991437
-4.290787 -7.779607 -138.990380
-4.211472 -7.849550 -138.991746
-4.132158 -7.919494 -138.993112
-4.052843 -7.989437 -138.994478
-3.973528 -8.059380 -138.995844
-3.956679 -8.209828 -138.994787
-3.877364 -8.279771 -138.996153
-3.798050 -8.349714 -138.997519
-3.718735 -8.419657 -138.998885
-3.639420 -8.489600 -139.000251
-3.560106 -8.559543 -139.001617
-3.480791 -8.629487 -139.002983
-3.401476 -8.699430 -139.004349
-3.322162 -8.769373 -139.005715
-3.242847 -8.839316 -139.007081
-3.163532 -8.909259 -139.008447
-3.084217 -8.979202 -139.009813
-3.004903 -9.049146 -139.011179
-2.988054 -9.199593 -139.010122
-2.908739 -9.269537 -139.011488
-2.829424 -9.339480 -139.012854
-2.750110 -9.409423 -139.014220
-2.670795 -9.479366 -139.015586
-2.529015 -9.468805 -139.019375
-2.449700 -9.538748 -139.020741
-2.370385 -9.608691 -139.022107
-2.291071 -9.678634 -139.023473
-2.211756 -9.748577 -139.024839
-2.132441 -9.818520 -139.026205
-2.053127 -9.888463 -139.027571
-1.973812 -9.958407 -139.028937
-1.894497 -10.028350 -139.030303
-1.815182 -10.098293 -139.031669
-1.735868 -10.168236 -139.033035
-1.656553 -10.238179 -139.034401
-1.577238 -10.308122 -139.035767
-1.497924 -10.378066 -139.037133
-1.356144 -10.367504 -139.040923
-1.276829 -10.437447 -139.042289
-1.197514 -10.507390 -139.043655
-1.118199 -10.577334 -139.045021
-1.038885 -10.647277 -139.046387
-0.959570 -10.717220 -139.047753
-0.880255 -10.787163 -139.049119
-0.738475 -10.776601 -139.052908
-0.659160 -10.846545 -139.054274
-0.579846 -10.916488 -139.055640
-0.500531 -10.986431 -139.057006
-0.358751 -10.975869 -139.060795
-0.279436 -11.045813 -139.062161
-0.200122 -11.115756 -139.063527
-0.058341 -11.105194 -139.067316
0.083439 -11.094633 -139.071105
-3.329971 -8.798246 -138.930763
-3.240155 -8.920113 -138.929706
-3.136495 -8.941028 -138.931072
-3.046679 -9.062895 -138.930014
-2.943019 -9.083810 -138.931380
-2.839359 -9.104725 -138.932746
-2.749543 -9.226592 -138.931689
-2.659727 -9.348459 -138.930632
-2.569911 -9.470326 -138.929575
-2.480095 -9.592193 -138.928518
-2.390280 -9.714060 -138.927461
-2.300464 -9.835927 -138.926404
-2.210648 -9.957794 -138.925347
-2.120832 -10.079661 -138.924290
-2.031016 -10.201528 -138.923232
-1.941200 -10.323396 -138.922175
-1.837540 -10.344311 -138.923541
-1.747724 -10.466178 -138.922484
-1.644064 -10.487093 -138.923850
-1.554248 -10.608960 -138.922793
-1.450588 -10.629875 -138.924159
-1.360772 -10.751742 -138.923102
-1.270957 -10.873609 -138.922045
-1.167296 -10.894524 -138.923411
-1.077481 -11.016391 -138.922354
-0.973820 -11.037306 -138.923720
-0.870160 -11.058222 -138.925086
-0.780344 -11.180089 -138.924029
-0.676684 -11.201004 -138.925395
-0.573024 -11.221919 -138.926761
-0.469364 -11.242834 -138.928127
-0.365704 -11.263749 -138.929493
-0.262044 -11.284664 -138.930859
-0.158384 -11.305579 -138.932225
-0.054723 -11.326495 -138.933591
0.048937 -11.347410 -138.934957
0.152597 -11.368325 -138.936323
0.256257 -11.389240 -138.937689
0.359917 -11.410155 -138.939055
0.463577 -11.431070 -138.940421
0.567238 -11.451985 -138.941787
0.670898 -11.472900 -138.943153
0.760714 -11.594767 -138.942096
0.864374 -11.615683 -138.943462
0.968034 -11.636598 -138.944828
1.071694 -11.657513 -138.946194
1.175354 -11.678428 -138.947560
1.279014 -11.699343 -138.948926
1.396519 -11.619306 -138.952715
1.500179 -11.640221 -138.954081
1.603839 -11.661137 -138.955447
1.707499 -11.682052 -138.956813
1.811160 -11.702967 -138.958179
1.914820 -11.723882 -138.959545
2.018480 -11.744797 -138.960911
2.122140 -11.765712 -138.962277
2.225800 -11.786627 -138.963643
2.329460 -11.807543 -138.965009
2.433120 -11.828458 -138.966375
2.536781 -11.849373 -138.967741
2.640441 -11.870288 -138.969107
2.744101 -11.891203 -138.970473
2.847761 -11.912118 -138.971839
2.965266 -11.832081 -138.975629
3.068926 -11.852997 -138.976995
3.172586 -11.873912 -138.978361
3.276246 -11.894827 -138.979727
3.393751 -11.814790 -138.983516
3.497411 -11.835705 -138.984882
3.601071 -11.856620 -138.986248
3.718575 -11.776583 -138.990037
3.822236 -11.797499 -138.991403
3.925896 -11.818414 -138.992769
4.084933 -11.435521 -139.003827
4.202438 -11.355484 -139.007617
4.319942 -11.275448 -139.011406
0.843301 -11.549162 -138.865599
0.982018 -11.609794 -138.864542
1.082248 -11.576077 -138.865908
1.220964 -11.636710 -138.864851
1.321194 -11.602993 -138.866217
1.459910 -11.663625 -138.865160
1.598626 -11.724257 -138.864103
1.775829 -11.879238 -138.860622
1.914545 -11.939870 -138.859565
2.014775 -11.906153 -138.860931
2.153492 -11.966785 -138.859874
2.253721 -11.933068 -138.861240
2.353951 -11.899351 -138.862606
2.454181 -11.865634 -138.863972
2.592898 -11.926266 -138.862915
2.693128 -11.892549 -138.864281
2.793357 -11.858832 -138.865647
2.932074 -11.919465 -138.864590
3.032304 -11.885748 -138.865956
3.132534 -11.852031 -138.867322
3.232764 -11.818314 -138.868688
3.332993 -11.784597 -138.870054
3.433223 -11.750880 -138.871420
3.533453 -11.717163 -138.872786
3.633683 -11.683446 -138.874152
3.733913 -11.649729 -138.875518
3.872629 -11.710361 -138.874461
3.972859 -11.676644 -138.875827
4.073089 -11.642927 -138.877193
4.173319 -11.609210 -138.878559
4.273549 -11.575493 -138.879925
4.373779 -11.541776 -138.881291
4.474009 -11.508059 -138.882657
4.612725 -11.568691 -138.881600
4.712955 -11.534974 -138.882966
4.813185 -11.501257 -138.884332
4.913415 -11.467540 -138.885698
5.013645 -11.433823 -138.887064
5.113875 -11.400106 -138.888430
5.214105 -11.366389 -138.889796
5.314335 -11.332672 -138.891162
5.414565 -11.298955 -138.892528
5.514795 -11.265238 -138.893894
5.615025 -11.231521 -138.895260
5.676768 -11.103455 -138.899049
5.776998 -11.069738 -138.900415
5.877228 -11.036021 -138.901781
5.977458 -11.002304 -138.903147
6.039201 -10.874238 -138.906937
6.139431 -10.840521 -138.908303
6.239661 -10.806804 -138.909669
6.339891 -10.773087 -138.911035
6.440121 -10.739370 -138.912401
6.540351 -10.705653 -138.913767
6.640581 -10.671936 -138.915133
6.702324 -10.543869 -138.918922
6.802554 -10.510152 -138.920288
6.902784 -10.476435 -138.921654
6.964528 -10.348369 -138.925443
7.064758 -10.314652 -138.926809
7.164988 -10.280935 -138.928175
7.265218 -10.247218 -138.929541
7.326961 -10.119152 -138.933330
7.427191 -10.085435 -138.934696
7.527421 -10.051718 -138.936062
7.589165 -9.923652 -138.939851
7.689394 -9.889935 -138.941217
7.789624 -9.856218 -138.942583
7.851368 -9.728152 -138.946373
7.913111 -9.600086 -138.950162
7.974855 -9.472020 -138.953951
7.998112 -9.249605 -138.960163
8.098342 -9.215888 -138.961529
8.160086 -9.087821 -138.965318
8.221829 -8.959755 -138.969107
8.322059 -8.926038 -138.970473
8.383803 -8.797972 -138.974263
8.484033 -8.764255 -138.975629
8.584263 -8.730538 -138.976995
8.646006 -8.602472 -138.980784
8.746236 -8.568755 -138.982150
8.807980 -8.440689 -138.985939
8.908209 -8.406972 -138.987305
8.969953 -8.278906 -138.991094
8.916237 -7.867792 -139.002153
8.977981 -7.739726 -139.005942
9.039725 -7.611660 -139.009731
9.139954 -7.577943 -139.011097
9.201698 -7.449877 -139.014886
9.263442 -7.321811 -139.018675
9.363671 -7.288094 -139.020041
9.425415 -7.160028 -139.023830
9.525645 -7.126311 -139.025196
9.587388 -6.998245 -139.028985
9.456700 -6.398433 -139.044890
