ply
format ascii 1.0
comment VCGLIB generated
element vertex 1356
property float x
property float y
property float z
element face 0
property list uchar int vertex_indices
end_header
4.42514 -14.245 -21.765
4.65609 -14.2906 -21.7616
4.80654 -14.2738 -21.7605
5.35951 -14.5692 -21.7473
5.59046 -14.6149 -21.7439
5.66041 -14.5355 -21.7452
6.21338 -14.831 -21.7321
6.36383 -14.8142 -21.731
6.51428 -14.7973 -21.7299
6.66472 -14.7805 -21.7289
6.73466 -14.7012 -21.7303
6.88511 -14.6843 -21.7292
6.95506 -14.605 -21.7306
7.025 -14.5257 -21.7319
7.17545 -14.5088 -21.7309
7.3259 -14.492 -21.7298
7.47634 -14.4751 -21.7288
7.62679 -14.4583 -21.7277
7.69673 -14.379 -21.7291
7.84718 -14.3621 -21.728
7.91712 -14.2828 -21.7294
7.98707 -14.2035 -21.7307
8.05701 -14.1242 -21.7321
8.12696 -14.0449 -21.7335
8.1969 -13.9655 -21.7348
8.26684 -13.8862 -21.7362
8.41729 -13.8694 -21.7351
8.56774 -13.8525 -21.7341
8.63768 -13.7732 -21.7355
8.70762 -13.6939 -21.7368
8.69706 -13.5521 -21.7406
8.767 -13.4728 -21.742
8.83695 -13.3935 -21.7433
8.90689 -13.3142 -21.7447
9.05734 -13.2973 -21.7437
9.12728 -13.218 -21.745
9.27773 -13.2012 -21.744
9.34767 -13.1218 -21.7453
9.41761 -13.0425 -21.7467
9.48756 -12.9632 -21.7481
9.5575 -12.8839 -21.7494
9.70795 -12.8671 -21.7484
9.77789 -12.7877 -21.7497
9.92834 -12.7709 -21.7487
10.0788 -12.754 -21.7476
10.2292 -12.7372 -21.7466
10.2992 -12.6579 -21.7479
10.3691 -12.5786 -21.7493
10.4391 -12.4992 -21.7507
10.509 -12.4199 -21.752
10.579 -12.3406 -21.7534
10.6489 -12.2613 -21.7548
10.7993 -12.2445 -21.7537
10.8693 -12.1651 -21.7551
10.9392 -12.0858 -21.7564
11.0092 -12.0065 -21.7578
11.0791 -11.9272 -21.7592
11.1491 -11.8479 -21.7605
11.219 -11.7686 -21.7619
11.2889 -11.6893 -21.7633
11.3589 -11.6099 -21.7646
11.4288 -11.5306 -21.766
11.4988 -11.4513 -21.7674
11.6492 -11.4345 -21.7663
11.7997 -11.4176 -21.7652
11.9501 -11.4008 -21.7642
12.0201 -11.3214 -21.7655
12.09 -11.2421 -21.7669
12.2404 -11.2253 -21.7659
12.3104 -11.146 -21.7672
12.5413 -11.1916 -21.7637
12.7723 -11.2372 -21.7603
12.8422 -11.1579 -21.7616
12.9122 -11.0786 -21.763
13.0626 -11.0617 -21.7619
13.1326 -10.9824 -21.7633
13.2025 -10.9031 -21.7647
13.353 -10.8862 -21.7636
13.4229 -10.8069 -21.765
13.4929 -10.7276 -21.7664
13.6433 -10.7108 -21.7653
13.7132 -10.6314 -21.7667
13.7832 -10.5521 -21.768
13.9336 -10.5353 -21.767
14.0036 -10.456 -21.7683
14.0735 -10.3767 -21.7697
14.1435 -10.2973 -21.7711
14.2134 -10.218 -21.7724
14.2834 -10.1387 -21.7738
14.3533 -10.0594 -21.7752
14.4232 -9.98008 -21.7765
14.4932 -9.90077 -21.7779
14.4826 -9.75899 -21.7817
14.5526 -9.67967 -21.7831
14.6225 -9.60036 -21.7844
14.6924 -9.52104 -21.7858
14.7624 -9.44173 -21.7872
14.8323 -9.36242 -21.7885
14.9023 -9.2831 -21.7899
14.9722 -9.20379 -21.7912
15.0422 -9.12447 -21.7926
15.1121 -9.04516 -21.794
15.1821 -8.96584 -21.7953
15.252 -8.88653 -21.7967
15.3219 -8.80721 -21.7981
15.3919 -8.7279 -21.7994
15.4618 -8.64858 -21.8008
15.5318 -8.56927 -21.8022
15.6017 -8.48995 -21.8035
15.6717 -8.41064 -21.8049
15.7416 -8.33132 -21.8063
15.8115 -8.25201 -21.8076
15.801 -8.11023 -21.8114
15.8709 -8.03091 -21.8128
15.9409 -7.9516 -21.8142
16.0108 -7.87228 -21.8155
16.0002 -7.7305 -21.8193
16.0702 -7.65119 -21.8207
16.1401 -7.57188 -21.8221
16.2101 -7.49256 -21.8234
16.28 -7.41325 -21.8248
16.2695 -7.27147 -21.8286
16.3394 -7.19215 -21.8299
16.4093 -7.11284 -21.8313
16.4793 -7.03352 -21.8327
16.4687 -6.89174 -21.8365
16.5387 -6.81243 -21.8378
16.5281 -6.67065 -21.8416
16.598 -6.59133 -21.843
16.5875 -6.44955 -21.8468
16.5769 -6.30777 -21.8506
16.6469 -6.22846 -21.8519
16.6363 -6.08668 -21.8557
16.6257 -5.9449 -21.8595
16.6152 -5.80311 -21.8633
16.6046 -5.66134 -21.8671
16.5941 -5.51956 -21.8709
16.5835 -5.37778 -21.8747
16.5729 -5.23599 -21.8784
16.4819 -5.03175 -21.8847
16.3908 -4.8275 -21.8909
7.32611 -14.7397 -21.7625
7.44798 -14.6499 -21.7614
7.77175 -14.5877 -21.7555
7.99457 -14.5118 -21.752
8.11644 -14.422 -21.751
8.13735 -14.3183 -21.7523
8.36017 -14.2423 -21.7489
8.48204 -14.1525 -21.7478
8.60391 -14.0627 -21.7468
8.72577 -13.9729 -21.7457
8.84764 -13.8831 -21.7446
8.96951 -13.7932 -21.7436
9.09137 -13.7034 -21.7425
9.41515 -13.6413 -21.7366
9.53701 -13.5515 -21.7356
9.65888 -13.4617 -21.7345
9.78075 -13.3719 -21.7335
9.80166 -13.2682 -21.7348
9.92353 -13.1784 -21.7338
9.94444 -13.0747 -21.7351
10.3692 -13.0264 -21.7268
10.3901 -12.9228 -21.7282
10.5119 -12.833 -21.7271
10.5329 -12.7293 -21.7285
10.5538 -12.6256 -21.7298
10.5747 -12.522 -21.7312
10.5956 -12.4183 -21.7326
10.6165 -12.3147 -21.7339
10.7384 -12.2248 -21.7329
10.8603 -12.135 -21.7318
10.9821 -12.0452 -21.7308
11.104 -11.9554 -21.7297
11.2259 -11.8656 -21.7287
11.4487 -11.7896 -21.7252
11.6715 -11.7136 -21.7217
11.8943 -11.6377 -21.7182
12.0162 -11.5478 -21.7172
12.0371 -11.4442 -21.7185
12.159 -11.3544 -21.7175
12.2808 -11.2646 -21.7164
12.3017 -11.1609 -21.7178
12.4236 -11.0711 -21.7167
12.5455 -10.9813 -21.7157
12.7683 -10.9053 -21.7122
13.0921 -10.8432 -21.7063
13.4158 -10.781 -21.7004
13.6387 -10.7051 -21.6969
13.9624 -10.6429 -21.691
14.0843 -10.5531 -21.6899
14.2062 -10.4633 -21.6889
14.2271 -10.3596 -21.6902
14.3489 -10.2698 -21.6892
14.3699 -10.1662 -21.6906
14.4917 -10.0764 -21.6895
14.5126 -9.97269 -21.6909
14.6345 -9.88288 -21.6898
14.6554 -9.77922 -21.6912
14.7773 -9.6894 -21.6901
14.7982 -9.58574 -21.6915
14.9201 -9.49593 -21.6904
15.0419 -9.40611 -21.6894
15.1638 -9.3163 -21.6883
15.1847 -9.21263 -21.6897
15.3066 -9.12282 -21.6886
15.3275 -9.01916 -21.69
15.4494 -8.92934 -21.6889
15.4703 -8.82568 -21.6903
15.5922 -8.73587 -21.6892
15.714 -8.64605 -21.6882
15.8359 -8.55624 -21.6871
15.8568 -8.45258 -21.6885
15.9787 -8.36276 -21.6874
15.9996 -8.2591 -21.6888
16.0205 -8.15544 -21.6902
16.0414 -8.05178 -21.6915
16.0623 -7.94812 -21.6929
16.0832 -7.84446 -21.6943
16.2051 -7.75464 -21.6932
16.226 -7.65098 -21.6946
16.2469 -7.54732 -21.6959
16.2679 -7.44366 -21.6973
16.2888 -7.34 -21.6987
16.3097 -7.23634 -21.7
16.4316 -7.14653 -21.699
16.4525 -7.04287 -21.7003
16.4734 -6.93921 -21.7017
16.4943 -6.83555 -21.7031
16.5152 -6.73189 -21.7044
16.6371 -6.64207 -21.7034
16.658 -6.53841 -21.7047
16.6789 -6.43475 -21.7061
16.6998 -6.33109 -21.7075
16.7207 -6.22743 -21.7088
16.7417 -6.12377 -21.7102
16.7626 -6.02011 -21.7116
16.7835 -5.91645 -21.713
16.8044 -5.81279 -21.7143
16.7244 -5.69528 -21.7181
16.7453 -5.59162 -21.7195
16.7662 -5.48796 -21.7208
16.7871 -5.3843 -21.7222
16.808 -5.28064 -21.7236
16.8289 -5.17698 -21.7249
16.7489 -5.05948 -21.7287
16.7698 -4.95582 -21.7301
16.7907 -4.85216 -21.7314
16.8117 -4.7485 -21.7328
16.7316 -4.63099 -21.7366
16.7525 -4.52733 -21.738
16.7734 -4.42367 -21.7393
16.6934 -4.30617 -21.7431
16.7143 -4.20251 -21.7445
16.6343 -4.085 -21.7483
16.4533 -3.95366 -21.7545
16.1714 -3.80846 -21.7631
15.0818 -3.55252 -21.7912
15.0018 -3.43501 -21.7949
14.9217 -3.31751 -21.7987
14.8417 -3.2 -21.8025
14.8626 -3.09634 -21.8039
14.7826 -2.97884 -21.8077
14.8035 -2.87518 -21.809
14.7235 -2.75767 -21.8128
14.5425 -2.62632 -21.819
14.4624 -2.50882 -21.8228
14.4833 -2.40516 -21.8242
14.4033 -2.28765 -21.828
14.4242 -2.184 -21.8293
14.4451 -2.08033 -21.8307
14.3651 -1.96283 -21.8345
14.386 -1.85917 -21.8359
14.306 -1.74166 -21.8397
14.2259 -1.62416 -21.8434
14.1459 -1.50666 -21.8472
14.0659 -1.38915 -21.851
14.0868 -1.28549 -21.8524
14.0067 -1.16799 -21.8562
13.9267 -1.05048 -21.86
13.7457 -0.919131 -21.8662
13.6657 -0.80163 -21.87
13.6866 -0.697969 -21.8713
13.7075 -0.594309 -21.8727
13.7284 -0.49065 -21.8741
13.7493 -0.386987 -21.8754
13.6693 -0.269482 -21.8792
13.6902 -0.165822 -21.8806
13.6102 -0.0483196 -21.8844
13.5301 0.0691836 -21.8882
13.4501 0.186692 -21.892
13.471 0.290352 -21.8933
13.391 0.407856 -21.8971
13.4119 0.511514 -21.8985
13.4328 0.615173 -21.8998
13.3528 0.73268 -21.9036
13.3737 0.836339 -21.905
13.2937 0.953846 -21.9088
13.3146 1.05751 -21.9102
13.3355 1.16117 -21.9115
13.2555 1.27867 -21.9153
13.2764 1.38233 -21.9167
13.2973 1.48599 -21.918
13.2172 1.60349 -21.9218
13.2382 1.70715 -21.9232
13.2591 1.81082 -21.9246
13.28 1.91447 -21.9259
13.2 2.03198 -21.9297
13.2209 2.13564 -21.9311
13.2418 2.2393 -21.9324
13.1617 2.3568 -21.9362
13.1827 2.46046 -21.9376
13.1026 2.57797 -21.9414
13.1235 2.68163 -21.9428
13.0435 2.79913 -21.9465
13.0644 2.90279 -21.9479
13.0853 3.00645 -21.9493
13.0053 3.12396 -21.9531
13.0262 3.22762 -21.9544
13.0471 3.33128 -21.9558
13.068 3.43494 -21.9572
13.089 3.5386 -21.9585
13.1099 3.64226 -21.9599
13.1308 3.74592 -21.9613
13.1517 3.84958 -21.9626
13.1726 3.95324 -21.964
13.1935 4.0569 -21.9654
13.2145 4.16056 -21.9667
13.1344 4.27806 -21.9705
13.1553 4.38172 -21.9719
13.1762 4.48538 -21.9733
13.0962 4.60289 -21.9771
13.1171 4.70655 -21.9784
13.138 4.81021 -21.9798
13.159 4.91387 -21.9811
13.1799 5.01753 -21.9825
13.0998 5.13503 -21.9863
13.1207 5.2387 -21.9877
13.0407 5.3562 -21.9915
13.0616 5.45986 -21.9928
13.0825 5.56352 -21.9942
13.1035 5.66718 -21.9955
13.1244 5.77084 -21.9969
13.1453 5.8745 -21.9983
13.1662 5.97816 -21.9996
13.1871 6.08182 -22.001
13.1071 6.19933 -22.0048
13.128 6.30299 -22.0062
13.1489 6.40665 -22.0075
13.0689 6.52415 -22.0113
13.0898 6.62781 -22.0127
13.0098 6.74531 -22.0165
13.0307 6.84897 -22.0179
13.0516 6.95263 -22.0192
13.0725 7.05629 -22.0206
13.0934 7.15995 -22.0219
13.1143 7.26361 -22.0233
13.1352 7.36727 -22.0247
13.0552 7.48478 -22.0285
13.0761 7.58844 -22.0298
13.097 7.6921 -22.0312
13.1179 7.79576 -22.0326
13.0379 7.91327 -22.0363
14.6715 -9.39538 -21.7349
15.77 -8.83331 -21.7072
15.8306 -8.6946 -21.7061
15.7969 -8.59437 -21.7075
15.8576 -8.45565 -21.7065
15.9182 -8.31693 -21.7054
16.4506 -7.98579 -21.6922
16.4168 -7.88556 -21.6936
16.4775 -7.74684 -21.6925
16.5381 -7.60812 -21.6915
16.5987 -7.46941 -21.6904
16.6594 -7.33069 -21.6893
16.9087 -7.115 -21.6834
16.9693 -6.97629 -21.6824
17.03 -6.83757 -21.6813
16.9963 -6.73734 -21.6827
17.0569 -6.59862 -21.6816
17.0232 -6.49839 -21.683
16.9895 -6.39816 -21.6844
17.0501 -6.25945 -21.6833
17.1107 -6.12073 -21.6823
17.1713 -5.98201 -21.6812
17.1376 -5.88178 -21.6826
17.1983 -5.74307 -21.6815
17.1645 -5.64284 -21.6829
17.1308 -5.54261 -21.6842
17.0971 -5.44238 -21.6856
17.0634 -5.34215 -21.687
17.0297 -5.24192 -21.6883
17.0903 -5.1032 -21.6873
17.0566 -5.00297 -21.6886
17.0229 -4.90274 -21.69
16.9892 -4.80251 -21.6914
16.9554 -4.70228 -21.6927
16.9217 -4.60205 -21.6941
16.888 -4.50182 -21.6955
16.8543 -4.40159 -21.6969
16.8206 -4.30136 -21.6982
16.7869 -4.20113 -21.6996
16.7531 -4.1009 -21.7009
16.7194 -4.00067 -21.7023
16.6857 -3.90044 -21.7037
16.652 -3.80021 -21.705
16.6183 -3.69998 -21.7064
16.5846 -3.59975 -21.7078
16.4565 -3.53801 -21.7116
16.4228 -3.43778 -21.7129
16.2947 -3.37603 -21.7167
16.1666 -3.31429 -21.7205
16.0386 -3.25255 -21.7243
15.8162 -3.22929 -21.7305
15.3107 -3.3215 -21.744
15.277 -3.22126 -21.7454
15.2433 -3.12103 -21.7467
15.1152 -3.05929 -21.7505
15.0815 -2.95906 -21.7519
15.0478 -2.85883 -21.7533
15.014 -2.7586 -21.7546
14.9803 -2.65837 -21.756
14.9466 -2.55814 -21.7573
14.9129 -2.45791 -21.7587
14.8792 -2.35768 -21.7601
14.8455 -2.25745 -21.7614
14.8117 -2.15722 -21.7628
14.778 -2.05699 -21.7642
14.7443 -1.95676 -21.7655
14.6162 -1.89502 -21.7693
14.5825 -1.79479 -21.7707
14.5488 -1.69456 -21.7721
14.4207 -1.63282 -21.7758
14.387 -1.53259 -21.7772
14.3533 -1.43236 -21.7786
14.3196 -1.33213 -21.78
14.2859 -1.2319 -21.7813
14.2522 -1.13167 -21.7827
14.2184 -1.03144 -21.784
14.1847 -0.931206 -21.7854
14.151 -0.830976 -21.7868
14.1173 -0.730747 -21.7881
14.0836 -0.630516 -21.7895
14.0499 -0.530287 -21.7909
14.0161 -0.430057 -21.7922
13.9824 -0.329827 -21.7936
14.0431 -0.191109 -21.7926
14.0093 -0.0908785 -21.7939
13.9756 0.00935125 -21.7953
13.9419 0.109581 -21.7966
14.0025 0.248296 -21.7956
13.9688 0.348527 -21.797
13.9351 0.448757 -21.7983
13.9014 0.548987 -21.7997
13.8677 0.649217 -21.8011
13.8339 0.749445 -21.8024
13.8002 0.849676 -21.8038
13.7665 0.949907 -21.8052
13.7328 1.05014 -21.8065
13.6991 1.15037 -21.8079
13.6654 1.2506 -21.8092
13.6316 1.35083 -21.8106
13.5979 1.45106 -21.812
13.5642 1.55129 -21.8134
13.5305 1.65152 -21.8147
13.4968 1.75174 -21.8161
13.4631 1.85198 -21.8174
13.4293 1.95221 -21.8188
13.3956 2.05244 -21.8202
13.3619 2.15266 -21.8215
13.3282 2.25289 -21.8229
13.2945 2.35312 -21.8243
13.2608 2.45335 -21.8256
13.227 2.55359 -21.827
13.2877 2.6923 -21.826
13.3483 2.83102 -21.8249
13.3146 2.93125 -21.8263
13.2809 3.03148 -21.8276
13.3415 3.17019 -21.8266
13.3078 3.27042 -21.8279
13.2741 3.37065 -21.8293
13.2404 3.47088 -21.8307
13.2066 3.57111 -21.832
13.1729 3.67134 -21.8334
13.2336 3.81006 -21.8324
13.1998 3.91029 -21.8337
13.1661 4.01052 -21.8351
13.1324 4.11075 -21.8364
13.193 4.24947 -21.8354
13.1593 4.34969 -21.8367
13.1256 4.44993 -21.8381
13.0919 4.55016 -21.8395
13.1525 4.68887 -21.8384
13.1188 4.7891 -21.8398
13.0851 4.88933 -21.8412
13.0514 4.98956 -21.8425
13.0176 5.08979 -21.8439
13.0783 5.22851 -21.8428
13.0446 5.32874 -21.8442
13.0108 5.42897 -21.8456
12.9771 5.5292 -21.8469
12.9434 5.62943 -21.8483
13.004 5.76814 -21.8472
12.9703 5.86837 -21.8486
12.9366 5.9686 -21.85
12.9029 6.06883 -21.8513
12.9635 6.20755 -21.8503
12.9298 6.30778 -21.8517
12.8961 6.40801 -21.853
12.9567 6.54673 -21.852
12.8287 6.60847 -21.8557
12.7949 6.7087 -21.8571
12.7612 6.80893 -21.8585
12.7275 6.90916 -21.8598
12.6938 7.00939 -21.8612
12.6601 7.10962 -21.8626
12.7207 7.24834 -21.8615
12.7813 7.38705 -21.8605
12.842 7.52577 -21.8594
12.9026 7.66449 -21.8584
12.9632 7.8032 -21.8573
12.9295 7.90343 -21.8587
12.8958 8.00366 -21.86
12.8621 8.10389 -21.8614
12.8284 8.20412 -21.8627
12.7946 8.30435 -21.8641
12.6666 8.36609 -21.8679
12.6329 8.46632 -21.8693
12.5991 8.56655 -21.8706
12.5654 8.66678 -21.872
12.4374 8.72853 -21.8758
12.4036 8.82876 -21.8772
12.3699 8.92899 -21.8785
12.2419 8.99073 -21.8823
12.1138 9.05247 -21.8861
11.8914 9.07573 -21.8923
11.7633 9.13747 -21.8961
11.6352 9.19922 -21.8999
11.5072 9.26096 -21.9037
11.2848 9.28422 -21.9099
11.0624 9.30747 -21.9161
10.9343 9.36922 -21.9199
10.9006 9.46945 -21.9213
10.7725 9.53119 -21.925
10.7388 9.63142 -21.9264
10.7051 9.73165 -21.9278
10.577 9.7934 -21.9316
10.4489 9.85514 -21.9354
10.1322 9.83991 -21.944
9.53236 9.70922 -21.9599
9.40429 9.77097 -21.9637
9.37058 9.8712 -21.9651
9.24251 9.93294 -21.9689
9.11444 9.99468 -21.9726
8.89203 10.0179 -21.9789
8.76396 10.0797 -21.9826
8.6359 10.1414 -21.9864
8.50783 10.2032 -21.9902
8.37977 10.2649 -21.994
8.2517 10.3267 -21.9978
7.55754 10.1575 -22.0161
7.33512 10.1807 -22.0223
7.20706 10.2425 -22.0261
6.7016 10.1503 -22.0396
6.57353 10.212 -22.0434
6.35111 10.2353 -22.0496
16.9692 -3.94313 -21.7774
16.9524 -3.79269 -21.7764
16.8731 -3.72275 -21.7777
16.8562 -3.5723 -21.7767
16.7769 -3.50236 -21.778
16.8225 -3.2714 -21.7746
16.8057 -3.12095 -21.7735
16.7888 -2.97051 -21.7724
16.7095 -2.90056 -21.7738
16.6302 -2.83062 -21.7752
16.5509 -2.76068 -21.7765
16.4716 -2.69073 -21.7779
16.3923 -2.62079 -21.7793
16.2505 -2.63135 -21.7831
16.1712 -2.56141 -21.7844
16.0294 -2.57197 -21.7882
15.9501 -2.50203 -21.7896
15.8083 -2.51259 -21.7934
15.729 -2.44264 -21.7947
15.5872 -2.45321 -21.7985
15.5079 -2.38327 -21.7999
15.4286 -2.31332 -21.8013
15.3492 -2.24338 -21.8026
15.2699 -2.17344 -21.804
15.1906 -2.10349 -21.8054
15.1113 -2.03355 -21.8067
15.032 -1.96361 -21.8081
14.9527 -1.89366 -21.8094
14.8734 -1.82372 -21.8108
14.794 -1.75378 -21.8122
14.7772 -1.60332 -21.8111
14.6979 -1.53338 -21.8125
14.6186 -1.46344 -21.8139
14.7266 -1.15198 -21.808
14.7098 -1.00153 -21.8069
14.6305 -0.931594 -21.8083
14.5512 -0.86165 -21.8096
14.4718 -0.791707 -21.811
14.3925 -0.721763 -21.8124
14.3757 -0.571314 -21.8113
14.2964 -0.501374 -21.8127
14.2171 -0.43143 -21.814
14.2002 -0.280982 -21.813
14.1209 -0.211038 -21.8143
14.0416 -0.141094 -21.8157
14.0247 0.00935173 -21.8147
13.9454 0.0792947 -21.816
13.8661 0.149239 -21.8174
13.8492 0.299687 -21.8163
13.8324 0.450136 -21.8153
13.7531 0.520076 -21.8166
13.7987 0.751029 -21.8132
13.8443 0.981985 -21.8097
13.765 1.05193 -21.8111
13.7482 1.20238 -21.81
13.6688 1.27232 -21.8114
13.5895 1.34226 -21.8127
13.5102 1.41221 -21.8141
13.4309 1.48215 -21.8154
13.3516 1.55209 -21.8168
13.4597 1.86355 -21.8109
13.5053 2.0945 -21.8074
13.4884 2.24495 -21.8064
13.4091 2.31489 -21.8077
13.3923 2.46534 -21.8067
13.3129 2.53528 -21.808
13.2961 2.68573 -21.807
13.2168 2.75567 -21.8084
13.1999 2.90612 -21.8073
13.1831 3.05657 -21.8062
13.1662 3.20702 -21.8052
13.1494 3.35747 -21.8041
13.1325 3.50791 -21.8031
13.1157 3.65836 -21.802
13.0364 3.7283 -21.8034
13.082 3.95926 -21.7999
13.0651 4.10971 -21.7988
13.0483 4.26015 -21.7978
13.0314 4.4106 -21.7967
13.0771 4.64155 -21.7933
13.1227 4.87251 -21.7898
13.0434 4.94245 -21.7911
13.0265 5.0929 -21.7901
13.0097 5.24334 -21.789
12.9928 5.39379 -21.788
12.976 5.54424 -21.7869
12.8966 5.61419 -21.7883
12.8798 5.76463 -21.7872
12.8629 5.91508 -21.7862
12.8461 6.06553 -21.7851
12.8917 6.29648 -21.7816
12.8749 6.44693 -21.7806
12.9205 6.67788 -21.7771
12.9036 6.82833 -21.776
12.8868 6.97878 -21.775
12.8699 7.12923 -21.7739
12.7906 7.19917 -21.7753
12.7738 7.34961 -21.7742
12.6945 7.41956 -21.7756
12.6776 7.57001 -21.7745
12.6608 7.72046 -21.7735
12.6439 7.8709 -21.7724
12.6271 8.02135 -21.7714
12.6102 8.1718 -21.7703
12.5309 8.24174 -21.7717
12.514 8.39219 -21.7706
12.4972 8.54264 -21.7696
12.4803 8.69309 -21.7685
12.4635 8.84353 -21.7674
12.3842 8.91348 -21.7688
12.3049 8.98342 -21.7702
12.2256 9.05336 -21.7715
12.1462 9.12331 -21.7729
12.0669 9.19325 -21.7743
11.9876 9.26319 -21.7756
11.9083 9.33314 -21.777
11.829 9.40308 -21.7784
11.7497 9.47302 -21.7797
11.6703 9.54297 -21.7811
11.591 9.61291 -21.7825
11.5117 9.68285 -21.7838
11.3699 9.67229 -21.7876
11.2906 9.74223 -21.789
11.2113 9.81218 -21.7904
11.0695 9.80162 -21.7941
10.9902 9.87156 -21.7955
10.8484 9.861 -21.7993
10.7691 9.93094 -21.8007
10.6898 10.0009 -21.802
10.548 9.99032 -21.8058
10.4687 10.0603 -21.8072
10.3894 10.1302 -21.8085
10.3101 10.2002 -21.8099
10.1683 10.1896 -21.8137
10.089 10.2595 -21.8151
9.9472 10.249 -21.8189
9.80542 10.2384 -21.8226
9.72611 10.3084 -21.824
9.58433 10.2978 -21.8278
9.50502 10.3677 -21.8292
9.4257 10.4377 -21.8305
9.28392 10.4271 -21.8343
9.07967 10.336 -21.8405
8.93789 10.3255 -21.8443
8.79611 10.3149 -21.8481
8.7168 10.3849 -21.8495
8.63748 10.4548 -21.8508
8.55817 10.5248 -21.8522
8.47886 10.5947 -21.8536
8.39954 10.6646 -21.8549
8.32022 10.7346 -21.8563
8.17844 10.724 -21.8601
8.03666 10.7135 -21.8639
7.89489 10.7029 -21.8677
7.7531 10.6923 -21.8715
7.61132 10.6818 -21.8753
7.53201 10.7517 -21.8766
7.45269 10.8217 -21.878
7.31091 10.8111 -21.8818
7.16913 10.8005 -21.8856
7.02735 10.79 -21.8894
6.88557 10.7794 -21.8931
6.80626 10.8494 -21.8945
6.72694 10.9193 -21.8959
6.58516 10.9087 -21.8997
6.44338 10.8982 -21.9035
6.3016 10.8876 -21.9072
6.15982 10.8771 -21.911
6.01804 10.8665 -21.9148
5.81379 10.7754 -21.921
5.60955 10.6844 -21.9272
5.46777 10.6738 -21.931
5.32599 10.6632 -21.9348
5.24668 10.7332 -21.9362
5.10489 10.7226 -21.94
4.90065 10.6316 -21.9462
4.6964 10.5405 -21.9524
4.55462 10.5299 -21.9562
4.41284 10.5194 -21.96
4.33352 10.5893 -21.9613
12.4041 8.93855 -21.7686
12.3143 9.06041 -21.7676
12.2107 9.08133 -21.7689
12.1347 9.30415 -21.7654
12.0449 9.42602 -21.7644
11.955 9.54788 -21.7633
11.8652 9.66975 -21.7623
11.7616 9.69066 -21.7636
11.6718 9.81254 -21.7626
11.5681 9.83345 -21.7639
11.4644 9.85436 -21.7653
11.3608 9.87528 -21.7667
11.2571 9.8962 -21.7681
11.1535 9.91711 -21.7694
11.0498 9.93802 -21.7708
10.96 10.0599 -21.7697
10.8702 10.1818 -21.7687
10.7665 10.2027 -21.77
10.6767 10.3245 -21.769
10.573 10.3455 -21.7703
10.4694 10.3664 -21.7717
10.3657 10.3873 -21.7731
10.262 10.4082 -21.7744
10.1584 10.4291 -21.7758
10.0547 10.45 -21.7772
9.95107 10.4709 -21.7785
9.84741 10.4919 -21.7799
9.7299 10.4118 -21.7837
9.62624 10.4327 -21.785
9.50874 10.3527 -21.7888
9.40508 10.3736 -21.7902
9.31526 10.4955 -21.7892
9.2116 10.5164 -21.7905
9.12178 10.6383 -21.7895
9.01813 10.6592 -21.7908
8.91447 10.6801 -21.7922
8.81081 10.701 -21.7936
8.70715 10.7219 -21.7949
8.61733 10.8438 -21.7939
8.51367 10.8647 -21.7952
8.41001 10.8856 -21.7966
8.32019 11.0075 -21.7955
8.23038 11.1294 -21.7945
8.12672 11.1503 -21.7959
8.02306 11.1712 -21.7972
7.9194 11.1921 -21.7986
7.81574 11.213 -21.8
7.71208 11.2339 -21.8013
7.60842 11.2548 -21.8027
7.50476 11.2758 -21.804
7.4011 11.2967 -21.8054
7.29744 11.3176 -21.8068
7.19378 11.3385 -21.8082
7.09012 11.3594 -21.8095
6.98645 11.3803 -21.8109
6.8828 11.4013 -21.8122
6.76529 11.3212 -21.816
6.66163 11.3421 -21.8174
6.55797 11.363 -21.8188
6.45431 11.384 -21.8201
6.3368 11.3039 -21.8239
6.23315 11.3248 -21.8253
6.12949 11.3458 -21.8267
6.02582 11.3667 -21.828
5.92216 11.3876 -21.8294
5.8185 11.4085 -21.8307
5.71485 11.4294 -21.8321
5.61118 11.4503 -21.8335
5.50752 11.4712 -21.8349
5.40386 11.4922 -21.8362
5.28636 11.4121 -21.84
5.16885 11.3321 -21.8438
5.05135 11.2521 -21.8476
4.94769 11.273 -21.849
4.83019 11.1929 -21.8527
4.72653 11.2138 -21.8541
4.62287 11.2348 -21.8555
4.50536 11.1547 -21.8593
4.4017 11.1756 -21.8606
4.2842 11.0956 -21.8644
4.16669 11.0156 -21.8682
4.06303 11.0365 -21.8696
3.94553 10.9564 -21.8734
3.84187 10.9774 -21.8747
3.73821 10.9983 -21.8761
3.6207 10.9182 -21.8799
3.51704 10.9392 -21.8812
3.39954 10.8591 -21.885
3.28203 10.7791 -21.8888
3.17837 10.8 -21.8902
3.07471 10.8209 -21.8916
2.97105 10.8418 -21.8929
2.85355 10.7618 -21.8967
2.74989 10.7827 -21.8981
2.63238 10.7027 -21.9019
2.51488 10.6226 -21.9057
2.41122 10.6435 -21.907
2.30756 10.6645 -21.9084
2.19006 10.5844 -21.9122
2.08639 10.6053 -21.9135
1.96889 10.5253 -21.9173
1.85138 10.4453 -21.9211
1.73388 10.3652 -21.9249
1.58869 10.0833 -21.9335
1.47118 10.0033 -21.9373
1.35368 9.92321 -21.9411
1.25002 9.94413 -21.9425
1.13251 9.86409 -21.9463
1.01501 9.78405 -21.9501
0.897505 9.70402 -21.9539
0.780001 9.62398 -21.9576
0.648652 9.44299 -21.9639
0.503458 9.16105 -21.9725
0.372111 8.98007 -21.9787
11.0423 10.0753 -21.8539
10.9035 10.136 -21.8529
10.7648 10.1966 -21.8518
10.6646 10.1629 -21.8532
10.5259 10.2235 -21.8521
10.3872 10.2842 -21.8511
10.2485 10.3448 -21.85
10.1482 10.3111 -21.8514
10.0095 10.3717 -21.8503
9.90928 10.338 -21.8517
9.77056 10.3986 -21.8506
9.59336 10.5536 -21.8472
9.49313 10.5199 -21.8485
9.35441 10.5805 -21.8475
9.25418 10.5468 -21.8488
8.92304 11.0792 -21.8357
8.82281 11.0455 -21.837
8.68409 11.1061 -21.836
8.58386 11.0724 -21.8373
8.48363 11.0387 -21.8387
8.3834 11.0049 -21.8401
8.28317 10.9712 -21.8414
8.18294 10.9375 -21.8428
8.04422 10.9981 -21.8418
7.90551 11.0588 -21.8407
7.76679 11.1194 -21.8396
7.66656 11.0857 -21.841
7.52784 11.1463 -21.8399
7.42761 11.1126 -21.8413
7.2889 11.1732 -21.8403
7.18867 11.1395 -21.8416
7.04995 11.2001 -21.8406
6.94972 11.1664 -21.8419
6.81101 11.2271 -21.8409
6.71078 11.1933 -21.8422
6.57206 11.254 -21.8412
6.47183 11.2203 -21.8425
6.33311 11.2809 -21.8415
6.23288 11.2472 -21.8428
6.09417 11.3078 -21.8418
5.99394 11.2741 -21.8432
5.85522 11.3347 -21.8421
5.75499 11.301 -21.8435
5.65476 11.2673 -21.8448
5.55453 11.2336 -21.8462
5.49279 11.1055 -21.85
5.35407 11.1661 -21.8489
5.25384 11.1324 -21.8503
5.11512 11.1931 -21.8492
4.93792 11.348 -21.8458
4.83769 11.3143 -21.8471
4.69898 11.3749 -21.8461
4.59875 11.3412 -21.8474
4.49852 11.3075 -21.8488
4.3598 11.3681 -21.8477
4.25957 11.3344 -21.8491
4.08237 11.4894 -21.8456
3.98214 11.4557 -21.847
3.84342 11.5163 -21.8459
3.74319 11.4826 -21.8473
3.68145 11.3545 -21.8511
3.58122 11.3208 -21.8525
3.48099 11.2871 -21.8538
3.41924 11.159 -21.8576
3.31901 11.1253 -21.859
3.25727 10.9973 -21.8628
3.15704 10.9635 -21.8641
3.05681 10.9298 -21.8655
2.95658 10.8961 -21.8669
2.85635 10.8624 -21.8682
2.75612 10.8287 -21.8696
2.65589 10.795 -21.871
2.55566 10.7612 -21.8723
2.45543 10.7275 -21.8737
2.31671 10.7882 -21.8727
2.21648 10.7544 -21.874
2.11626 10.7207 -21.8754
2.01602 10.687 -21.8767
1.9158 10.6533 -21.8781
1.81557 10.6196 -21.8795
1.71534 10.5858 -21.8808
1.61511 10.5521 -21.8822
1.55336 10.4241 -21.886
1.45313 10.3904 -21.8874
1.3529 10.3566 -21.8887
1.25267 10.3229 -21.8901
1.15244 10.2892 -21.8915
1.0907 10.1611 -21.8952
0.990468 10.1274 -21.8966
0.890239 10.0937 -21.898
0.828496 9.96563 -21.9018
0.728265 9.93192 -21.9031
0.628035 9.8982 -21.9045
0.527805 9.86448 -21.9059
0.427575 9.83077 -21.9072
0.365833 9.7027 -21.911
0.265602 9.66898 -21.9124
-0.68298 8.9207 -21.9371
-0.783212 8.88698 -21.9385
-0.844956 8.75892 -21.9423
-0.945186 8.7252 -21.9436
-1.04542 8.69149 -21.945
-1.10716 8.56342 -21.9488
-1.20739 8.5297 -21.9501
-1.26913 8.40163 -21.9539
-1.36936 8.36792 -21.9553
-1.43111 8.23985 -21.9591
-1.53134 8.20614 -21.9605
-1.59308 8.07807 -21.9642
-1.65482 7.95 -21.968
-1.71657 7.82194 -21.9718
-1.77831 7.69387 -21.9756
-1.84006 7.5658 -21.9794
-1.9018 7.43773 -21.9832
-2.00202 7.40402 -21.9846
-2.06377 7.27596 -21.9884
-2.164 7.24224 -21.9897
-2.22574 7.11417 -21.9935
-2.28749 6.9861 -21.9973
-2.34923 6.85804 -22.0011
-2.41097 6.72997 -22.0049
-2.5112 6.69626 -22.0062
-2.61143 6.66254 -22.0076
-2.71166 6.62882 -22.009
-2.77341 6.50075 -22.0128
-2.87364 6.46704 -22.0141
-2.97387 6.43332 -22.0155
-3.03561 6.30526 -22.0193
-3.13584 6.27154 -22.0206
-3.19758 6.14347 -22.0244
-3.25933 6.01541 -22.0282
-3.35956 5.98169 -22.0296
-3.4213 5.85362 -22.0334
-3.52153 5.8199 -22.0347
-3.58328 5.69184 -22.0385
-3.60653 5.46942 -22.0448
-3.62979 5.24701 -22.051
-3.73002 5.21329 -22.0523
-3.83025 5.17957 -22.0537
-3.93048 5.14586 -22.0551
-4.03071 5.11214 -22.0564
-4.13094 5.07843 -22.0578
-4.19268 4.95036 -22.0616
-4.29291 4.91664 -22.0629
-4.31617 4.69423 -22.0692
-4.30094 4.37746 -22.0778
-4.36268 4.2494 -22.0816
5.02678 11.5865 -21.9281
4.87633 11.5697 -21.927
4.80639 11.4903 -21.9284
4.33392 11.7234 -21.9176
4.10297 11.769 -21.9141
3.55 12.0644 -21.901
3.48006 11.9851 -21.9023
3.41011 11.9058 -21.9037
3.34017 11.8265 -21.9051
3.27023 11.7472 -21.9064
3.20028 11.6679 -21.9078
3.13034 11.5886 -21.9091
2.97989 11.5717 -21.9081
2.90995 11.4924 -21.9095
2.7595 11.4755 -21.9084
2.52855 11.5212 -21.9049
2.4586 11.4418 -21.9063
2.30816 11.425 -21.9052
2.15771 11.4081 -21.9042
2.08776 11.3288 -21.9055
2.01782 11.2495 -21.9069
1.94788 11.1702 -21.9083
1.79743 11.1534 -21.9072
1.64698 11.1365 -21.9062
1.49653 11.1197 -21.9051
1.42659 11.0403 -21.9065
1.43715 10.8986 -21.9103
1.36721 10.8192 -21.9116
1.29727 10.7399 -21.913
1.22732 10.6606 -21.9144
1.07688 10.6438 -21.9133
0.845922 10.6894 -21.9098
0.775979 10.6101 -21.9112
0.625531 10.5932 -21.9101
0.555587 10.5139 -21.9115
0.485646 10.4346 -21.9129
0.335202 10.4177 -21.9118
0.265257 10.3384 -21.9132
0.114806 10.3216 -21.9121
0.0448623 10.2423 -21.9135
-0.105583 10.2254 -21.9124
-0.175527 10.1461 -21.9138
-0.325974 10.1293 -21.9127
-0.395918 10.0499 -21.9141
-0.465859 9.97062 -21.9155
-0.535802 9.89131 -21.9168
-0.605746 9.81199 -21.9182
-0.675691 9.73268 -21.9196
-0.745634 9.65336 -21.9209
-0.815575 9.57405 -21.9223
-0.885519 9.49473 -21.9237
-0.874958 9.35295 -21.9274
-0.944902 9.27364 -21.9288
-1.01485 9.19433 -21.9302
-1.08479 9.11501 -21.9315
-1.15473 9.0357 -21.9329
-1.30518 9.01885 -21.9319
-1.45563 9.002 -21.9308
-1.52557 8.92268 -21.9322
-1.59551 8.84337 -21.9335
-1.74596 8.82652 -21.9325
-1.8159 8.7472 -21.9338
-1.88585 8.66789 -21.9352
-1.95579 8.58857 -21.9366
-2.02573 8.50926 -21.9379
-2.09568 8.42994 -21.9393
-2.16562 8.35063 -21.9407
-2.23556 8.27132 -21.942
-2.3055 8.192 -21.9434
-2.37545 8.11268 -21.9448
-2.36489 7.97091 -21.9486
-2.43483 7.89159 -21.9499
-2.50477 7.81228 -21.9513
-2.57471 7.73296 -21.9527
-2.56415 7.59118 -21.9565
-2.6341 7.51187 -21.9578
-2.70404 7.43255 -21.9592
-2.77399 7.35324 -21.9605
-2.84393 7.27392 -21.9619
-2.91387 7.19461 -21.9633
-2.98381 7.11529 -21.9646
-3.13426 7.09844 -21.9636
-3.2042 7.01913 -21.965
-3.27415 6.93981 -21.9663
-3.34409 6.8605 -21.9677
-3.41403 6.78119 -21.9691
-3.56448 6.76434 -21.968
-3.63442 6.68502 -21.9694
-3.62386 6.54324 -21.9731
-3.69381 6.46393 -21.9745
-3.76375 6.38461 -21.9759
-3.83369 6.3053 -21.9772
-3.90364 6.22598 -21.9786
-3.97358 6.14667 -21.98
-4.04352 6.06735 -21.9813
-4.11347 5.98804 -21.9827
-4.18341 5.90873 -21.9841
-4.25335 5.82941 -21.9854
-4.3233 5.75009 -21.9868
-4.39324 5.67078 -21.9882
-4.46318 5.59147 -21.9895
-4.53313 5.51215 -21.9909
-4.60307 5.43284 -21.9923
-4.67301 5.35352 -21.9936
-4.74295 5.27421 -21.995
-4.7324 5.13243 -21.9988
-4.80234 5.05311 -22.0002
-4.87228 4.9738 -22.0015
-4.94222 4.89448 -22.0029
-4.93166 4.7527 -22.0067
-5.00161 4.67339 -22.008
-5.07155 4.59407 -22.0094
-5.22199 4.57722 -22.0083
-5.29194 4.49791 -22.0097
-5.36188 4.4186 -22.0111
-5.35132 4.27681 -22.0149
-5.42126 4.1975 -22.0162
-5.4107 4.05572 -22.02
-2.62123 8.2354 -21.9781
-2.64215 8.13174 -21.9795
-2.76402 8.04193 -21.9785
-2.78493 7.93827 -21.9798
-2.80585 7.83461 -21.9812
-2.92772 7.74479 -21.9801
-3.04958 7.65498 -21.9791
-3.0705 7.55131 -21.9805
-3.19236 7.4615 -21.9794
-3.31423 7.37169 -21.9783
-3.4361 7.28187 -21.9773
-3.55797 7.19205 -21.9762
-3.57888 7.08839 -21.9776
-3.70074 6.99858 -21.9765
-3.72166 6.89492 -21.9779
-3.74258 6.79126 -21.9793
-3.86445 6.70144 -21.9782
-3.98631 6.61162 -21.9771
-4.00723 6.50796 -21.9785
-4.12909 6.41815 -21.9775
-4.15001 6.31449 -21.9788
-4.27187 6.22467 -21.9778
-4.39374 6.13486 -21.9767
-4.41466 6.0312 -21.9781
-4.53653 5.94138 -21.977
-4.55744 5.83772 -21.9784
-4.67931 5.7479 -21.9773
-4.80117 5.65809 -21.9763
-4.92304 5.56827 -21.9752
-4.94396 5.46461 -21.9766
-4.96487 5.36095 -21.978
-5.08674 5.27114 -21.9769
-5.10765 5.16748 -21.9783
-5.22952 5.07766 -21.9772
-5.25044 4.974 -21.9786
-5.37231 4.88419 -21.9775
-5.49417 4.79437 -21.9764
-5.61604 4.70455 -21.9754
-5.63695 4.60089 -21.9768
-5.65787 4.49723 -21.9781
-5.67878 4.39357 -21.9795
-5.80065 4.30376 -21.9784
-5.92251 4.21394 -21.9774
-5.94343 4.11028 -21.9787
-5.96434 4.00662 -21.9801
-6.08621 3.91681 -21.979
-6.10713 3.81315 -21.9804
-6.229 3.72333 -21.9794
-6.24991 3.61967 -21.9807
-6.37178 3.52985 -21.9797
-6.39269 3.42619 -21.981
-6.41361 3.32253 -21.9824
-6.43452 3.21887 -21.9838
-6.45544 3.11521 -21.9851
-6.47636 3.01155 -21.9865
-6.49727 2.90789 -21.9879
-6.51818 2.80423 -21.9892
-6.64005 2.71442 -21.9882
-6.66097 2.61076 -21.9895
-6.78283 2.52094 -21.9885
-6.80375 2.41728 -21.9899
-6.82466 2.31362 -21.9912
-6.84558 2.20996 -21.9926
-6.86649 2.1063 -21.9939
-6.88741 2.00264 -21.9953
-6.80737 1.88514 -21.9991
-6.82829 1.78147 -22.0005
-6.8492 1.67782 -22.0018
-6.76917 1.56031 -22.0056
-6.68913 1.4428 -22.0094
-6.60909 1.3253 -22.0132
-6.63001 1.22164 -22.0146
-6.75188 1.13183 -22.0135
-6.77279 1.02816 -22.0149
-6.7937 0.924504 -22.0162
-6.81462 0.820845 -22.0176
-6.83554 0.717183 -22.019
-6.7555 0.59968 -22.0228
-6.77642 0.49602 -22.0241
-6.79733 0.39236 -22.0255
-6.71729 0.274856 -22.0293
-6.7382 0.171193 -22.0307
-6.65817 0.0536904 -22.0344
-6.57813 -0.0638152 -22.0382
-6.59905 -0.167473 -22.0396
-6.51901 -0.284979 -22.0434
-6.43898 -0.402483 -22.0472
-6.75806 3.73268 -21.9771
-6.81869 3.59397 -21.9761
-6.97367 3.41676 -21.9726
-7.0343 3.27805 -21.9716
-7.00058 3.17782 -21.9729
-6.96687 3.07759 -21.9743
-7.0275 2.93887 -21.9732
-7.08813 2.80016 -21.9722
-7.14877 2.66144 -21.9711
-7.2094 2.52272 -21.9701
-7.27003 2.38401 -21.969
-7.33066 2.24529 -21.9679
-7.39129 2.10657 -21.9669
-7.35758 2.00634 -21.9682
-7.41821 1.86763 -21.9672
-7.38449 1.7674 -21.9686
-7.35078 1.66717 -21.9699
-7.31706 1.56694 -21.9713
-7.37769 1.42822 -21.9702
-7.34397 1.32799 -21.9716
-7.4046 1.18928 -21.9706
-7.37089 1.08905 -21.9719
-7.33717 0.988816 -21.9733
-7.3978 0.8501 -21.9722
-7.36409 0.74987 -21.9736
-7.42472 0.611152 -21.9725
-7.391 0.510922 -21.9739
-7.35729 0.410692 -21.9753
-7.41791 0.271978 -21.9742
-7.3842 0.171747 -21.9756
-7.35048 0.0715172 -21.9769
-7.31677 -0.0287123 -21.9783
-7.28305 -0.128944 -21.9797
-7.24933 -0.229172 -21.981
-7.21561 -0.329403 -21.9824
-7.1819 -0.429633 -21.9838
-7.14818 -0.529863 -21.9851
-7.02012 -0.591607 -21.9889
-6.9864 -0.691836 -21.9903
-6.95268 -0.792067 -21.9917
-6.91896 -0.892296 -21.993
-6.88525 -0.992528 -21.9944
-6.85153 -1.09276 -21.9958
-6.81781 -1.19298 -21.9971
-6.7841 -1.29322 -21.9985
-6.75038 -1.39345 -21.9998
-6.71666 -1.49368 -22.0012
-6.68294 -1.59391 -22.0026
-6.55488 -1.65565 -22.0064
-6.52116 -1.75588 -22.0077
-6.48745 -1.85611 -22.0091
-6.45373 -1.95634 -22.0105
-6.42001 -2.05657 -22.0118
-6.38629 -2.1568 -22.0132
-6.25822 -2.21854 -22.017
-6.22451 -2.31877 -22.0184
-6.19079 -2.419 -22.0197
-6.15707 -2.51923 -22.0211
-6.12336 -2.61946 -22.0224
-6.08964 -2.71969 -22.0238
-6.05592 -2.81992 -22.0252
-6.02221 -2.92015 -22.0266
-5.89414 -2.98189 -22.0303
-5.86043 -3.08212 -22.0317
-5.82671 -3.18236 -22.0331
-5.79299 -3.28259 -22.0344
-5.66492 -3.34433 -22.0382
-5.63121 -3.44456 -22.0396
-5.59749 -3.54479 -22.041
-5.56378 -3.64502 -22.0423
-5.53006 -3.74525 -22.0437
-5.49634 -3.84548 -22.0451
-5.46262 -3.94571 -22.0464
-5.42891 -4.04594 -22.0478
-5.30084 -4.10768 -22.0516
-5.26712 -4.20791 -22.0529
-5.2334 -4.30814 -22.0543
-5.19969 -4.40837 -22.0557
-5.16597 -4.5086 -22.057
-5.13225 -4.60883 -22.0584
-5.09854 -4.70906 -22.0598
-5.06482 -4.80929 -22.0611
-5.0311 -4.90952 -22.0625
-4.99739 -5.00975 -22.0639
-4.96367 -5.10998 -22.0652
-4.92995 -5.21021 -22.0666
-4.80189 -5.27195 -22.0704
-4.76817 -5.37218 -22.0718
-4.73446 -5.47242 -22.0731
-4.70074 -5.57265 -22.0745
-4.66702 -5.67287 -22.0759
-4.6333 -5.77311 -22.0772
-4.59959 -5.87333 -22.0786
-4.56587 -5.97357 -22.08
-4.4378 -6.03531 -22.0837
-4.40408 -6.13554 -22.0851
-4.37037 -6.23577 -22.0865
-4.33665 -6.336 -22.0878
-4.20858 -6.39774 -22.0916
-4.17487 -6.49797 -22.093
-4.14115 -6.5982 -22.0944
-4.01308 -6.65994 -22.0982
-3.97937 -6.76017 -22.0995
-3.8513 -6.82192 -22.1033
-3.81758 -6.92215 -22.1047
-3.78387 -7.02238 -22.106
-3.75015 -7.12261 -22.1074
-3.62209 -7.18435 -22.1112
-3.58837 -7.28458 -22.1126
-3.4603 -7.34632 -22.1163
-3.42658 -7.44656 -22.1177
-3.39287 -7.54678 -22.1191
-3.35915 -7.64701 -22.1205
-3.32543 -7.74724 -22.1218
-3.29171 -7.84747 -22.1232
-3.16365 -7.90922 -22.127
-3.12993 -8.00945 -22.1283
-3.09622 -8.10968 -22.1297
-3.0625 -8.20991 -22.1311
-2.93443 -8.27165 -22.1349
-2.90072 -8.37188 -22.1362
-2.867 -8.47211 -22.1376
-2.83328 -8.57234 -22.139
-2.79956 -8.67257 -22.1403
-2.6715 -8.73431 -22.1441
-2.63778 -8.83454 -22.1455
-2.60406 -8.93477 -22.1469
-2.57035 -9.035 -22.1482
-2.53663 -9.13523 -22.1496
-2.50291 -9.23546 -22.1509
-2.37485 -9.29721 -22.1547
-2.34113 -9.39744 -22.1561
-2.30742 -9.49767 -22.1575
-2.17935 -9.55941 -22.1613
-2.14563 -9.65964 -22.1626
-2.11192 -9.75987 -22.164
-2.0782 -9.8601 -22.1653
-1.95013 -9.92184 -22.1691
-1.82206 -9.98359 -22.1729
-1.78835 -10.0838 -22.1743
-1.75463 -10.184 -22.1757
-1.62656 -10.2458 -22.1794
-1.59285 -10.346 -22.1808
-1.55913 -10.4462 -22.1822
-1.52541 -10.5465 -22.1835
