ply
format ascii 1.0
comment VCGLIB generated
element vertex 1228
property float x
property float y
property float z
element face 0
property list uchar int vertex_indices
end_header
4.56503 -14.0864 -20.7678
4.71547 -14.0695 -20.7667
4.78542 -13.9902 -20.7681
5.41889 -14.3481 -20.7525
5.73035 -14.4562 -20.7466
5.9613 -14.5018 -20.7431
6.19225 -14.5475 -20.7396
6.3427 -14.5306 -20.7386
6.41265 -14.4513 -20.7399
6.6436 -14.4969 -20.7365
6.79405 -14.4801 -20.7354
6.94449 -14.4632 -20.7343
7.09494 -14.4464 -20.7333
7.24539 -14.4295 -20.7322
7.31533 -14.3502 -20.7336
7.38528 -14.2709 -20.735
7.53573 -14.254 -20.7339
7.60567 -14.1747 -20.7353
7.67561 -14.0954 -20.7366
7.74556 -14.0161 -20.738
7.8155 -13.9368 -20.7394
7.88544 -13.8575 -20.7407
7.95538 -13.7781 -20.7421
8.10583 -13.7613 -20.741
8.17577 -13.682 -20.7424
8.32622 -13.6651 -20.7414
8.39616 -13.5858 -20.7427
8.46611 -13.5065 -20.7441
8.53605 -13.4272 -20.7455
8.60599 -13.3479 -20.7468
8.67594 -13.2686 -20.7482
8.82639 -13.2517 -20.7471
8.89633 -13.1724 -20.7485
9.04678 -13.1555 -20.7474
9.11672 -13.0762 -20.7488
9.18666 -12.9969 -20.7502
9.33711 -12.9801 -20.7491
9.40705 -12.9008 -20.7505
9.477 -12.8214 -20.7518
9.62745 -12.8046 -20.7508
9.69739 -12.7253 -20.7522
9.76733 -12.646 -20.7535
9.75677 -12.5042 -20.7573
9.82671 -12.4249 -20.7587
9.89666 -12.3456 -20.76
9.9666 -12.2662 -20.7614
10.117 -12.2494 -20.7603
10.187 -12.1701 -20.7617
10.2569 -12.0908 -20.7631
10.3269 -12.0114 -20.7645
10.3968 -11.9321 -20.7658
10.4668 -11.8528 -20.7672
10.5367 -11.7735 -20.7685
10.6872 -11.7567 -20.7675
10.8376 -11.7398 -20.7664
10.9075 -11.6605 -20.7678
11.058 -11.6436 -20.7667
11.1279 -11.5643 -20.7681
11.1979 -11.485 -20.7695
11.2678 -11.4057 -20.7708
11.3378 -11.3264 -20.7722
11.4077 -11.2471 -20.7736
11.5582 -11.2302 -20.7725
11.6281 -11.1509 -20.7739
11.7785 -11.134 -20.7728
11.929 -11.1172 -20.7718
12.0794 -11.1004 -20.7707
12.2299 -11.0835 -20.7697
12.3803 -11.0667 -20.7686
12.4503 -10.9873 -20.77
12.5202 -10.908 -20.7713
12.6707 -10.8912 -20.7703
12.7406 -10.8119 -20.7716
12.8106 -10.7325 -20.773
12.961 -10.7157 -20.7719
13.0309 -10.6364 -20.7733
13.1814 -10.6195 -20.7722
13.2513 -10.5402 -20.7736
13.4018 -10.5234 -20.7726
13.5522 -10.5065 -20.7715
13.7027 -10.4897 -20.7704
13.7726 -10.4104 -20.7718
13.8426 -10.331 -20.7732
13.9125 -10.2517 -20.7746
13.9825 -10.1724 -20.7759
14.0524 -10.0931 -20.7773
14.1223 -10.0138 -20.7786
14.1923 -9.93447 -20.78
14.1817 -9.79268 -20.7838
14.2517 -9.71337 -20.7852
14.2411 -9.57159 -20.789
14.311 -9.49228 -20.7903
14.381 -9.41296 -20.7917
14.4509 -9.33365 -20.7931
14.5209 -9.25433 -20.7944
14.5908 -9.17502 -20.7958
14.6608 -9.09571 -20.7971
14.7307 -9.01639 -20.7985
14.8812 -8.99954 -20.7975
14.9511 -8.92023 -20.7988
15.021 -8.84091 -20.8002
15.091 -8.7616 -20.8016
15.1609 -8.68228 -20.8029
15.2309 -8.60297 -20.8043
15.3008 -8.52365 -20.8056
15.3708 -8.44434 -20.807
15.5212 -8.42749 -20.806
15.5911 -8.34817 -20.8073
15.6611 -8.26886 -20.8087
15.6505 -8.12708 -20.8125
15.7205 -8.04776 -20.8139
15.7904 -7.96845 -20.8152
15.8604 -7.88913 -20.8166
15.9303 -7.80982 -20.8179
16.0002 -7.7305 -20.8193
15.9897 -7.58873 -20.8231
16.0596 -7.50941 -20.8245
16.1296 -7.43009 -20.8258
16.1995 -7.35078 -20.8272
16.2695 -7.27147 -20.8286
16.2589 -7.12969 -20.8324
16.3288 -7.05037 -20.8337
16.3988 -6.97106 -20.8351
16.4687 -6.89174 -20.8365
16.5387 -6.81243 -20.8378
16.5281 -6.67065 -20.8416
16.598 -6.59133 -20.843
16.5875 -6.44955 -20.8468
16.5769 -6.30777 -20.8506
16.4054 -6.04106 -20.8592
16.3948 -5.89928 -20.863
16.3842 -5.7575 -20.8668
16.4542 -5.67818 -20.8681
16.5241 -5.59887 -20.8695
16.5136 -5.45709 -20.8733
16.5835 -5.37778 -20.8747
16.5729 -5.23599 -20.8784
16.6429 -5.15668 -20.8798
16.6323 -5.0149 -20.8836
16.2192 -4.56079 -20.8995
7.51073 -14.3389 -20.7655
7.73354 -14.2629 -20.762
8.05732 -14.2008 -20.7561
8.17918 -14.111 -20.7551
8.2001 -14.0073 -20.7565
8.32197 -13.9175 -20.7554
8.34288 -13.8138 -20.7568
8.3638 -13.7102 -20.7581
8.48566 -13.6204 -20.7571
8.50658 -13.5167 -20.7584
8.9313 -13.4684 -20.7501
9.05317 -13.3786 -20.7491
9.07408 -13.2749 -20.7504
9.19595 -13.1851 -20.7494
9.31782 -13.0953 -20.7483
9.54064 -13.0193 -20.7448
9.56155 -12.9157 -20.7462
9.68342 -12.8259 -20.7451
9.70434 -12.7222 -20.7465
9.72525 -12.6185 -20.7479
9.84711 -12.5287 -20.7468
10.0699 -12.4528 -20.7433
10.2928 -12.3768 -20.7399
10.4146 -12.287 -20.7388
10.4355 -12.1833 -20.7402
10.5574 -12.0935 -20.7391
10.5783 -11.9898 -20.7405
10.7002 -11.9 -20.7394
10.8221 -11.8102 -20.7384
10.9439 -11.7204 -20.7373
11.0658 -11.6306 -20.7362
11.1877 -11.5408 -20.7352
11.3095 -11.4509 -20.7341
11.4314 -11.3611 -20.7331
11.6542 -11.2851 -20.7296
11.877 -11.2092 -20.7261
11.9989 -11.1194 -20.7251
12.3227 -11.0572 -20.7191
12.5455 -10.9813 -20.7157
12.6673 -10.8914 -20.7146
12.7892 -10.8016 -20.7135
12.9111 -10.7118 -20.7125
13.033 -10.622 -20.7114
13.1548 -10.5322 -20.7104
13.1757 -10.4285 -20.7117
13.1966 -10.3249 -20.7131
13.3185 -10.235 -20.7121
13.9451 -10.2145 -20.6989
14.168 -10.1385 -20.6954
14.1889 -10.0348 -20.6968
14.3107 -9.94501 -20.6957
14.3317 -9.84135 -20.6971
14.3526 -9.73769 -20.6984
14.3735 -9.63402 -20.6998
14.4954 -9.54421 -20.6987
14.6172 -9.45439 -20.6977
14.7391 -9.36458 -20.6966
14.861 -9.27476 -20.6956
15.0838 -9.19879 -20.6921
15.3066 -9.12282 -20.6886
15.4285 -9.033 -20.6876
15.4494 -8.92934 -20.6889
15.4703 -8.82568 -20.6903
15.4912 -8.72202 -20.6917
15.6131 -8.63221 -20.6906
15.634 -8.52855 -20.692
15.7559 -8.43873 -20.6909
15.7768 -8.33507 -20.6923
15.7977 -8.23141 -20.6936
15.9196 -8.14159 -20.6926
15.9405 -8.03794 -20.694
16.0623 -7.94812 -20.6929
16.0832 -7.84446 -20.6943
16.1042 -7.7408 -20.6956
16.1251 -7.63714 -20.697
16.2469 -7.54732 -20.6959
16.2679 -7.44366 -20.6973
16.2888 -7.34 -20.6987
16.3097 -7.23634 -20.7
16.4316 -7.14653 -20.699
16.4525 -7.04287 -20.7003
16.4734 -6.93921 -20.7017
16.4943 -6.83555 -20.7031
16.5152 -6.73189 -20.7044
16.6371 -6.64207 -20.7034
16.658 -6.53841 -20.7047
16.6789 -6.43475 -20.7061
16.6998 -6.33109 -20.7075
16.7207 -6.22743 -20.7088
16.7417 -6.12377 -20.7102
16.6616 -6.00626 -20.714
16.6825 -5.90261 -20.7154
16.7035 -5.79895 -20.7167
16.7244 -5.69528 -20.7181
16.7453 -5.59162 -20.7195
16.7662 -5.48796 -20.7208
16.6862 -5.37046 -20.7246
16.7071 -5.2668 -20.726
16.728 -5.16314 -20.7274
16.7489 -5.05948 -20.7287
16.7698 -4.95582 -20.7301
16.7907 -4.85216 -20.7314
16.8117 -4.7485 -20.7328
16.8326 -4.64484 -20.7342
16.7525 -4.52733 -20.738
16.7734 -4.42367 -20.7393
16.7944 -4.32001 -20.7407
16.8153 -4.21635 -20.7421
16.8362 -4.11269 -20.7434
16.8571 -4.00903 -20.7448
16.878 -3.90537 -20.7462
16.8989 -3.80171 -20.7475
16.8189 -3.68421 -20.7513
16.8398 -3.58055 -20.7527
16.8607 -3.47689 -20.7541
16.7807 -3.35938 -20.7578
16.8016 -3.25572 -20.7592
14.3997 -2.8198 -20.8187
14.3196 -2.7023 -20.8225
14.2396 -2.58479 -20.8263
14.1596 -2.46728 -20.8301
14.1805 -2.36363 -20.8315
14.1004 -2.24612 -20.8353
14.1214 -2.14246 -20.8366
14.0413 -2.02496 -20.8404
14.0622 -1.9213 -20.8418
13.9822 -1.80379 -20.8456
14.0031 -1.70013 -20.8469
13.9231 -1.58263 -20.8507
13.944 -1.47897 -20.8521
13.864 -1.36146 -20.8559
13.7839 -1.24396 -20.8597
13.7039 -1.12645 -20.8634
13.7248 -1.02279 -20.8648
13.6448 -0.905288 -20.8686
13.5647 -0.787784 -20.8724
13.4847 -0.670279 -20.8762
13.4047 -0.552776 -20.88
13.3246 -0.43527 -20.8838
13.3455 -0.331608 -20.8851
13.3664 -0.227949 -20.8865
13.2864 -0.110446 -20.8903
13.3073 -0.00678658 -20.8916
13.2273 0.110717 -20.8954
13.2482 0.214379 -20.8968
13.2691 0.318039 -20.8982
13.1891 0.435546 -20.902
13.21 0.539203 -20.9033
13.13 0.656706 -20.9071
13.1509 0.760368 -20.9085
13.0708 0.877872 -20.9123
13.0918 0.981533 -20.9136
13.1127 1.08519 -20.915
13.1336 1.18885 -20.9164
13.1545 1.29251 -20.9177
13.0745 1.41002 -20.9215
13.0954 1.51368 -20.9229
13.0153 1.63118 -20.9267
13.0363 1.73484 -20.9281
12.9562 1.85235 -20.9318
12.9771 1.95601 -20.9332
12.8971 2.07351 -20.937
12.918 2.17717 -20.9384
12.9389 2.28083 -20.9397
12.9598 2.38449 -20.9411
12.9808 2.48815 -20.9425
12.9007 2.60566 -20.9462
12.9216 2.70932 -20.9476
12.9426 2.81298 -20.949
12.9635 2.91664 -20.9503
12.8834 3.03414 -20.9541
12.9044 3.1378 -20.9555
12.9253 3.24146 -20.9569
12.9462 3.34512 -20.9582
12.9671 3.44878 -20.9596
12.988 3.55244 -20.961
12.908 3.66995 -20.9648
12.9289 3.77361 -20.9661
12.8488 3.89111 -20.9699
12.8698 3.99477 -20.9713
12.7897 4.11227 -20.9751
12.8106 4.21594 -20.9764
12.8316 4.3196 -20.9778
12.8525 4.42326 -20.9792
12.7724 4.54076 -20.983
12.7934 4.64442 -20.9843
12.8143 4.74808 -20.9857
12.8352 4.85174 -20.987
12.8561 4.9554 -20.9884
12.877 5.05906 -20.9898
12.8979 5.16272 -20.9911
12.9188 5.26638 -20.9925
12.9398 5.37004 -20.9939
12.9607 5.4737 -20.9952
12.8806 5.59121 -20.999
12.9016 5.69487 -21.0004
12.9225 5.79853 -21.0018
12.9434 5.90219 -21.0031
12.8633 6.01969 -21.0069
12.8843 6.12335 -21.0083
12.8042 6.24086 -21.0121
12.8251 6.34452 -21.0134
12.7451 6.46202 -21.0172
12.6651 6.57953 -21.021
12.686 6.68319 -21.0224
12.7069 6.78685 -21.0238
12.7278 6.89051 -21.0251
12.7487 6.99417 -21.0265
12.7696 7.09783 -21.0278
12.7906 7.20149 -21.0292
12.8115 7.30515 -21.0306
12.8324 7.40881 -21.032
12.8533 7.51247 -21.0333
12.2685 7.69919 -21.0492
15.2906 -3.89962 -20.742
15.2569 -3.79939 -20.7434
15.3175 -3.66067 -20.7423
15.2838 -3.56044 -20.7437
15.1557 -3.4987 -20.7475
15.122 -3.39847 -20.7488
15.0883 -3.29824 -20.7502
15.0546 -3.19801 -20.7516
15.0208 -3.09778 -20.7529
14.9871 -2.99755 -20.7543
14.8591 -2.9358 -20.7581
14.8253 -2.83557 -20.7595
14.7916 -2.73534 -20.7608
14.6636 -2.6736 -20.7646
14.6298 -2.57337 -20.766
14.6905 -2.43465 -20.7649
14.6568 -2.33442 -20.7663
14.623 -2.23419 -20.7677
14.5893 -2.13397 -20.769
14.4613 -2.07222 -20.7728
14.4275 -1.97199 -20.7742
14.3938 -1.87176 -20.7755
14.3601 -1.77153 -20.7769
14.3264 -1.6713 -20.7783
14.2927 -1.57107 -20.7796
14.259 -1.47084 -20.781
14.2252 -1.37061 -20.7824
14.1915 -1.27038 -20.7837
14.1578 -1.17015 -20.7851
14.1241 -1.06992 -20.7865
14.0904 -0.96969 -20.7878
14.0567 -0.869461 -20.7892
14.0229 -0.769231 -20.7906
13.9892 -0.669001 -20.7919
13.8612 -0.607259 -20.7957
13.8274 -0.507028 -20.7971
13.7937 -0.406799 -20.7985
13.76 -0.306569 -20.7998
13.7263 -0.206339 -20.8012
13.7869 -0.0676217 -20.8001
13.7532 0.032608 -20.8015
13.7195 0.132838 -20.8029
13.6858 0.233068 -20.8042
13.6521 0.333298 -20.8056
13.6183 0.433529 -20.807
13.679 0.572243 -20.8059
13.6452 0.672472 -20.8073
13.6115 0.772702 -20.8086
13.6722 0.911421 -20.8076
13.6384 1.01165 -20.8089
13.6047 1.11188 -20.8103
13.571 1.21211 -20.8117
13.5373 1.31234 -20.813
13.5036 1.41257 -20.8144
13.4699 1.5128 -20.8158
13.4361 1.61303 -20.8171
13.4024 1.71326 -20.8185
13.3687 1.81349 -20.8199
13.335 1.91372 -20.8212
13.3013 2.01395 -20.8226
13.2676 2.11418 -20.824
13.1395 2.17592 -20.8278
13.1058 2.27615 -20.8291
13.0721 2.37638 -20.8305
13.1327 2.5151 -20.8294
13.099 2.61533 -20.8308
13.1596 2.75405 -20.8297
13.1259 2.85427 -20.8311
13.1865 2.99299 -20.83
13.1528 3.09322 -20.8314
13.1191 3.19345 -20.8328
13.1797 3.33217 -20.8317
13.146 3.4324 -20.8331
13.1123 3.53263 -20.8345
13.0786 3.63286 -20.8358
13.0449 3.73309 -20.8372
13.0111 3.83332 -20.8386
12.9774 3.93355 -20.8399
13.0381 4.07226 -20.8389
13.0043 4.17249 -20.8402
12.9706 4.27272 -20.8416
12.9369 4.37295 -20.843
12.9975 4.51167 -20.8419
12.9638 4.6119 -20.8433
13.0244 4.75062 -20.8422
12.9907 4.85084 -20.8436
12.957 4.95107 -20.8449
12.9233 5.0513 -20.8463
12.8896 5.15154 -20.8477
12.8559 5.25176 -20.849
12.8221 5.35199 -20.8504
12.7884 5.45222 -20.8518
12.7547 5.55245 -20.8531
12.721 5.65268 -20.8545
12.6873 5.75291 -20.8559
12.6536 5.85314 -20.8572
12.7142 5.99186 -20.8562
12.6805 6.09209 -20.8575
12.6468 6.19232 -20.8589
12.613 6.29255 -20.8603
12.5793 6.39278 -20.8616
12.64 6.5315 -20.8606
12.6062 6.63173 -20.862
12.6669 6.77044 -20.8609
12.6332 6.87067 -20.8623
12.5994 6.9709 -20.8636
12.5657 7.07113 -20.865
12.532 7.17136 -20.8664
12.5926 7.31008 -20.8653
12.5589 7.41031 -20.8667
12.6196 7.54903 -20.8656
12.5858 7.64926 -20.867
12.5521 7.74949 -20.8683
12.5184 7.84972 -20.8697
12.4847 7.94994 -20.8711
12.451 8.05018 -20.8725
12.4173 8.15041 -20.8738
12.3835 8.25064 -20.8752
12.3498 8.35086 -20.8765
12.2217 8.41261 -20.8803
12.188 8.51284 -20.8817
12.06 8.57458 -20.8855
11.9319 8.63632 -20.8893
11.8038 8.69807 -20.8931
11.5814 8.72132 -20.8993
11.5477 8.82156 -20.9007
11.4196 8.8833 -20.9044
11.2916 8.94504 -20.9082
11.1635 9.00679 -20.912
11.0354 9.06853 -20.9158
10.9074 9.13027 -20.9196
10.7793 9.19202 -20.9234
10.6512 9.25376 -20.9272
10.5232 9.3155 -20.931
10.3951 9.37725 -20.9348
10.267 9.43899 -20.9385
10.139 9.50073 -20.9423
10.0109 9.56248 -20.9461
9.69414 9.54725 -20.9548
9.56608 9.60899 -20.9585
9.43801 9.67074 -20.9623
14.1546 -0.511934 -20.8165
14.0753 -0.44199 -20.8178
14.0584 -0.291543 -20.8168
13.9791 -0.221599 -20.8181
13.8998 -0.151658 -20.8195
13.8205 -0.0817142 -20.8209
13.7412 -0.0117698 -20.8222
13.6618 0.0581737 -20.8236
13.645 0.208622 -20.8225
13.5657 0.278563 -20.8239
13.4864 0.348506 -20.8253
13.4071 0.41845 -20.8266
13.3902 0.568898 -20.8256
13.5608 0.96086 -20.8173
13.5439 1.11131 -20.8162
13.5271 1.26176 -20.8151
13.5102 1.41221 -20.8141
13.4309 1.48215 -20.8154
13.414 1.63259 -20.8144
13.3972 1.78304 -20.8133
13.3179 1.85299 -20.8147
13.301 2.00344 -20.8136
13.2842 2.15388 -20.8126
13.2049 2.22382 -20.8139
13.188 2.37427 -20.8129
13.1087 2.44422 -20.8143
13.0294 2.51416 -20.8156
13.0125 2.66461 -20.8146
12.9332 2.73455 -20.8159
13.1038 3.12651 -20.8076
13.0869 3.27696 -20.8065
13.0701 3.42741 -20.8055
13.0532 3.57786 -20.8044
12.9739 3.6478 -20.8058
12.9571 3.79825 -20.8047
12.9402 3.9487 -20.8037
12.9234 4.09914 -20.8026
12.844 4.16909 -20.804
12.8272 4.31954 -20.8029
12.8103 4.46998 -20.8019
12.731 4.53993 -20.8033
12.7142 4.69038 -20.8022
12.6973 4.84082 -20.8011
12.7429 5.07177 -20.7977
12.7261 5.22222 -20.7966
12.7093 5.37267 -20.7955
12.6924 5.52312 -20.7945
12.6131 5.59306 -20.7959
12.5962 5.74351 -20.7948
12.6419 5.97446 -20.7913
12.6875 6.20542 -20.7878
12.6082 6.27536 -20.7892
12.5913 6.4258 -20.7881
12.512 6.49575 -20.7895
12.5576 6.7267 -20.786
12.5408 6.87715 -20.785
12.5864 7.1081 -20.7815
12.5695 7.25855 -20.7804
12.4902 7.32849 -20.7818
12.4734 7.47894 -20.7807
12.4565 7.62939 -20.7797
12.4397 7.77984 -20.7786
12.4228 7.93028 -20.7776
12.3435 8.00023 -20.7789
12.3266 8.15068 -20.7779
12.2473 8.22062 -20.7793
12.168 8.29056 -20.7806
12.1512 8.44101 -20.7796
12.0719 8.51096 -20.7809
11.9925 8.5809 -20.7823
11.9757 8.73135 -20.7812
11.9588 8.88179 -20.7802
11.8795 8.95174 -20.7815
11.8002 9.02168 -20.7829
11.7209 9.09162 -20.7843
11.5791 9.08106 -20.7881
11.4998 9.151 -20.7894
11.4205 9.22095 -20.7908
11.2787 9.21039 -20.7946
11.1994 9.28033 -20.7959
11.1201 9.35027 -20.7973
11.0408 9.42022 -20.7987
10.899 9.40965 -20.8025
10.8197 9.47959 -20.8038
10.7404 9.54954 -20.8052
10.5986 9.53897 -20.809
10.5193 9.60892 -20.8104
10.4399 9.67886 -20.8117
10.2982 9.66831 -20.8155
10.2189 9.73825 -20.8169
10.1395 9.80819 -20.8182
10.0602 9.87813 -20.8196
9.98091 9.94808 -20.821
9.83912 9.93751 -20.8248
9.75981 10.0075 -20.8261
9.61803 9.99689 -20.8299
9.47625 9.98633 -20.8337
9.39693 10.0563 -20.8351
9.25515 10.0457 -20.8389
9.11337 10.0352 -20.8427
9.03406 10.1051 -20.844
8.89227 10.0945 -20.8478
8.81296 10.1645 -20.8492
8.67118 10.1539 -20.853
8.59187 10.2239 -20.8543
8.45009 10.2133 -20.8581
8.30831 10.2027 -20.8619
8.22899 10.2727 -20.8633
8.14968 10.3426 -20.8646
8.07036 10.4126 -20.866
7.92858 10.402 -20.8698
7.84927 10.472 -20.8712
7.58256 10.3004 -20.8798
7.44078 10.2898 -20.8836
7.36146 10.3598 -20.8849
7.21968 10.3492 -20.8887
7.14036 10.4191 -20.8901
6.99859 10.4086 -20.8939
6.91927 10.4785 -20.8953
6.83996 10.5485 -20.8966
6.76064 10.6184 -20.898
6.61886 10.6078 -20.9018
6.47708 10.5973 -20.9056
6.39776 10.6672 -20.9069
6.25598 10.6567 -20.9107
6.11421 10.6461 -20.9145
5.97243 10.6355 -20.9183
5.83065 10.625 -20.9221
5.6264 10.5339 -20.9283
5.48462 10.5234 -20.9321
5.21791 10.3518 -20.9407
5.07613 10.3412 -20.9445
4.93435 10.3307 -20.9483
4.79257 10.3201 -20.9521
4.65078 10.3095 -20.9559
4.50901 10.299 -20.9597
4.30476 10.2079 -20.9659
4.03805 10.0363 -20.9745
3.89627 10.0258 -20.9783
3.75449 10.0152 -20.9821
3.61271 10.0047 -20.9859
3.47093 9.99409 -20.9897
12.1276 8.47562 -20.7835
12.0378 8.59748 -20.7824
12.0033 9.12316 -20.7717
11.9274 9.34598 -20.7682
11.8237 9.36689 -20.7695
11.7339 9.48876 -20.7685
11.6441 9.61063 -20.7674
11.5404 9.63155 -20.7688
11.4367 9.65246 -20.7702
11.3331 9.67338 -20.7715
11.2294 9.69429 -20.7729
11.1258 9.71521 -20.7743
11.0221 9.73612 -20.7756
10.9323 9.85798 -20.7746
10.8286 9.8789 -20.7759
10.7388 10.0008 -20.7749
10.6352 10.0217 -20.7762
10.5315 10.0426 -20.7776
10.4278 10.0635 -20.779
10.3242 10.0844 -20.7803
10.2205 10.1053 -20.7817
10.1169 10.1263 -20.7831
10.0132 10.1472 -20.7844
9.89569 10.0671 -20.7882
9.80587 10.189 -20.7872
9.70221 10.2099 -20.7885
9.59855 10.2308 -20.7899
9.49489 10.2518 -20.7913
9.39123 10.2727 -20.7926
9.28757 10.2936 -20.794
9.19776 10.4155 -20.7929
9.0941 10.4364 -20.7943
8.99044 10.4573 -20.7957
8.90062 10.5791 -20.7946
8.79696 10.6001 -20.796
8.6933 10.621 -20.7973
8.58964 10.6419 -20.7987
8.49982 10.7638 -20.7977
8.39617 10.7847 -20.799
8.29251 10.8056 -20.8004
8.18884 10.8265 -20.8018
8.09903 10.9484 -20.8007
7.99537 10.9693 -20.8021
7.89171 10.9902 -20.8034
7.78805 11.0111 -20.8048
7.68439 11.032 -20.8062
7.58073 11.0529 -20.8075
7.47707 11.0739 -20.8089
7.37341 11.0948 -20.8103
7.26975 11.1157 -20.8116
7.16609 11.1366 -20.813
7.06243 11.1575 -20.8144
6.95877 11.1784 -20.8157
6.85511 11.1994 -20.8171
6.7376 11.1193 -20.8209
6.63394 11.1402 -20.8223
6.53028 11.1611 -20.8236
6.42662 11.1821 -20.825
6.30912 11.102 -20.8288
6.20546 11.1229 -20.8301
6.1018 11.1438 -20.8315
5.99814 11.1648 -20.8329
5.89447 11.1857 -20.8342
5.80466 11.3076 -20.8332
5.68716 11.2275 -20.837
5.5835 11.2484 -20.8383
5.46599 11.1684 -20.8421
5.33464 10.9874 -20.8483
5.21714 10.9074 -20.8521
5.11348 10.9283 -20.8535
5.00982 10.9492 -20.8549
4.89231 10.8692 -20.8586
4.78865 10.8901 -20.86
4.68499 10.911 -20.8614
4.58133 10.9319 -20.8627
4.46383 10.8519 -20.8665
4.36017 10.8728 -20.8679
4.24266 10.7927 -20.8717
4.139 10.8137 -20.873
4.0215 10.7336 -20.8768
3.91784 10.7545 -20.8782
3.80033 10.6745 -20.882
3.68283 10.5945 -20.8858
3.55148 10.4135 -20.892
3.43398 10.3334 -20.8958
3.33032 10.3544 -20.8972
3.22666 10.3753 -20.8985
3.123 10.3962 -20.8999
3.01934 10.4171 -20.9012
2.91568 10.438 -20.9026
2.81201 10.4589 -20.904
2.70836 10.4798 -20.9053
2.59085 10.3998 -20.9091
2.48719 10.4207 -20.9105
2.36969 10.3407 -20.9143
2.26603 10.3616 -20.9157
2.14852 10.2816 -20.9194
2.03102 10.2015 -20.9232
1.92736 10.2224 -20.9246
1.80985 10.1424 -20.9284
1.70619 10.1633 -20.9298
1.57484 9.98234 -20.936
1.44349 9.80135 -20.9422
1.32599 9.72131 -20.946
1.20849 9.64127 -20.9498
1.07714 9.46028 -20.956
0.959631 9.38025 -20.9598
0.842128 9.30021 -20.9635
0.724624 9.22017 -20.9673
0.607119 9.14014 -20.9711
0.47577 8.95915 -20.9773
0.358265 8.87911 -20.9811
0.240759 8.79907 -20.9849
0.123258 8.71904 -20.9887
8.86129 10.9511 -20.8395
8.72258 11.0117 -20.8384
8.62235 10.978 -20.8398
8.52212 10.9443 -20.8411
8.42189 10.9106 -20.8425
8.32166 10.8769 -20.8439
8.22143 10.8432 -20.8452
8.1212 10.8094 -20.8466
8.02097 10.7757 -20.848
7.92074 10.742 -20.8493
7.85899 10.6139 -20.8531
7.75876 10.5802 -20.8545
7.65853 10.5465 -20.8559
7.51982 10.6071 -20.8548
7.30413 10.8565 -20.8489
7.12692 11.0114 -20.8454
6.98821 11.0721 -20.8443
6.84949 11.1327 -20.8433
6.74926 11.099 -20.8447
6.61055 11.1596 -20.8436
6.51032 11.1259 -20.845
6.3716 11.1865 -20.8439
6.23288 11.2472 -20.8428
6.13265 11.2135 -20.8442
5.99394 11.2741 -20.8432
5.89371 11.2404 -20.8445
5.79348 11.2067 -20.8459
5.69325 11.1729 -20.8473
5.59302 11.1392 -20.8486
5.49279 11.1055 -20.85
5.39256 11.0718 -20.8514
5.29233 11.0381 -20.8527
5.15361 11.0987 -20.8517
5.05338 11.065 -20.853
4.95315 11.0313 -20.8544
4.85292 10.9976 -20.8558
4.75269 10.9638 -20.8571
4.65246 10.9301 -20.8585
4.55223 10.8964 -20.8599
4.41351 10.957 -20.8588
4.31328 10.9233 -20.8602
4.17457 10.9839 -20.8591
4.07434 10.9502 -20.8605
3.97411 10.9165 -20.8618
3.83539 10.9771 -20.8608
3.73516 10.9434 -20.8622
3.63493 10.9097 -20.8635
3.5347 10.876 -20.8649
3.47296 10.7479 -20.8687
3.37273 10.7142 -20.87
3.23401 10.7748 -20.869
3.13378 10.7411 -20.8703
3.03355 10.7074 -20.8717
2.89484 10.768 -20.8707
2.79461 10.7343 -20.872
2.69438 10.7006 -20.8734
2.59415 10.6669 -20.8748
2.49392 10.6332 -20.8761
2.39369 10.5995 -20.8775
2.29346 10.5657 -20.8789
2.19323 10.532 -20.8802
2.093 10.4983 -20.8816
1.99277 10.4646 -20.8829
1.89254 10.4309 -20.8843
1.79231 10.3972 -20.8857
1.69208 10.3634 -20.8871
1.63033 10.2354 -20.8908
1.5301 10.2017 -20.8922
1.42987 10.1679 -20.8936
1.36813 10.0399 -20.8974
1.2679 10.0062 -20.8987
1.16767 9.97244 -20.9001
1.06744 9.93872 -20.9015
1.0057 9.81066 -20.9053
0.905469 9.77694 -20.9066
0.805238 9.74322 -20.908
0.705008 9.7095 -20.9093
0.604778 9.67579 -20.9107
0.543034 9.54772 -20.9145
0.442805 9.514 -20.9159
0.381061 9.38594 -20.9197
0.280831 9.35222 -20.921
0.219088 9.22415 -20.9248
0.118859 9.19043 -20.9262
-0.0198576 9.25107 -20.9251
-0.120089 9.21735 -20.9265
-0.220319 9.18364 -20.9279
-0.282062 9.05557 -20.9316
-0.38229 9.02185 -20.933
-0.444036 8.89379 -20.9368
-0.544266 8.86007 -20.9382
-0.606007 8.732 -20.942
-0.667753 8.60394 -20.9457
-0.691009 8.38152 -20.952
-0.791239 8.3478 -20.9533
-0.891469 8.31409 -20.9547
-0.991699 8.28037 -20.9561
-1.09193 8.24665 -20.9574
-1.19216 8.21293 -20.9588
-1.2539 8.08487 -20.9626
-1.35413 8.05115 -20.9639
-1.41588 7.92309 -20.9677
-1.51611 7.88937 -20.9691
-1.57785 7.7613 -20.9729
-1.67808 7.72759 -20.9743
-1.73982 7.59952 -20.978
-1.84006 7.5658 -20.9794
-1.9018 7.43773 -20.9832
-1.96354 7.30967 -20.987
-2.02528 7.1816 -20.9908
-2.08703 7.05354 -20.9946
-2.18726 7.01982 -20.9959
-2.249 6.89176 -20.9997
-2.31074 6.76369 -21.0035
-2.41097 6.72997 -21.0049
-2.5112 6.69626 -21.0062
-2.61143 6.66254 -21.0076
-2.67318 6.53447 -21.0114
-2.69643 6.31206 -21.0176
-2.75818 6.18399 -21.0214
-2.81992 6.05592 -21.0252
-2.92015 6.02221 -21.0266
-3.02038 5.98849 -21.0279
-3.08212 5.86043 -21.0317
5.26829 11.3991 -20.9353
5.11784 11.3823 -20.9343
4.9674 11.3654 -20.9332
4.81695 11.3486 -20.9322
4.26398 11.644 -20.919
4.03302 11.6897 -20.9155
3.88258 11.6728 -20.9144
3.73213 11.656 -20.9134
3.58168 11.6391 -20.9123
3.51174 11.5598 -20.9137
3.36129 11.5429 -20.9126
3.29135 11.4636 -20.914
3.2214 11.3843 -20.9154
3.07096 11.3675 -20.9143
3.00101 11.2882 -20.9157
2.85057 11.2713 -20.9146
2.70012 11.2545 -20.9136
2.54967 11.2376 -20.9125
2.47973 11.1583 -20.9139
2.40978 11.079 -20.9152
2.33984 10.9997 -20.9166
2.2699 10.9203 -20.918
2.19995 10.841 -20.9193
2.13001 10.7617 -20.9207
1.97956 10.7449 -20.9196
1.74861 10.7905 -20.9162
1.59816 10.7736 -20.9151
1.52822 10.6943 -20.9165
1.37777 10.6775 -20.9154
1.30783 10.5982 -20.9168
1.23789 10.5188 -20.9182
1.16794 10.4395 -20.9195
0.936988 10.4851 -20.916
0.786543 10.4683 -20.915
0.636092 10.4514 -20.9139
0.566151 10.3721 -20.9153
0.496207 10.2928 -20.9167
0.345758 10.276 -20.9156
0.275815 10.1966 -20.917
0.12537 10.1798 -20.9159
0.0554295 10.1005 -20.9173
-0.0950222 10.0836 -20.9162
-0.164966 10.0043 -20.9176
-0.23491 9.92501 -20.9189
-0.30485 9.84569 -20.9203
-0.374794 9.76638 -20.9217
-0.36423 9.62459 -20.9255
-0.434175 9.54528 -20.9268
-0.504118 9.46597 -20.9282
-0.574059 9.38665 -20.9296
-0.72451 9.3698 -20.9285
-0.794453 9.29049 -20.9299
-0.944902 9.27364 -20.9288
-1.09535 9.25679 -20.9278
-1.16529 9.17747 -20.9291
-1.31574 9.16063 -20.9281
-1.38568 9.08131 -20.9294
-1.45563 9.002 -20.9308
-1.52557 8.92268 -20.9322
-1.59551 8.84337 -20.9335
-1.66546 8.76405 -20.9349
-1.7354 8.68474 -20.9363
-1.80534 8.60542 -20.9376
-1.87528 8.52611 -20.939
-1.94523 8.44679 -20.9404
-2.01517 8.36748 -20.9417
-2.08511 8.28817 -20.9431
-2.15506 8.20885 -20.9445
-2.1445 8.06707 -20.9482
-2.29494 8.05022 -20.9472
-2.36489 7.97091 -20.9486
-2.43483 7.89159 -20.9499
-2.42427 7.74981 -20.9537
-2.49421 7.6705 -20.9551
-2.56415 7.59118 -20.9565
-2.6341 7.51187 -20.9578
-2.70404 7.43255 -20.9592
-2.77399 7.35324 -20.9605
-2.76342 7.21146 -20.9643
-2.83337 7.13214 -20.9657
-2.90331 7.05283 -20.9671
-2.97325 6.97351 -20.9684
-3.04319 6.8942 -20.9698
-3.11314 6.81488 -20.9712
-3.18308 6.73557 -20.9725
-3.25303 6.65625 -20.9739
-3.32297 6.57694 -20.9753
-3.39291 6.49762 -20.9766
-3.54336 6.48078 -20.9756
-3.6133 6.40146 -20.9769
-3.68325 6.32215 -20.9783
-3.75319 6.24283 -20.9797
-3.82313 6.16352 -20.981
-3.89307 6.0842 -20.9824
-3.96302 6.00489 -20.9838
-4.03296 5.92557 -20.9851
-4.10291 5.84626 -20.9865
-4.17285 5.76694 -20.9879
-4.24279 5.68763 -20.9892
-4.31273 5.60832 -20.9906
-4.38268 5.529 -20.992
-4.45262 5.44969 -20.9933
-4.52256 5.37037 -20.9947
-4.59251 5.29106 -20.9961
-4.66245 5.21174 -20.9974
-4.7324 5.13243 -20.9988
-4.80234 5.05311 -21.0002
-4.87228 4.9738 -21.0015
-4.86172 4.83202 -21.0053
-4.93166 4.7527 -21.0067
-5.00161 4.67339 -21.008
-4.99104 4.53161 -21.0118
-5.06099 4.45229 -21.0132
-5.13093 4.37298 -21.0146
-5.20087 4.29367 -21.0159
-5.27082 4.21435 -21.0173
-5.34076 4.13503 -21.0187
-5.4107 4.05572 -21.02
-5.40014 3.91394 -21.0238
-5.47008 3.83462 -21.0252
-5.45952 3.69285 -21.029
-5.44896 3.55106 -21.0328
-5.5189 3.47175 -21.0341
-5.58885 3.39244 -21.0355
-5.65879 3.31312 -21.0369
-5.72873 3.2338 -21.0382
-5.79868 3.15449 -21.0396
-5.86862 3.07518 -21.041
-5.93856 2.99586 -21.0423
-5.928 2.85408 -21.0461
-5.91744 2.7123 -21.0499
-5.90688 2.57052 -21.0537
-5.89632 2.42874 -21.0575
-5.88575 2.28696 -21.0613
-5.9557 2.20765 -21.0626
-5.94514 2.06586 -21.0664
-5.37231 4.88419 -20.9775
-5.49417 4.79437 -20.9764
-5.51508 4.69071 -20.9778
-5.63695 4.60089 -20.9768
-5.65787 4.49723 -20.9781
-5.77973 4.40742 -20.9771
-5.9016 4.3176 -20.976
-5.92251 4.21394 -20.9774
-5.94343 4.11028 -20.9787
-6.0653 4.02047 -20.9777
-6.08621 3.91681 -20.979
-6.10713 3.81315 -20.9804
-6.12804 3.70949 -20.9818
-6.14896 3.60583 -20.9832
-6.16988 3.50216 -20.9845
-6.19079 3.3985 -20.9859
-6.2117 3.29484 -20.9872
-6.23262 3.19118 -20.9886
-6.25354 3.08752 -20.99
-6.27445 2.98386 -20.9913
-6.29536 2.8802 -20.9927
-6.41723 2.79039 -20.9917
-6.43815 2.68673 -20.993
-6.56002 2.59691 -20.992
-6.58093 2.49325 -20.9933
-6.60184 2.38959 -20.9947
-6.62276 2.28593 -20.9961
-6.64367 2.18227 -20.9974
-6.66459 2.07861 -20.9988
-6.6855 1.97495 -21.0002
-6.60547 1.85745 -21.004
-6.62638 1.75379 -21.0053
-6.6473 1.65013 -21.0067
-6.56726 1.53262 -21.0105
-6.58818 1.42896 -21.0118
-6.60909 1.3253 -21.0132
-6.63001 1.22164 -21.0146
-6.54997 1.10414 -21.0184
-6.57088 1.00048 -21.0197
-6.49085 0.882971 -21.0235
-6.51176 0.779312 -21.0249
-6.53268 0.67565 -21.0262
-6.45264 0.558147 -21.03
-6.47356 0.454488 -21.0314
-6.49447 0.350827 -21.0328
-6.41443 0.233323 -21.0366
-6.43535 0.12966 -21.0379
-6.35532 0.0121577 -21.0417
-6.37623 -0.0915045 -21.0431
-6.39715 -0.195162 -21.0444
-6.41806 -0.298824 -21.0458
-6.33802 -0.416327 -21.0496
-6.25799 -0.533831 -21.0534
-6.17795 -0.651338 -21.0572
-6.37386 3.54745 -20.9885
-6.52884 3.37025 -20.985
-6.87252 3.11607 -20.9767
-6.93315 2.97736 -20.9756
-6.99378 2.83864 -20.9746
-7.05442 2.69993 -20.9735
-7.0207 2.5997 -20.9749
-7.08133 2.46098 -20.9738
-7.04761 2.36075 -20.9752
-7.10825 2.22203 -20.9742
-7.07453 2.1218 -20.9755
-7.13516 1.98309 -20.9745
-7.1958 1.84437 -20.9734
-7.25642 1.70565 -20.9724
-7.22271 1.60542 -20.9737
-7.18899 1.50519 -20.9751
-7.24962 1.36648 -20.974
-7.21591 1.26625 -20.9754
-7.27654 1.12753 -20.9743
-7.33717 0.988816 -20.9733
-7.30345 0.888587 -20.9746
-7.26973 0.788357 -20.976
-7.23602 0.688127 -20.9774
-7.29665 0.549409 -20.9763
-7.26294 0.449179 -20.9777
-7.22922 0.34895 -20.979
-7.1955 0.24872 -20.9804
-7.25613 0.110003 -20.9794
-7.22242 0.00977349 -20.9807
-7.1887 -0.0904582 -20.9821
-7.15498 -0.190686 -20.9835
-7.12126 -0.290917 -20.9848
-7.08755 -0.391147 -20.9862
-7.05383 -0.491377 -20.9875
-7.02012 -0.591607 -20.9889
-6.9864 -0.691836 -20.9903
-6.95268 -0.792067 -20.9917
-6.82462 -0.853809 -20.9954
-6.7909 -0.954041 -20.9968
-6.75718 -1.05427 -20.9982
-6.72346 -1.1545 -20.9995
-6.68975 -1.25473 -21.0009
-6.65603 -1.35496 -21.0023
-6.62231 -1.45519 -21.0036
-6.49424 -1.51693 -21.0074
-6.46053 -1.61716 -21.0088
-6.42681 -1.71739 -21.0102
-6.39309 -1.81762 -21.0115
-6.35938 -1.91785 -21.0129
-6.32566 -2.01808 -21.0143
-6.29194 -2.11831 -21.0156
-6.25822 -2.21854 -21.017
-6.22451 -2.31877 -21.0184
-6.19079 -2.419 -21.0197
-6.06273 -2.48075 -21.0235
-6.02901 -2.58098 -21.0249
-5.99529 -2.68121 -21.0262
-5.96158 -2.78144 -21.0276
-5.92786 -2.88167 -21.029
-5.89414 -2.98189 -21.0303
-5.76608 -3.04364 -21.0341
-5.73236 -3.14387 -21.0355
-5.69864 -3.2441 -21.0369
-5.66492 -3.34433 -21.0382
-5.63121 -3.44456 -21.0396
-5.59749 -3.54479 -21.041
-5.56378 -3.64502 -21.0423
-5.53006 -3.74525 -21.0437
-5.49634 -3.84548 -21.0451
-5.36827 -3.90722 -21.0488
-5.33455 -4.00745 -21.0502
-5.30084 -4.10768 -21.0516
-5.26712 -4.20791 -21.0529
-5.2334 -4.30814 -21.0543
-5.10534 -4.36989 -21.0581
-5.07162 -4.47012 -21.0595
-5.03791 -4.57034 -21.0608
-5.00419 -4.67058 -21.0622
-4.97047 -4.77081 -21.0636
-4.93676 -4.87104 -21.0649
-4.90304 -4.97127 -21.0663
-4.86932 -5.0715 -21.0677
-4.8356 -5.17172 -21.069
-4.80189 -5.27195 -21.0704
-4.76817 -5.37218 -21.0718
-4.6401 -5.43393 -21.0755
-4.60639 -5.53416 -21.0769
-4.57267 -5.63439 -21.0783
-4.53895 -5.73462 -21.0797
-4.50523 -5.83485 -21.081
-4.47152 -5.93508 -21.0824
-4.34345 -5.99682 -21.0862
-4.30973 -6.09705 -21.0875
-4.27602 -6.19728 -21.0889
-4.14795 -6.25902 -21.0927
-4.11424 -6.35925 -21.0941
-3.98617 -6.421 -21.0978
-3.95245 -6.52123 -21.0992
-3.91874 -6.62146 -21.1006
-3.79067 -6.6832 -21.1044
-3.75695 -6.78343 -21.1057
-3.72323 -6.88366 -21.1071
-3.68952 -6.98389 -21.1085
-3.56145 -7.04563 -21.1123
-3.52774 -7.14586 -21.1136
-3.49402 -7.2461 -21.115
-3.36595 -7.30784 -21.1188
-3.33223 -7.40807 -21.1201
-3.29852 -7.5083 -21.1215
-3.2648 -7.60853 -21.1229
-3.13674 -7.67027 -21.1267
-3.10302 -7.7705 -21.128
-3.0693 -7.87073 -21.1294
-3.03559 -7.97096 -21.1308
-2.90752 -8.0327 -21.1346
-2.8738 -8.13293 -21.1359
-2.84008 -8.23316 -21.1373
-2.80636 -8.33339 -21.1386
-2.77265 -8.43362 -21.14
-2.73893 -8.53385 -21.1414
-2.61087 -8.5956 -21.1452
-2.57715 -8.69583 -21.1465
-2.54343 -8.79606 -21.1479
-2.50972 -8.89629 -21.1493
-2.476 -8.99652 -21.1506
-2.44228 -9.09675 -21.152
-2.31422 -9.15849 -21.1558
-2.2805 -9.25872 -21.1572
-2.24678 -9.35895 -21.1585
-2.11872 -9.4207 -21.1623
-2.085 -9.52092 -21.1637
-2.05128 -9.62115 -21.165
-2.01756 -9.72139 -21.1664
-1.8895 -9.78313 -21.1702
-1.85578 -9.88336 -21.1716
-1.72771 -9.9451 -21.1754
-1.59965 -10.0068 -21.1791
-1.47158 -10.0686 -21.1829
-1.34352 -10.1303 -21.1867
-1.3098 -10.2306 -21.1881
-1.27608 -10.3308 -21.1895
-1.14802 -10.3925 -21.1932
-1.01995 -10.4543 -21.197
-0.986236 -10.5545 -21.1984
-0.858164 -10.6163 -21.2022
-0.824447 -10.7165 -21.2036
-0.696387 -10.7782 -21.2073
-0.568318 -10.84 -21.2111
-0.440253 -10.9017 -21.2149
-0.312187 -10.9635 -21.2187
-0.184119 -11.0252 -21.2225
-0.0560541 -11.0869 -21.2263
0.0720115 -11.1487 -21.2301
0.105727 -11.2489 -21.2314
0.139448 -11.3491 -21.2328
0.267513 -11.4109 -21.2366
0.395577 -11.4726 -21.2404
0.523647 -11.5344 -21.2442
0.74606 -11.5576 -21.2504
0.968474 -11.5809 -21.2566
1.09654 -11.6426 -21.2604
1.22461 -11.7044 -21.2642
1.63572 -11.6507 -21.2752
