ply
format ascii 1.0
comment VCGLIB generated
element vertex 1150
property float x
property float y
property float z
element face 0
property list uchar int vertex_indices
end_header
5.25788 -14.2232 -19.7573
5.40833 -14.2064 -19.7563
5.55878 -14.1895 -19.7552
5.78973 -14.2351 -19.7518
6.18169 -14.4057 -19.7434
6.33214 -14.3888 -19.7424
6.48259 -14.372 -19.7413
6.63304 -14.3551 -19.7402
6.78349 -14.3383 -19.7392
6.85343 -14.259 -19.7406
6.92337 -14.1796 -19.7419
6.99331 -14.1003 -19.7433
7.06326 -14.021 -19.7447
7.21371 -14.0042 -19.7436
7.36415 -13.9873 -19.7425
7.4341 -13.908 -19.7439
7.50404 -13.8287 -19.7453
7.65449 -13.8118 -19.7442
7.72443 -13.7325 -19.7456
7.79437 -13.6532 -19.7469
7.86432 -13.5739 -19.7483
7.93426 -13.4946 -19.7497
8.08471 -13.4777 -19.7486
8.15465 -13.3984 -19.75
8.3051 -13.3816 -19.7489
8.37504 -13.3023 -19.7503
8.44499 -13.2229 -19.7517
8.51493 -13.1436 -19.753
8.66537 -13.1268 -19.752
8.73532 -13.0475 -19.7533
8.72476 -12.9057 -19.7571
8.7947 -12.8264 -19.7585
8.86465 -12.7471 -19.7599
8.93459 -12.6677 -19.7612
9.00453 -12.5884 -19.7626
9.15498 -12.5716 -19.7615
9.22492 -12.4923 -19.7629
9.29486 -12.4129 -19.7643
9.36481 -12.3336 -19.7656
9.35425 -12.1919 -19.7694
9.50469 -12.175 -19.7684
9.57464 -12.0957 -19.7697
9.72508 -12.0788 -19.7687
9.79502 -11.9995 -19.7701
9.94548 -11.9827 -19.769
10.0959 -11.9658 -19.7679
10.1659 -11.8865 -19.7693
10.3163 -11.8697 -19.7682
10.3863 -11.7903 -19.7696
10.4562 -11.711 -19.771
10.5261 -11.6317 -19.7723
10.5961 -11.5524 -19.7737
10.666 -11.4731 -19.7751
10.736 -11.3938 -19.7764
10.8059 -11.3145 -19.7778
10.9564 -11.2976 -19.7767
11.1068 -11.2808 -19.7757
11.1768 -11.2014 -19.7771
11.2467 -11.1221 -19.7784
11.3166 -11.0428 -19.7798
11.3866 -10.9635 -19.7811
11.537 -10.9467 -19.7801
11.6875 -10.9298 -19.779
11.7574 -10.8505 -19.7804
11.9079 -10.8336 -19.7793
11.9778 -10.7543 -19.7807
12.1283 -10.7375 -19.7796
12.1982 -10.6582 -19.781
12.3487 -10.6413 -19.78
12.4186 -10.562 -19.7813
12.569 -10.5451 -19.7803
12.639 -10.4658 -19.7816
12.7894 -10.449 -19.7806
12.8594 -10.3697 -19.782
12.9293 -10.2904 -19.7833
12.9993 -10.211 -19.7847
13.1497 -10.1942 -19.7836
13.2197 -10.1149 -19.785
13.2896 -10.0356 -19.7863
13.44 -10.0187 -19.7853
13.51 -9.9394 -19.7867
13.5799 -9.86008 -19.788
13.7304 -9.84324 -19.787
13.8003 -9.76392 -19.7883
13.9508 -9.74707 -19.7873
14.1012 -9.73022 -19.7862
14.1712 -9.65091 -19.7876
14.2411 -9.57159 -19.789
14.311 -9.49228 -19.7903
14.381 -9.41296 -19.7917
14.4509 -9.33365 -19.7931
14.5209 -9.25433 -19.7944
14.5908 -9.17502 -19.7958
14.6608 -9.09571 -19.7971
14.7307 -9.01639 -19.7985
14.8007 -8.93707 -19.7999
14.8706 -8.85776 -19.8013
14.9405 -8.77844 -19.8026
15.0105 -8.69913 -19.804
15.0804 -8.61982 -19.8053
15.1504 -8.5405 -19.8067
15.2203 -8.46119 -19.8081
15.2903 -8.38187 -19.8094
15.3602 -8.30256 -19.8108
15.4301 -8.22324 -19.8122
15.5001 -8.14393 -19.8135
15.57 -8.06461 -19.8149
15.64 -7.9853 -19.8163
15.7904 -7.96845 -19.8152
15.8604 -7.88913 -19.8166
15.9303 -7.80982 -19.8179
16.0002 -7.7305 -19.8193
16.0702 -7.65119 -19.8207
16.1401 -7.57188 -19.8221
16.2101 -7.49256 -19.8234
16.1995 -7.35078 -19.8272
16.2695 -7.27147 -19.8286
16.3394 -7.19215 -19.8299
16.4093 -7.11284 -19.8313
16.3988 -6.97106 -19.8351
16.4687 -6.89174 -19.8365
16.4582 -6.74996 -19.8402
16.5281 -6.67065 -19.8416
16.5175 -6.52887 -19.8454
16.507 -6.38708 -19.8492
16.4964 -6.24531 -19.853
16.4859 -6.10353 -19.8568
16.4753 -5.96174 -19.8605
16.5452 -5.88243 -19.8619
16.5347 -5.74065 -19.8657
16.5241 -5.59887 -19.8695
16.5136 -5.45709 -19.8733
16.503 -5.31531 -19.8771
16.4924 -5.17353 -19.8809
16.4819 -5.03175 -19.8847
16.5518 -4.95243 -19.886
16.5413 -4.81066 -19.8898
7.30882 -14.3112 -19.7704
7.53164 -14.2352 -19.7669
7.65351 -14.1454 -19.7658
7.77538 -14.0556 -19.7648
7.99819 -13.9796 -19.7613
8.12007 -13.8898 -19.7602
8.14098 -13.7861 -19.7616
8.16189 -13.6825 -19.763
8.28376 -13.5927 -19.7619
8.50658 -13.5167 -19.7584
8.62844 -13.4269 -19.7574
8.75031 -13.3371 -19.7563
8.87218 -13.2473 -19.7553
8.89309 -13.1436 -19.7566
9.01496 -13.0538 -19.7556
9.03587 -12.9501 -19.7569
9.15774 -12.8603 -19.7559
9.17866 -12.7566 -19.7572
9.30052 -12.6668 -19.7562
9.4224 -12.577 -19.7551
9.44331 -12.4733 -19.7565
9.46422 -12.3697 -19.7579
9.58609 -12.2799 -19.7568
10.0108 -12.2316 -19.7485
10.1327 -12.1418 -19.7474
10.2545 -12.052 -19.7464
10.3764 -11.9621 -19.7453
10.4983 -11.8723 -19.7442
10.5192 -11.7687 -19.7456
10.6411 -11.6789 -19.7446
10.7629 -11.589 -19.7435
10.7838 -11.4854 -19.7449
11.0067 -11.4094 -19.7414
11.1285 -11.3196 -19.7403
11.3513 -11.2436 -19.7368
11.4732 -11.1538 -19.7358
11.5951 -11.064 -19.7347
11.717 -10.9742 -19.7337
11.8388 -10.8844 -19.7326
11.9607 -10.7945 -19.7316
11.9816 -10.6909 -19.7329
12.1035 -10.6011 -19.7319
12.4272 -10.5389 -19.726
12.5491 -10.4491 -19.7249
12.671 -10.3593 -19.7239
12.7928 -10.2695 -19.7228
12.8138 -10.1658 -19.7242
13.0366 -10.0899 -19.7207
13.3603 -10.0277 -19.7148
13.5832 -9.95176 -19.7113
13.806 -9.87578 -19.7078
13.8269 -9.77213 -19.7092
13.9488 -9.68231 -19.7081
14.0706 -9.59249 -19.7071
14.2934 -9.51652 -19.7036
14.4153 -9.42671 -19.7025
14.5372 -9.33689 -19.7015
14.6591 -9.24707 -19.7004
14.68 -9.14341 -19.7018
14.8018 -9.0536 -19.7007
14.8227 -8.94994 -19.7021
14.9446 -8.86012 -19.701
14.9655 -8.75646 -19.7024
14.9864 -8.6528 -19.7038
15.0074 -8.54914 -19.7051
15.1292 -8.45933 -19.7041
15.2511 -8.36951 -19.703
15.4739 -8.29354 -19.6995
15.5958 -8.20372 -19.6985
15.7176 -8.1139 -19.6974
15.7386 -8.01025 -19.6988
15.8604 -7.92043 -19.6977
15.9823 -7.83061 -19.6967
16.0032 -7.72695 -19.698
16.0241 -7.62329 -19.6994
16.045 -7.51963 -19.7008
16.1669 -7.42982 -19.6997
16.2888 -7.34 -19.6987
16.3097 -7.23634 -19.7
16.4316 -7.14653 -19.699
16.4525 -7.04287 -19.7003
16.4734 -6.93921 -19.7017
16.4943 -6.83555 -19.7031
16.6162 -6.74573 -19.702
16.6371 -6.64207 -19.7034
16.658 -6.53841 -19.7047
16.6789 -6.43475 -19.7061
16.6998 -6.33109 -19.7075
16.7207 -6.22743 -19.7088
16.7417 -6.12377 -19.7102
16.7626 -6.02011 -19.7116
16.6825 -5.90261 -19.7154
16.7035 -5.79895 -19.7167
16.7244 -5.69528 -19.7181
16.7453 -5.59162 -19.7195
16.7662 -5.48796 -19.7208
16.7871 -5.3843 -19.7222
16.7071 -5.2668 -19.726
16.728 -5.16314 -19.7274
16.7489 -5.05948 -19.7287
16.7698 -4.95582 -19.7301
16.7907 -4.85216 -19.7314
16.8117 -4.7485 -19.7328
16.8326 -4.64484 -19.7342
16.8535 -4.54118 -19.7355
16.8744 -4.43752 -19.7369
16.7944 -4.32001 -19.7407
16.8153 -4.21635 -19.7421
16.8362 -4.11269 -19.7434
16.8571 -4.00903 -19.7448
16.878 -3.90537 -19.7462
16.8989 -3.80171 -19.7475
16.8189 -3.68421 -19.7513
16.8398 -3.58055 -19.7527
16.8607 -3.47689 -19.7541
14.055 -2.98558 -19.8233
14.0759 -2.88193 -19.8246
14.0968 -2.77827 -19.826
14.0168 -2.66076 -19.8298
14.0377 -2.5571 -19.8312
13.9577 -2.4396 -19.8349
13.8776 -2.32209 -19.8387
13.8985 -2.21843 -19.8401
13.9195 -2.11477 -19.8415
13.8394 -1.99727 -19.8453
13.7594 -1.87976 -19.849
13.6793 -1.76226 -19.8528
13.5993 -1.64475 -19.8566
13.5193 -1.52725 -19.8604
13.4392 -1.40974 -19.8642
13.4601 -1.30608 -19.8656
13.3801 -1.18858 -19.8694
13.401 -1.08492 -19.8707
13.4219 -0.981261 -19.8721
13.3419 -0.863755 -19.8759
13.2619 -0.746251 -19.8797
13.2828 -0.64259 -19.881
13.2028 -0.525087 -19.8848
13.1227 -0.407583 -19.8886
13.0427 -0.290076 -19.8924
13.0636 -0.186416 -19.8938
12.9836 -0.0689135 -19.8976
13.0045 0.0347462 -19.8989
13.0254 0.138406 -19.9003
13.0463 0.242068 -19.9017
13.0672 0.345727 -19.903
13.0881 0.449389 -19.9044
13.0081 0.566891 -19.9082
13.029 0.67055 -19.9095
12.949 0.788058 -19.9133
12.9699 0.891717 -19.9147
12.8899 1.00922 -19.9185
12.9108 1.11288 -19.9198
12.9317 1.21654 -19.9212
12.9526 1.3202 -19.9226
12.8726 1.43771 -19.9264
12.8935 1.54137 -19.9277
12.9144 1.64503 -19.9291
12.8344 1.76253 -19.9329
12.8553 1.86619 -19.9343
12.8762 1.96985 -19.9356
12.7961 2.08736 -19.9394
12.8171 2.19102 -19.9408
12.838 2.29468 -19.9422
12.7579 2.41218 -19.9459
12.7789 2.51584 -19.9473
12.7998 2.6195 -19.9487
12.7197 2.737 -19.9525
12.7407 2.84067 -19.9538
12.7616 2.94433 -19.9552
12.7825 3.04799 -19.9566
12.8034 3.15165 -19.9579
12.7234 3.26915 -19.9617
12.7443 3.37281 -19.9631
12.7652 3.47647 -19.9644
12.6852 3.59397 -19.9682
12.7061 3.69764 -19.9696
12.727 3.8013 -19.971
12.7479 3.90496 -19.9723
12.7688 4.00861 -19.9737
12.7897 4.11227 -19.9751
12.7097 4.22978 -19.9789
12.6297 4.34729 -19.9826
12.6506 4.45095 -19.984
12.5705 4.56845 -19.9878
12.4905 4.68596 -19.9916
12.5114 4.78962 -19.993
12.4314 4.90712 -19.9967
12.4523 5.01078 -19.9981
12.4732 5.11444 -19.9995
12.5951 5.20426 -19.9984
12.616 5.30792 -19.9998
12.6369 5.41158 -20.0011
12.6578 5.51524 -20.0025
12.5778 5.63274 -20.0063
12.4977 5.75024 -20.0101
12.5187 5.85391 -20.0115
12.5396 5.95757 -20.0128
12.5605 6.06123 -20.0142
12.6824 6.15104 -20.0131
12.7033 6.2547 -20.0145
12.6232 6.37221 -20.0183
12.6441 6.47587 -20.0197
12.5641 6.59337 -20.0234
12.4841 6.71087 -20.0272
12.3031 6.84222 -20.0334
12.223 6.95973 -20.0372
12.0421 7.09108 -20.0434
11.962 7.20858 -20.0472
11.9829 7.31224 -20.0486
12.0039 7.4159 -20.05
11.9238 7.53341 -20.0538
11.8438 7.65091 -20.0575
15.0951 -3.63741 -19.7485
15.0614 -3.53718 -19.7499
15.0276 -3.43695 -19.7513
14.9939 -3.33672 -19.7526
14.9602 -3.23649 -19.754
14.8321 -3.17475 -19.7578
14.7984 -3.07452 -19.7592
14.7647 -2.97429 -19.7605
14.6366 -2.91255 -19.7643
14.6029 -2.81232 -19.7657
14.4749 -2.75057 -19.7695
14.4411 -2.65034 -19.7708
14.4074 -2.55011 -19.7722
14.3737 -2.44988 -19.7736
14.34 -2.34965 -19.7749
14.3063 -2.24942 -19.7763
14.3669 -2.11071 -19.7752
14.3332 -2.01048 -19.7766
14.2995 -1.91025 -19.778
14.2658 -1.81002 -19.7793
14.232 -1.70979 -19.7807
14.1983 -1.60956 -19.7821
14.1646 -1.50933 -19.7834
14.1309 -1.4091 -19.7848
14.0972 -1.30887 -19.7862
14.0635 -1.20864 -19.7875
14.0297 -1.10841 -19.7889
13.996 -1.00818 -19.7903
13.868 -0.946434 -19.7941
13.8342 -0.846206 -19.7954
13.8005 -0.745975 -19.7968
13.7668 -0.645746 -19.7981
13.7331 -0.545516 -19.7995
13.6994 -0.445286 -19.8009
13.5713 -0.383541 -19.8047
13.6319 -0.244825 -19.8036
13.5982 -0.144596 -19.805
13.5645 -0.0443659 -19.8063
13.5308 0.0558634 -19.8077
13.5914 0.194581 -19.8067
13.5577 0.294811 -19.808
13.524 0.395041 -19.8094
13.4903 0.495271 -19.8107
13.4565 0.595499 -19.8121
13.4228 0.69573 -19.8135
13.3891 0.795961 -19.8148
13.4498 0.934678 -19.8138
13.416 1.03491 -19.8152
13.3823 1.13514 -19.8165
13.3486 1.23537 -19.8179
13.3149 1.3356 -19.8193
13.2812 1.43583 -19.8206
13.2474 1.53606 -19.822
13.2137 1.63629 -19.8233
13.18 1.73652 -19.8247
13.1463 1.83675 -19.8261
13.1126 1.93698 -19.8275
13.0789 2.03721 -19.8288
13.0451 2.13744 -19.8302
13.0114 2.23767 -19.8315
12.9777 2.3379 -19.8329
12.944 2.43813 -19.8343
12.9103 2.53836 -19.8356
12.9709 2.67707 -19.8346
12.9372 2.7773 -19.836
12.9035 2.87753 -19.8373
12.8698 2.97776 -19.8387
12.9304 3.11648 -19.8376
12.8967 3.21671 -19.839
12.863 3.31694 -19.8404
12.8292 3.41717 -19.8417
12.8899 3.55589 -19.8407
12.8562 3.65611 -19.842
12.9168 3.79483 -19.841
12.8831 3.89506 -19.8423
12.8494 3.99529 -19.8437
12.8156 4.09552 -19.8451
12.8763 4.23424 -19.844
12.8426 4.33447 -19.8454
12.8088 4.4347 -19.8468
12.7751 4.53493 -19.8481
12.8357 4.67364 -19.8471
12.802 4.77387 -19.8484
12.7683 4.8741 -19.8498
12.7346 4.97433 -19.8512
12.7009 5.07456 -19.8525
12.6672 5.17479 -19.8539
12.6334 5.27502 -19.8553
12.5997 5.37525 -19.8566
12.566 5.47548 -19.858
12.6266 5.6142 -19.8569
12.5929 5.71443 -19.8583
12.5592 5.81466 -19.8597
12.5255 5.91489 -19.861
12.4918 6.01512 -19.8624
12.5524 6.15383 -19.8613
12.5187 6.25406 -19.8627
12.485 6.35429 -19.8641
12.4513 6.45452 -19.8654
12.4175 6.55475 -19.8668
12.4782 6.69347 -19.8658
12.4445 6.7937 -19.8671
12.5051 6.93242 -19.8661
12.4714 7.03265 -19.8674
12.4377 7.13288 -19.8688
12.4039 7.23311 -19.8701
12.3702 7.33334 -19.8715
12.4309 7.47205 -19.8705
12.3971 7.57228 -19.8718
12.3634 7.67251 -19.8732
12.3297 7.77274 -19.8746
12.296 7.87297 -19.8759
12.1679 7.93472 -19.8797
12.1342 8.03495 -19.8811
12.1005 8.13518 -19.8824
11.9724 8.19692 -19.8862
11.75 8.22017 -19.8925
11.6219 8.28192 -19.8962
11.5882 8.38215 -19.8976
11.4602 8.44389 -19.9014
11.4264 8.54412 -19.9028
11.2984 8.60586 -19.9066
11.1703 8.66761 -19.9103
11.0422 8.72935 -19.9141
10.9142 8.7911 -19.9179
10.7861 8.85284 -19.9217
10.7524 8.95307 -19.9231
10.6243 9.01481 -19.9269
10.4963 9.07656 -19.9306
10.2738 9.09981 -19.9369
10.1458 9.16156 -19.9406
10.0177 9.2233 -19.9444
9.88965 9.28505 -19.9482
9.47853 9.23133 -19.9593
9.35046 9.29307 -19.9631
9.31675 9.3933 -19.9644
9.18868 9.45505 -19.9682
8.96627 9.4783 -19.9744
8.8382 9.54005 -19.9782
8.71013 9.60179 -19.982
8.20467 9.50959 -19.9955
8.07661 9.57133 -19.9993
7.94854 9.63308 -20.0031
7.63177 9.61785 -20.0117
7.50371 9.67959 -20.0155
7.37564 9.74133 -20.0193
7.34193 9.84156 -20.0207
13.7124 -0.393171 -19.8268
13.6955 -0.242723 -19.8257
13.6162 -0.172779 -19.8271
13.5994 -0.0223312 -19.826
13.5825 0.128117 -19.825
13.5032 0.198058 -19.8263
13.4864 0.348506 -19.8253
13.4695 0.498954 -19.8242
13.4527 0.649403 -19.8232
13.4358 0.799851 -19.8221
13.419 0.9503 -19.821
13.4021 1.10075 -19.82
13.3228 1.17069 -19.8214
13.306 1.32114 -19.8203
13.2266 1.39108 -19.8217
13.1473 1.46102 -19.823
13.1305 1.61147 -19.822
13.1136 1.76192 -19.8209
13.2217 2.07338 -19.815
13.1424 2.14332 -19.8164
13.1255 2.29377 -19.8153
13.1087 2.44422 -19.8143
13.0294 2.51416 -19.8156
13.0125 2.66461 -19.8146
12.9957 2.81506 -19.8135
12.9788 2.9655 -19.8125
12.962 3.11595 -19.8114
12.9451 3.2664 -19.8103
12.9908 3.49735 -19.8069
12.9739 3.6478 -19.8058
12.9571 3.79825 -19.8047
12.9402 3.9487 -19.8037
12.8609 4.01864 -19.8051
12.7816 4.08858 -19.8064
12.7647 4.23903 -19.8054
12.7479 4.38948 -19.8043
12.6686 4.45942 -19.8057
12.6517 4.60987 -19.8046
12.6349 4.76032 -19.8036
12.5556 4.83026 -19.8049
12.5387 4.98071 -19.8039
12.5219 5.13116 -19.8028
12.505 5.28161 -19.8018
12.4882 5.43205 -19.8007
12.4713 5.5825 -19.7996
12.392 5.65244 -19.801
12.3751 5.80289 -19.8
12.4208 6.03385 -19.7965
12.4664 6.26479 -19.793
12.4495 6.41525 -19.7919
12.4327 6.56569 -19.7909
12.4158 6.71614 -19.7898
12.399 6.86659 -19.7888
12.3821 7.01703 -19.7877
12.3653 7.16748 -19.7867
12.3484 7.31793 -19.7856
12.3316 7.46838 -19.7845
12.3147 7.61883 -19.7835
12.2354 7.68877 -19.7848
12.2186 7.83922 -19.7838
12.1393 7.90916 -19.7852
12.1224 8.05961 -19.7841
12.0431 8.12955 -19.7855
11.9638 8.1995 -19.7868
11.9469 8.34994 -19.7858
11.8676 8.41989 -19.7871
11.7883 8.48983 -19.7885
11.7714 8.64028 -19.7874
11.6921 8.71022 -19.7888
11.6128 8.78016 -19.7902
11.5335 8.85011 -19.7915
11.3917 8.83954 -19.7953
11.3124 8.90949 -19.7967
11.2331 8.97943 -19.7981
11.1538 9.04938 -19.7994
11.0745 9.11932 -19.8008
10.9327 9.10876 -19.8046
10.8534 9.1787 -19.806
10.7116 9.16814 -19.8097
10.6323 9.23808 -19.8111
10.4905 9.22752 -19.8149
10.4112 9.29746 -19.8163
10.3319 9.36741 -19.8176
10.2525 9.43735 -19.819
10.1732 9.50729 -19.8204
10.0315 9.49673 -19.8241
9.95214 9.56667 -19.8255
9.81036 9.55611 -19.8293
9.66858 9.54555 -19.8331
9.52679 9.53499 -19.8369
9.44748 9.60493 -19.8382
9.36816 9.67487 -19.8396
9.28885 9.74482 -19.841
9.14707 9.73426 -19.8448
9.06776 9.8042 -19.8461
8.98844 9.87414 -19.8475
8.90913 9.94409 -19.8489
8.76735 9.93353 -19.8527
8.68803 10.0035 -19.854
8.60872 10.0734 -19.8554
8.46693 10.0628 -19.8592
8.38762 10.1328 -19.8605
8.24584 10.1222 -19.8643
8.10406 10.1117 -19.8681
8.02475 10.1816 -19.8695
7.88296 10.1711 -19.8733
7.80365 10.241 -19.8746
7.66187 10.2304 -19.8784
7.52009 10.2199 -19.8822
7.31585 10.1288 -19.8884
7.23653 10.1987 -19.8898
7.09475 10.1882 -19.8936
7.01544 10.2581 -19.895
6.93612 10.3281 -19.8963
6.79434 10.3175 -19.9001
6.65256 10.3069 -19.9039
6.57324 10.3769 -19.9053
6.43147 10.3663 -19.9091
6.35215 10.4363 -19.9104
6.21037 10.4257 -19.9142
6.13105 10.4957 -19.9156
5.98927 10.4851 -19.9194
5.78503 10.394 -19.9256
5.64325 10.3835 -19.9294
5.50147 10.3729 -19.9332
5.35969 10.3623 -19.937
5.15544 10.2713 -19.9432
4.88873 10.0997 -19.9518
4.80942 10.1696 -19.9532
4.66764 10.1591 -19.9569
4.52585 10.1485 -19.9607
4.38407 10.138 -19.9645
4.17983 10.0469 -19.9707
3.97558 9.95583 -19.9769
12.0101 8.39558 -19.7872
11.9341 8.6184 -19.7838
11.8581 8.84122 -19.7803
11.796 9.16499 -19.7744
11.6924 9.18591 -19.7758
11.5887 9.20682 -19.7771
11.485 9.22774 -19.7785
11.3814 9.24865 -19.7798
11.2777 9.26957 -19.7812
11.1741 9.29048 -19.7826
11.0842 9.41235 -19.7815
10.9806 9.43326 -19.7829
10.8769 9.45418 -19.7843
10.7733 9.47509 -19.7856
10.6696 9.49601 -19.787
10.5659 9.51693 -19.7884
10.4761 9.63879 -19.7873
10.3725 9.65971 -19.7887
10.2688 9.68062 -19.79
10.1651 9.70154 -19.7914
10.0615 9.72245 -19.7928
9.95782 9.74337 -19.7941
9.85416 9.76428 -19.7955
9.7505 9.7852 -19.7969
9.66068 9.90706 -19.7958
9.55702 9.92798 -19.7972
9.46721 10.0498 -19.7961
9.37739 10.1717 -19.7951
9.27373 10.1926 -19.7964
9.17007 10.2135 -19.7978
9.06641 10.2345 -19.7991
8.96275 10.2554 -19.8005
8.85909 10.2763 -19.8019
8.75543 10.2972 -19.8033
8.66561 10.4191 -19.8022
8.56195 10.44 -19.8036
8.45829 10.4609 -19.8049
8.36848 10.5828 -19.8039
8.26482 10.6037 -19.8052
8.16115 10.6246 -19.8066
8.0575 10.6455 -19.808
7.95384 10.6664 -19.8093
7.85018 10.6873 -19.8107
7.73267 10.6073 -19.8145
7.62901 10.6282 -19.8159
7.51151 10.5482 -19.8196
7.42169 10.6701 -19.8186
7.31803 10.691 -19.8199
7.21437 10.7119 -19.8213
7.11071 10.7328 -19.8227
7.02089 10.8547 -19.8216
6.93108 10.9765 -19.8206
6.82742 10.9974 -19.8219
6.72376 11.0184 -19.8233
6.6201 11.0393 -19.8247
6.51644 11.0602 -19.826
6.39893 10.9802 -19.8298
6.28143 10.9001 -19.8336
6.17777 10.921 -19.835
6.06026 10.841 -19.8388
5.9566 10.8619 -19.8401
5.86679 10.9838 -19.8391
5.76313 11.0047 -19.8404
5.65947 11.0256 -19.8418
5.54196 10.9456 -19.8456
5.41061 10.7646 -19.8518
5.29311 10.6845 -19.8556
5.18945 10.7055 -19.857
5.08579 10.7264 -19.8583
4.98213 10.7473 -19.8597
4.87847 10.7682 -19.8611
4.77481 10.7891 -19.8624
4.6573 10.7091 -19.8662
4.55364 10.73 -19.8676
4.44998 10.7509 -19.869
4.33248 10.6709 -19.8727
4.22882 10.6918 -19.8741
4.11131 10.6118 -19.8779
3.99381 10.5317 -19.8817
3.87631 10.4517 -19.8855
3.7588 10.3716 -19.8893
3.6413 10.2916 -19.8931
3.53764 10.3125 -19.8944
3.42013 10.2325 -19.8982
3.30263 10.1525 -19.902
3.19897 10.1734 -19.9034
3.09531 10.1943 -19.9047
2.99165 10.2152 -19.9061
2.88799 10.2361 -19.9075
2.78433 10.257 -19.9088
2.68067 10.2779 -19.9102
2.56316 10.1979 -19.914
2.4595 10.2188 -19.9153
2.32815 10.0378 -19.9216
2.1968 9.85684 -19.9278
2.09314 9.87776 -19.9291
1.98948 9.89868 -19.9305
1.88582 9.91959 -19.9319
1.76832 9.83955 -19.9357
1.65082 9.75952 -19.9395
1.53331 9.67948 -19.9432
1.41581 9.59944 -19.947
1.2983 9.51941 -19.9508
1.1808 9.43937 -19.9546
1.04945 9.25838 -19.9608
0.931944 9.17834 -19.9646
0.828284 9.19926 -19.966
0.710779 9.11922 -19.9698
0.593275 9.03919 -19.9736
0.47577 8.95915 -19.9773
0.358265 8.87911 -19.9811
0.240759 8.79907 -19.9849
0.137101 8.81999 -19.9863
0.00575066 8.639 -19.9925
9.64707 10.1425 -19.8582
9.50836 10.2031 -19.8572
9.36964 10.2637 -19.8561
9.26941 10.23 -19.8575
9.16918 10.1963 -19.8588
9.03047 10.2569 -19.8578
8.89175 10.3176 -19.8567
8.75303 10.3782 -19.8557
8.6528 10.3445 -19.857
8.55257 10.3108 -19.8584
8.41386 10.3714 -19.8573
8.31363 10.3377 -19.8587
8.2134 10.304 -19.8601
8.07468 10.3646 -19.859
7.97445 10.3309 -19.8604
7.83573 10.3915 -19.8593
7.54307 10.8295 -19.8486
7.44284 10.7958 -19.8499
7.30413 10.8565 -19.8489
7.16541 10.9171 -19.8478
7.06518 10.8834 -19.8492
6.96495 10.8497 -19.8506
6.82623 10.9103 -19.8495
6.68752 10.9709 -19.8484
6.5488 11.0316 -19.8474
6.44857 10.9978 -19.8488
6.30986 11.0585 -19.8477
6.20963 11.0248 -19.8491
6.1094 10.991 -19.8504
6.00917 10.9573 -19.8518
5.90894 10.9236 -19.8532
5.80871 10.8899 -19.8545
5.70848 10.8562 -19.8559
5.56976 10.9168 -19.8548
5.46953 10.8831 -19.8562
5.33082 10.9437 -19.8551
5.1921 11.0044 -19.8541
5.09187 10.9706 -19.8555
4.99164 10.9369 -19.8568
4.85292 10.9976 -19.8558
4.75269 10.9638 -19.8571
4.65246 10.9301 -19.8585
4.55223 10.8964 -19.8599
4.41351 10.957 -19.8588
4.31328 10.9233 -19.8602
4.21306 10.8896 -19.8615
4.11282 10.8559 -19.8629
4.0126 10.8222 -19.8643
3.91236 10.7884 -19.8656
3.85062 10.6604 -19.8694
3.75039 10.6267 -19.8708
3.65016 10.5929 -19.8722
3.51145 10.6536 -19.8711
3.41122 10.6199 -19.8725
3.31099 10.5861 -19.8738
3.21076 10.5524 -19.8752
3.07204 10.6131 -19.8741
2.97181 10.5793 -19.8755
2.87158 10.5456 -19.8769
2.77135 10.5119 -19.8782
2.63263 10.5725 -19.8772
2.5324 10.5388 -19.8786
2.43217 10.5051 -19.8799
2.33194 10.4714 -19.8813
2.23171 10.4377 -19.8826
2.16997 10.3096 -19.8864
2.06974 10.2759 -19.8878
1.96951 10.2422 -19.8892
1.86928 10.2085 -19.8905
1.76905 10.1747 -19.8919
1.70731 10.0467 -19.8957
1.60708 10.013 -19.897
1.50685 9.97924 -19.8984
1.40662 9.94552 -19.8998
1.30639 9.9118 -19.9012
1.24464 9.78374 -19.9049
1.1829 9.65567 -19.9087
1.08267 9.62196 -19.9101
0.982441 9.58824 -19.9115
0.843724 9.64887 -19.9104
0.743494 9.61515 -19.9118
0.681751 9.48709 -19.9156
0.581521 9.45337 -19.9169
0.481292 9.41965 -19.9183
0.381061 9.38594 -19.9197
0.319318 9.25787 -19.9234
0.257572 9.12981 -19.9272
0.157344 9.09609 -19.9286
0.0571141 9.06237 -19.93
-0.0431163 9.02865 -19.9313
-0.104859 8.90059 -19.9351
-0.205089 8.86687 -19.9365
-0.305317 8.83315 -19.9379
-0.405548 8.79943 -19.9392
-0.505778 8.76572 -19.9406
-0.606007 8.732 -19.942
-0.667753 8.60394 -19.9457
-0.729497 8.47587 -19.9495
-0.752753 8.25345 -19.9557
2.64074 11.0334 -19.9187
2.57079 10.954 -19.9201
2.42034 10.9372 -19.919
2.2699 10.9203 -19.918
2.11945 10.9035 -19.9169
1.969 10.8866 -19.9159
1.81855 10.8698 -19.9148
1.74861 10.7905 -19.9162
1.67867 10.7112 -19.9175
1.52822 10.6943 -19.9165
1.45828 10.615 -19.9178
1.30783 10.5982 -19.9168
1.15738 10.5813 -19.9157
1.00693 10.5645 -19.9147
0.936988 10.4851 -19.916
0.867044 10.4058 -19.9174
0.797101 10.3265 -19.9188
0.646658 10.3097 -19.9177
0.576715 10.2303 -19.9191
0.506771 10.151 -19.9204
0.436827 10.0717 -19.9218
0.286376 10.0549 -19.9207
0.216435 9.97555 -19.9221
0.0659866 9.9587 -19.9211
-0.0844584 9.94185 -19.92
-0.154402 9.86254 -19.9214
-0.224343 9.78322 -19.9227
-0.294286 9.70391 -19.9241
-0.36423 9.62459 -19.9255
-0.434175 9.54528 -19.9268
-0.504118 9.46597 -19.9282
-0.574059 9.38665 -19.9296
-0.644002 9.30734 -19.9309
-0.713946 9.22802 -19.9323
-0.864398 9.21118 -19.9312
-0.934341 9.13186 -19.9326
-1.00428 9.05254 -19.934
-1.15473 9.0357 -19.9329
-1.22467 8.95638 -19.9343
-1.29462 8.87707 -19.9356
-1.44507 8.86022 -19.9346
-1.51501 8.7809 -19.936
-1.58495 8.70159 -19.9373
-1.65489 8.62227 -19.9387
-1.72484 8.54296 -19.94
-1.71428 8.40118 -19.9438
-1.78422 8.32186 -19.9452
-1.85416 8.24255 -19.9466
-1.92411 8.16323 -19.9479
-1.99405 8.08392 -19.9493
-1.98349 7.94214 -19.9531
-2.05343 7.86282 -19.9545
-2.12337 7.78351 -19.9558
-2.19332 7.7042 -19.9572
-2.34377 7.68735 -19.9561
-2.41371 7.60803 -19.9575
-2.48365 7.52872 -19.9589
-2.47309 7.38694 -19.9627
-2.54303 7.30762 -19.964
-2.61298 7.22831 -19.9654
-2.76342 7.21146 -19.9643
-2.83337 7.13214 -19.9657
-2.90331 7.05283 -19.9671
-2.97325 6.97351 -19.9684
-3.04319 6.8942 -19.9698
-3.11314 6.81488 -19.9712
-3.18308 6.73557 -19.9725
-3.25303 6.65625 -19.9739
-3.32297 6.57694 -19.9753
-3.39291 6.49762 -19.9766
-3.46285 6.41831 -19.978
-3.45229 6.27653 -19.9818
-3.52224 6.19722 -19.9832
-3.59218 6.1179 -19.9845
-3.66212 6.03859 -19.9859
-3.73207 5.95927 -19.9872
-3.88251 5.94242 -19.9862
-3.95246 5.86311 -19.9875
-4.0224 5.78379 -19.9889
-4.09234 5.70448 -19.9903
-4.16229 5.62516 -19.9917
-4.23223 5.54585 -19.993
-4.30217 5.46653 -19.9944
-4.37212 5.38722 -19.9958
-4.44206 5.30791 -19.9971
-4.512 5.22859 -19.9985
-4.58195 5.14928 -19.9998
-4.57139 5.0075 -20.0036
-4.64133 4.92818 -20.005
-4.71127 4.84887 -20.0064
-4.78121 4.76955 -20.0077
-4.85116 4.69024 -20.0091
-4.9211 4.61092 -20.0105
-4.99104 4.53161 -20.0118
-5.06099 4.45229 -20.0132
-5.13093 4.37298 -20.0146
-5.12037 4.2312 -20.0184
-5.10981 4.08942 -20.0221
-5.17975 4.0101 -20.0235
-5.24969 3.93079 -20.0249
-5.31964 3.85147 -20.0262
-5.30908 3.70969 -20.03
-5.37902 3.63038 -20.0314
-5.44896 3.55106 -20.0328
-5.4384 3.40928 -20.0366
-5.42784 3.2675 -20.0403
-5.19131 4.75284 -19.9837
-5.31318 4.66302 -19.9827
-5.43505 4.5732 -19.9816
-5.45597 4.46954 -19.983
-5.57783 4.37973 -19.9819
-5.59874 4.27607 -19.9833
-5.61966 4.17241 -19.9846
-5.74153 4.08259 -19.9836
-5.76245 3.97893 -19.985
-5.88431 3.88912 -19.9839
-5.90523 3.78546 -19.9853
-5.82519 3.66795 -19.989
-5.84611 3.56429 -19.9904
-5.86702 3.46063 -19.9918
-5.98889 3.37082 -19.9907
-6.0098 3.26715 -19.9921
-6.13167 3.17734 -19.991
-6.15258 3.07368 -19.9924
-6.1735 2.97002 -19.9938
-6.29536 2.8802 -19.9927
-6.31628 2.77654 -19.9941
-6.3372 2.67288 -19.9954
-6.35811 2.56922 -19.9968
-6.37903 2.46556 -19.9982
-6.39994 2.3619 -19.9995
-6.52181 2.27209 -19.9985
-6.54272 2.16843 -19.9998
-6.46269 2.05092 -20.0036
-6.4836 1.94726 -20.005
-6.50452 1.8436 -20.0064
-6.52543 1.73994 -20.0077
-6.54635 1.63628 -20.0091
-6.46631 1.51878 -20.0129
-6.48722 1.41512 -20.0143
-6.50814 1.31146 -20.0156
-6.4281 1.19395 -20.0194
-6.44902 1.09029 -20.0208
-6.46994 0.986632 -20.0221
-6.49085 0.882971 -20.0235
-6.41081 0.765468 -20.0273
-6.43173 0.661807 -20.0287
-6.45264 0.558147 -20.03
-6.3726 0.440643 -20.0338
-6.39352 0.336983 -20.0352
-6.41443 0.233323 -20.0366
-6.3344 0.115817 -20.0403
-6.35532 0.0121577 -20.0417
-6.27527 -0.105349 -20.0455
-6.29619 -0.209007 -20.0469
-6.21615 -0.326512 -20.0507
-6.6433 2.75364 -19.9846
-6.70393 2.61492 -19.9835
-6.67022 2.51469 -19.9849
-6.73085 2.37598 -19.9838
-6.69713 2.27575 -19.9852
-7.22951 1.9446 -19.972
-7.29014 1.80588 -19.971
-7.25642 1.70565 -19.9724
-7.22271 1.60542 -19.9737
-7.18899 1.50519 -19.9751
-7.24962 1.36648 -19.974
-7.21591 1.26625 -19.9754
-7.18219 1.16602 -19.9768
-7.14848 1.06579 -19.9781
-7.11476 0.965558 -19.9795
-7.17539 0.826842 -19.9784
-7.14167 0.726611 -19.9798
-7.10796 0.62638 -19.9812
-7.07424 0.526151 -19.9825
-7.04052 0.425922 -19.9839
-7.0068 0.325692 -19.9853
-6.97309 0.225462 -19.9866
-7.03372 0.0867476 -19.9856
-7 -0.013484 -19.9869
-6.96628 -0.113712 -19.9883
-7.02692 -0.25243 -19.9872
-6.9932 -0.35266 -19.9886
-6.95948 -0.45289 -19.99
-6.92577 -0.55312 -19.9913
-6.7977 -0.614862 -19.9951
-6.76398 -0.715093 -19.9965
-6.73026 -0.815322 -19.9979
-6.69655 -0.915554 -19.9992
-6.66283 -1.01578 -20.0006
-6.62911 -1.11601 -20.002
-6.59539 -1.21624 -20.0033
-6.56168 -1.31647 -20.0047
-6.52796 -1.4167 -20.0061
-6.49424 -1.51693 -20.0074
-6.46053 -1.61716 -20.0088
-6.42681 -1.71739 -20.0102
-6.39309 -1.81762 -20.0115
-6.35938 -1.91785 -20.0129
-6.32566 -2.01808 -20.0143
-6.29194 -2.11831 -20.0156
-6.25822 -2.21854 -20.017
-6.22451 -2.31877 -20.0184
-6.19079 -2.419 -20.0197
-6.06273 -2.48075 -20.0235
-6.02901 -2.58098 -20.0249
-5.99529 -2.68121 -20.0262
-5.96158 -2.78144 -20.0276
-5.92786 -2.88167 -20.029
-5.89414 -2.98189 -20.0303
-5.76608 -3.04364 -20.0341
-5.73236 -3.14387 -20.0355
-5.69864 -3.2441 -20.0369
-5.66492 -3.34433 -20.0382
-5.63121 -3.44456 -20.0396
-5.59749 -3.54479 -20.041
-5.56378 -3.64502 -20.0423
-5.53006 -3.74525 -20.0437
-5.40199 -3.80699 -20.0475
-5.36827 -3.90722 -20.0488
-5.33455 -4.00745 -20.0502
-5.30084 -4.10768 -20.0516
-5.26712 -4.20791 -20.0529
-5.2334 -4.30814 -20.0543
-5.10534 -4.36989 -20.0581
-5.07162 -4.47012 -20.0595
-5.03791 -4.57034 -20.0608
-5.00419 -4.67058 -20.0622
-4.97047 -4.77081 -20.0636
-4.93676 -4.87104 -20.0649
-4.80869 -4.93278 -20.0687
-4.77497 -5.03301 -20.0701
-4.74125 -5.13324 -20.0715
-4.70754 -5.23347 -20.0728
-4.67382 -5.3337 -20.0742
-4.54575 -5.39544 -20.078
-4.51204 -5.49567 -20.0793
-4.47832 -5.5959 -20.0807
-4.35025 -5.65765 -20.0845
-4.31654 -5.75787 -20.0859
-4.18847 -5.81962 -20.0896
-4.15476 -5.91985 -20.091
-4.02669 -5.98159 -20.0948
-3.99297 -6.08182 -20.0962
-3.86491 -6.14357 -20.1
-3.83119 -6.2438 -20.1013
-3.79747 -6.34403 -20.1027
-3.76375 -6.44425 -20.104
-3.73004 -6.54449 -20.1054
-3.69632 -6.64471 -20.1068
-3.6626 -6.74495 -20.1082
-3.62888 -6.84517 -20.1095
-3.50082 -6.90692 -20.1133
-3.4671 -7.00715 -20.1147
-3.43339 -7.10738 -20.116
-3.39967 -7.20761 -20.1174
-3.36595 -7.30784 -20.1188
-3.33223 -7.40807 -20.1201
-3.20417 -7.46981 -20.1239
-3.17045 -7.57004 -20.1253
-3.04238 -7.63178 -20.1291
-3.00867 -7.73201 -20.1304
-2.97495 -7.83224 -20.1318
-2.94123 -7.93247 -20.1332
-2.81317 -7.99422 -20.137
-2.77946 -8.09445 -20.1383
-2.74574 -8.19468 -20.1397
-2.71202 -8.29491 -20.1411
-2.58395 -8.35665 -20.1449
-2.55024 -8.45688 -20.1462
-2.51652 -8.55711 -20.1476
-2.4828 -8.65734 -20.149
-2.44909 -8.75757 -20.1503
-2.41537 -8.8578 -20.1517
-2.38165 -8.95803 -20.1531
-2.34793 -9.05826 -20.1544
-2.31422 -9.15849 -20.1558
-2.18615 -9.22023 -20.1596
-2.15243 -9.32046 -20.1609
-2.02437 -9.38221 -20.1647
-1.99065 -9.48244 -20.1661
-1.95693 -9.58267 -20.1675
-1.82887 -9.64441 -20.1712
-1.79515 -9.74464 -20.1726
-1.76143 -9.84487 -20.174
-1.72771 -9.9451 -20.1754
-1.59965 -10.0068 -20.1791
-1.56593 -10.1071 -20.1805
-1.43787 -10.1688 -20.1843
-1.3098 -10.2306 -20.1881
-1.27608 -10.3308 -20.1895
-1.14802 -10.3925 -20.1932
-1.1143 -10.4928 -20.1946
-0.986236 -10.5545 -20.1984
-0.763818 -10.5778 -20.2046
-0.63575 -10.6395 -20.2084
-0.224639 -10.5858 -20.2195
-0.0965734 -10.6475 -20.2232
-0.0628574 -10.7478 -20.2246
-0.0291371 -10.848 -20.226
0.00457931 -10.9482 -20.2273
0.0382953 -11.0485 -20.2287
0.0720115 -11.1487 -20.2301
0.200076 -11.2104 -20.2339
0.328145 -11.2722 -20.2377
0.456214 -11.3339 -20.2414
