ply
format ascii 1.0
comment VCGLIB generated
element vertex 1190
property float x
property float y
property float z
element face 0
property list uchar int vertex_indices
end_header
5.47827 -14.127 -18.7577
5.62872 -14.1102 -18.7566
5.77917 -14.0933 -18.7555
6.09062 -14.2014 -18.7496
6.24108 -14.1846 -18.7486
6.39152 -14.1677 -18.7475
6.54197 -14.1509 -18.7465
6.77292 -14.1965 -18.743
6.84287 -14.1172 -18.7444
6.91281 -14.0379 -18.7457
7.06326 -14.021 -18.7447
7.1332 -13.9417 -18.746
7.20314 -13.8624 -18.7474
7.27309 -13.7831 -18.7488
7.34303 -13.7038 -18.7501
7.49348 -13.6869 -18.7491
7.56342 -13.6076 -18.7504
7.71387 -13.5907 -18.7494
7.78381 -13.5114 -18.7507
7.93426 -13.4946 -18.7497
8.0042 -13.4153 -18.7511
8.07414 -13.336 -18.7524
8.14409 -13.2566 -18.7538
8.21403 -13.1773 -18.7551
8.28397 -13.098 -18.7565
8.35392 -13.0187 -18.7579
8.42386 -12.9394 -18.7592
8.4938 -12.8601 -18.7606
8.56375 -12.7808 -18.762
8.7142 -12.7639 -18.7609
8.78414 -12.6846 -18.7623
8.85408 -12.6053 -18.7637
8.92402 -12.526 -18.765
8.99397 -12.4466 -18.7664
9.06391 -12.3673 -18.7677
9.21436 -12.3505 -18.7667
9.2843 -12.2712 -18.7681
9.35425 -12.1919 -18.7694
9.42419 -12.1125 -18.7708
9.49413 -12.0332 -18.7722
9.56408 -11.9539 -18.7735
9.63402 -11.8746 -18.7749
9.70396 -11.7953 -18.7763
9.77391 -11.716 -18.7776
9.92435 -11.6991 -18.7766
10.0748 -11.6823 -18.7755
10.1447 -11.6029 -18.7769
10.2147 -11.5236 -18.7782
10.3651 -11.5068 -18.7772
10.4351 -11.4275 -18.7785
10.505 -11.3482 -18.7799
10.575 -11.2688 -18.7813
10.7254 -11.252 -18.7802
10.7954 -11.1727 -18.7816
10.9458 -11.1558 -18.7805
11.0157 -11.0765 -18.7819
11.0857 -10.9972 -18.7833
11.1556 -10.9179 -18.7846
11.3061 -10.901 -18.7836
11.376 -10.8217 -18.7849
11.5265 -10.8049 -18.7839
11.5964 -10.7256 -18.7852
11.7469 -10.7087 -18.7842
11.8168 -10.6294 -18.7856
11.8867 -10.5501 -18.7869
12.0372 -10.5332 -18.7859
12.1071 -10.4539 -18.7872
12.1771 -10.3746 -18.7886
12.3275 -10.3578 -18.7875
12.3975 -10.2784 -18.7889
12.4674 -10.1991 -18.7903
12.6179 -10.1823 -18.7892
12.6878 -10.103 -18.7906
12.9188 -10.1486 -18.7871
12.9887 -10.0693 -18.7885
13.1392 -10.0524 -18.7874
13.2091 -9.9731 -18.7888
13.279 -9.89378 -18.7901
13.349 -9.81447 -18.7915
13.4994 -9.79762 -18.7905
13.5694 -9.7183 -18.7918
13.6393 -9.63899 -18.7932
13.7898 -9.62214 -18.7921
13.8597 -9.54282 -18.7935
13.9296 -9.46351 -18.7949
13.9996 -9.3842 -18.7962
14.15 -9.36735 -18.7952
14.22 -9.28803 -18.7965
14.2899 -9.20872 -18.7979
14.3599 -9.1294 -18.7993
14.4298 -9.05009 -18.8006
14.4998 -8.97077 -18.802
14.5697 -8.89146 -18.8034
14.6396 -8.81214 -18.8047
14.7096 -8.73283 -18.8061
14.7795 -8.65351 -18.8075
14.8495 -8.5742 -18.8088
14.9194 -8.49489 -18.8102
14.9894 -8.41557 -18.8116
15.0593 -8.33626 -18.8129
15.1292 -8.25694 -18.8143
15.1992 -8.17763 -18.8157
15.3496 -8.16078 -18.8146
15.4196 -8.08146 -18.816
15.4895 -8.00215 -18.8173
15.5595 -7.92283 -18.8187
15.6294 -7.84352 -18.8201
15.7799 -7.82667 -18.819
15.8498 -7.74735 -18.8204
15.9197 -7.66804 -18.8217
15.9897 -7.58873 -18.8231
15.9791 -7.44695 -18.8269
16.0491 -7.36763 -18.8283
16.119 -7.28831 -18.8296
16.1084 -7.14653 -18.8334
16.1784 -7.06722 -18.8348
16.1678 -6.92544 -18.8386
16.2378 -6.84613 -18.8399
16.2272 -6.70434 -18.8437
16.2167 -6.56257 -18.8475
16.2866 -6.48325 -18.8489
16.3565 -6.40393 -18.8503
16.346 -6.26216 -18.854
16.4159 -6.18284 -18.8554
16.4054 -6.04106 -18.8592
16.3948 -5.89928 -18.863
16.3842 -5.7575 -18.8668
16.2127 -5.49079 -18.8754
16.0411 -5.22408 -18.884
16.0305 -5.0823 -18.8878
16.1005 -5.00298 -18.8892
7.21149 -13.7652 -18.782
7.33336 -13.6754 -18.781
7.45523 -13.5856 -18.7799
8.18281 -13.5788 -18.7643
8.30467 -13.489 -18.7633
8.42654 -13.3992 -18.7622
8.44746 -13.2955 -18.7636
8.56932 -13.2057 -18.7625
8.69119 -13.1159 -18.7615
8.81306 -13.0261 -18.7604
8.93492 -12.9363 -18.7594
9.05679 -12.8465 -18.7583
9.07771 -12.7428 -18.7597
9.19957 -12.653 -18.7586
9.22049 -12.5493 -18.76
9.34235 -12.4595 -18.7589
9.56517 -12.3835 -18.7554
9.58609 -12.2799 -18.7568
9.70796 -12.1901 -18.7558
9.82983 -12.1002 -18.7547
10.0526 -12.0243 -18.7512
10.0736 -11.9206 -18.7526
10.1954 -11.8308 -18.7515
10.2163 -11.7271 -18.7529
10.2373 -11.6235 -18.7543
10.3591 -11.5337 -18.7532
10.38 -11.43 -18.7546
10.5019 -11.3402 -18.7535
10.7247 -11.2642 -18.75
10.8466 -11.1744 -18.749
10.9685 -11.0846 -18.7479
10.9894 -10.9809 -18.7493
11.1112 -10.8911 -18.7482
11.1322 -10.7874 -18.7496
11.5569 -10.7392 -18.7413
11.6787 -10.6493 -18.7402
11.8006 -10.5595 -18.7392
12.0234 -10.4836 -18.7357
12.1453 -10.3937 -18.7346
12.2672 -10.3039 -18.7336
12.49 -10.228 -18.7301
12.6119 -10.1381 -18.729
12.7337 -10.0483 -18.728
12.9565 -9.97235 -18.7245
13.0784 -9.88253 -18.7234
13.2003 -9.79272 -18.7224
13.3221 -9.7029 -18.7213
13.444 -9.61309 -18.7202
13.5659 -9.52327 -18.7192
13.6877 -9.43345 -18.7181
13.8096 -9.34364 -18.7171
14.0324 -9.26767 -18.7136
14.1543 -9.17785 -18.7125
14.2762 -9.08804 -18.7115
14.398 -8.99822 -18.7104
14.5199 -8.90841 -18.7094
14.5408 -8.80474 -18.7107
14.6627 -8.71493 -18.7097
14.6836 -8.61127 -18.711
14.8055 -8.52145 -18.71
14.9273 -8.43164 -18.7089
15.352 -8.38335 -18.7006
15.5749 -8.30738 -18.6971
15.5958 -8.20372 -18.6985
15.7176 -8.1139 -18.6974
15.7386 -8.01025 -18.6988
15.8604 -7.92043 -18.6977
15.8813 -7.81677 -18.6991
16.0032 -7.72695 -18.698
16.0241 -7.62329 -18.6994
16.045 -7.51963 -18.7008
16.1669 -7.42982 -18.6997
16.1878 -7.32616 -18.7011
16.2087 -7.2225 -18.7025
16.2297 -7.11884 -18.7038
16.3515 -7.02902 -18.7028
16.3724 -6.92536 -18.7041
16.3933 -6.8217 -18.7055
16.4143 -6.71804 -18.7069
16.4352 -6.61438 -18.7082
16.4561 -6.51072 -18.7096
16.477 -6.40706 -18.711
16.4979 -6.3034 -18.7123
16.5188 -6.19974 -18.7137
16.5398 -6.09608 -18.7151
16.5607 -5.99242 -18.7164
16.5816 -5.88876 -18.7178
16.6025 -5.7851 -18.7192
16.5225 -5.66759 -18.7229
16.5434 -5.56393 -18.7243
16.5643 -5.46027 -18.7257
16.4843 -5.34277 -18.7295
16.5052 -5.23911 -18.7308
16.5261 -5.13545 -18.7322
16.547 -5.03179 -18.7336
16.5679 -4.92813 -18.7349
16.5888 -4.82447 -18.7363
16.6097 -4.72081 -18.7377
16.6307 -4.61715 -18.739
16.6516 -4.51349 -18.7404
16.5715 -4.39599 -18.7442
16.1887 -4.23695 -18.7552
16.2096 -4.13329 -18.7566
16.2305 -4.02963 -18.758
16.2514 -3.92597 -18.7593
16.1714 -3.80846 -18.7631
14.0723 -3.41407 -18.8154
14.0932 -3.31041 -18.8167
14.1141 -3.20675 -18.8181
14.0341 -3.08925 -18.8219
14.055 -2.98558 -18.8233
13.975 -2.86808 -18.8271
13.9959 -2.76442 -18.8284
13.9158 -2.64692 -18.8322
13.9368 -2.54326 -18.8336
13.8567 -2.42575 -18.8374
13.8776 -2.32209 -18.8387
13.7976 -2.20459 -18.8425
13.7176 -2.08708 -18.8463
13.7385 -1.98342 -18.8477
13.6584 -1.86592 -18.8515
13.5784 -1.74841 -18.8553
13.4984 -1.63091 -18.859
13.4183 -1.5134 -18.8628
13.4392 -1.40974 -18.8642
13.3592 -1.29224 -18.868
13.2792 -1.17474 -18.8718
13.3001 -1.07108 -18.8732
13.22 -0.953571 -18.8769
13.241 -0.849909 -18.8783
13.1609 -0.732408 -18.8821
12.9799 -0.601057 -18.8883
12.8999 -0.483554 -18.8921
12.9208 -0.379894 -18.8935
12.9417 -0.276232 -18.8948
12.9626 -0.172573 -18.8962
12.9836 -0.0689135 -18.8976
13.0045 0.0347462 -18.8989
13.0254 0.138406 -18.9003
12.9453 0.255912 -18.9041
12.9663 0.359572 -18.9054
12.9872 0.463233 -18.9068
12.9071 0.580736 -18.9106
12.8271 0.69824 -18.9144
12.848 0.801902 -18.9158
12.768 0.919405 -18.9195
12.7889 1.02307 -18.9209
12.8098 1.12673 -18.9223
12.7298 1.24423 -18.9261
12.7507 1.34789 -18.9274
12.6707 1.4654 -18.9312
12.6916 1.56906 -18.9326
12.7125 1.67272 -18.9339
12.7334 1.77638 -18.9353
12.7543 1.88004 -18.9367
12.6743 1.99754 -18.9405
12.5942 2.11505 -18.9443
12.5142 2.23255 -18.948
12.5351 2.33621 -18.9494
12.556 2.43987 -18.9508
12.577 2.54353 -18.9521
12.5979 2.64719 -18.9535
12.6188 2.75085 -18.9549
12.6397 2.85451 -18.9563
12.6606 2.95817 -18.9576
12.5806 3.07567 -18.9614
12.6015 3.17934 -18.9628
12.6224 3.283 -18.9641
12.6433 3.38665 -18.9655
12.5633 3.50416 -18.9693
12.5842 3.60782 -18.9707
12.5042 3.72533 -18.9744
12.5251 3.82899 -18.9758
12.546 3.93265 -18.9772
12.466 4.05015 -18.981
12.4869 4.15381 -18.9823
12.5078 4.25747 -18.9837
12.5287 4.36113 -18.9851
12.5496 4.46479 -18.9864
12.4696 4.5823 -18.9902
12.4905 4.68596 -18.9916
12.5114 4.78962 -18.993
12.4314 4.90712 -18.9967
12.4523 5.01078 -18.9981
12.4732 5.11444 -18.9995
12.4941 5.2181 -19.0008
12.515 5.32176 -19.0022
12.5359 5.42542 -19.0036
12.5569 5.52908 -19.0049
12.4768 5.64658 -19.0087
12.4977 5.75024 -19.0101
12.4177 5.86775 -19.0139
12.4386 5.97141 -19.0152
12.4595 6.07507 -19.0166
12.4805 6.17873 -19.018
12.5014 6.28239 -19.0193
12.5223 6.38605 -19.0207
12.4422 6.50355 -19.0245
12.4632 6.60722 -19.0259
12.3831 6.72472 -19.0296
11.7983 6.91145 -19.0456
11.7183 7.02895 -19.0493
11.7392 7.13261 -19.0507
10.9525 7.34703 -19.0715
15.2501 -3.46021 -18.7451
15.122 -3.39847 -18.7488
15.1826 -3.25975 -18.7478
14.9602 -3.23649 -18.754
14.7378 -3.21324 -18.7602
14.6097 -3.15149 -18.764
14.576 -3.05126 -18.7654
14.448 -2.98952 -18.7691
14.4142 -2.88929 -18.7705
14.3805 -2.78906 -18.7719
14.3468 -2.68883 -18.7733
14.3131 -2.5886 -18.7746
14.2794 -2.48837 -18.776
14.2456 -2.38814 -18.7773
14.2119 -2.28791 -18.7787
14.1782 -2.18768 -18.7801
14.1445 -2.08745 -18.7814
14.1108 -1.98722 -18.7828
14.0771 -1.88699 -18.7842
14.0433 -1.78676 -18.7855
14.0096 -1.68653 -18.7869
13.9759 -1.5863 -18.7883
13.9422 -1.48607 -18.7896
13.9085 -1.38584 -18.791
13.8748 -1.28561 -18.7924
13.841 -1.18538 -18.7937
13.8073 -1.08515 -18.7951
13.7736 -0.984919 -18.7965
13.7399 -0.88469 -18.7978
13.7062 -0.784459 -18.7992
13.6725 -0.68423 -18.8006
13.6387 -0.584 -18.8019
13.605 -0.48377 -18.8033
13.5713 -0.383541 -18.8047
13.5376 -0.28331 -18.806
13.5039 -0.18308 -18.8074
13.4702 -0.0828509 -18.8088
13.4364 0.0173788 -18.8101
13.4027 0.117609 -18.8115
13.369 0.217839 -18.8129
13.3353 0.31807 -18.8142
13.3959 0.456784 -18.8132
13.3622 0.557013 -18.8145
13.3285 0.657243 -18.8159
13.2948 0.757474 -18.8173
13.2611 0.857704 -18.8186
13.3217 0.99642 -18.8176
13.288 1.09665 -18.8189
13.2542 1.19688 -18.8203
13.2205 1.29711 -18.8217
13.1868 1.39734 -18.823
13.1531 1.49757 -18.8244
13.1194 1.5978 -18.8258
12.9913 1.65954 -18.8296
12.9576 1.75977 -18.8309
12.9239 1.86 -18.8323
12.8902 1.96023 -18.8337
12.9508 2.09895 -18.8326
12.9171 2.19918 -18.834
12.8834 2.29941 -18.8353
12.944 2.43813 -18.8343
12.9103 2.53836 -18.8356
12.8766 2.63859 -18.837
12.8428 2.73882 -18.8384
12.9035 2.87753 -18.8373
12.8698 2.97776 -18.8387
12.836 3.07799 -18.8401
12.8023 3.17822 -18.8414
12.7686 3.27845 -18.8428
12.7349 3.37868 -18.8441
12.7955 3.5174 -18.8431
12.7618 3.61763 -18.8445
12.7281 3.71786 -18.8458
12.6944 3.81809 -18.8472
12.6607 3.91832 -18.8486
12.6269 4.01855 -18.8499
12.5932 4.11878 -18.8513
12.6539 4.25749 -18.8502
12.6201 4.35772 -18.8516
12.5864 4.45795 -18.853
12.5527 4.55818 -18.8543
12.519 4.65841 -18.8557
12.5796 4.79713 -18.8546
12.5459 4.89736 -18.856
12.5122 4.99759 -18.8574
12.5728 5.13631 -18.8563
12.5391 5.23653 -18.8577
12.5054 5.33677 -18.859
12.4717 5.437 -18.8604
12.438 5.53723 -18.8618
12.4042 5.63745 -18.8631
12.3705 5.73768 -18.8645
12.3368 5.83792 -18.8659
12.3974 5.97663 -18.8648
12.3637 6.07686 -18.8662
12.33 6.17709 -18.8676
12.2963 6.27732 -18.8689
12.2626 6.37755 -18.8703
12.2288 6.47778 -18.8716
12.1951 6.57801 -18.873
12.2558 6.71673 -18.872
12.222 6.81696 -18.8733
12.1883 6.91719 -18.8747
12.1546 7.01742 -18.8761
12.1209 7.11765 -18.8774
12.0872 7.21788 -18.8788
12.0535 7.31811 -18.8802
12.0197 7.41834 -18.8815
11.986 7.51857 -18.8829
11.9523 7.6188 -18.8842
11.9186 7.71903 -18.8856
11.8849 7.81926 -18.887
11.8512 7.91949 -18.8884
11.7231 7.98123 -18.8921
11.6894 8.08146 -18.8935
11.5613 8.1432 -18.8973
11.5276 8.24343 -18.8987
11.3995 8.30518 -18.9025
11.2715 8.36692 -18.9062
11.1434 8.42866 -18.91
11.0153 8.49041 -18.9138
10.8873 8.55215 -18.9176
10.8535 8.65238 -18.919
10.7255 8.71412 -18.9228
10.5974 8.77587 -18.9265
10.4693 8.83761 -18.9303
10.3413 8.89935 -18.9341
10.1189 8.92261 -18.9403
9.9908 8.98435 -18.9441
9.86273 9.0461 -18.9479
9.73466 9.10784 -18.9517
9.51225 9.1311 -18.9579
9.38418 9.19284 -18.9617
9.16176 9.2161 -18.9679
9.0337 9.27784 -18.9717
8.90563 9.33959 -18.9755
8.77757 9.40133 -18.9793
8.17776 9.27064 -18.9952
8.14404 9.37087 -18.9966
8.01597 9.43262 -19.0004
7.88791 9.49436 -19.0041
7.19375 9.32518 -19.0225
7.16003 9.42541 -19.0238
7.03196 9.48716 -19.0276
6.99824 9.58739 -19.029
16.9742 -4.62543 -18.7841
16.8949 -4.55549 -18.7854
16.878 -4.40504 -18.7844
16.7987 -4.3351 -18.7857
16.7194 -4.26516 -18.7871
16.6401 -4.19521 -18.7885
16.5607 -4.12527 -18.7898
16.5439 -3.97482 -18.7888
16.4646 -3.90488 -18.7901
16.8225 -3.2714 -18.7746
16.8057 -3.12095 -18.7735
16.7264 -3.05101 -18.7749
16.647 -2.98107 -18.7762
16.5677 -2.91112 -18.7776
16.4884 -2.84118 -18.779
16.3466 -2.85174 -18.7827
16.1424 -2.94281 -18.789
16.0631 -2.87287 -18.7903
15.9838 -2.80292 -18.7917
15.9044 -2.73298 -18.7931
15.8251 -2.66304 -18.7944
15.7458 -2.5931 -18.7958
15.604 -2.60366 -18.7996
15.5247 -2.53371 -18.8009
15.3829 -2.54427 -18.8047
15.2412 -2.55484 -18.8085
15.0994 -2.5654 -18.8123
14.9576 -2.57596 -18.8161
14.8783 -2.50602 -18.8175
14.799 -2.43607 -18.8188
14.7197 -2.36613 -18.8202
14.6403 -2.29619 -18.8216
14.561 -2.22624 -18.8229
14.5442 -2.07579 -18.8219
14.4649 -2.00585 -18.8232
14.3855 -1.93591 -18.8246
14.3062 -1.86597 -18.826
14.2269 -1.79602 -18.8273
14.2725 -1.56507 -18.8239
14.3181 -1.33412 -18.8204
14.2388 -1.26418 -18.8217
14.222 -1.11373 -18.8207
14.1427 -1.04378 -18.8221
14.0634 -0.973837 -18.8234
13.984 -0.903896 -18.8248
13.9047 -0.833952 -18.8262
13.8254 -0.764009 -18.8275
13.7461 -0.694065 -18.8289
13.6043 -0.704628 -18.8327
13.4625 -0.715192 -18.8365
13.3208 -0.72575 -18.8403
13.179 -0.736314 -18.844
13.4864 0.348506 -18.8253
13.532 0.57946 -18.8218
13.5151 0.729907 -18.8207
13.4358 0.799851 -18.8221
13.419 0.9503 -18.821
13.3397 1.02024 -18.8224
13.3228 1.17069 -18.8214
13.2435 1.24063 -18.8227
13.1642 1.31057 -18.8241
13.1473 1.46102 -18.823
13.068 1.53097 -18.8244
13.0512 1.68142 -18.8233
13.0343 1.83186 -18.8223
12.955 1.90181 -18.8237
12.9382 2.05225 -18.8226
12.8588 2.1222 -18.824
12.842 2.27265 -18.8229
12.8251 2.42309 -18.8218
12.8708 2.65404 -18.8184
12.8539 2.80449 -18.8173
12.8371 2.95494 -18.8163
12.8202 3.10539 -18.8152
12.8034 3.25584 -18.8141
12.7865 3.40629 -18.8131
12.7072 3.47623 -18.8144
12.6903 3.62667 -18.8134
12.611 3.69662 -18.8148
12.5317 3.76656 -18.8161
12.5149 3.91701 -18.8151
12.4356 3.98695 -18.8164
12.6061 4.37892 -18.8081
12.5893 4.52937 -18.807
12.5099 4.59931 -18.8084
12.4931 4.74975 -18.8074
12.4762 4.9002 -18.8063
12.4594 5.05065 -18.8052
12.505 5.28161 -18.8018
12.4882 5.43205 -18.8007
12.4713 5.5825 -18.7996
12.392 5.65244 -18.801
12.3751 5.80289 -18.8
12.2958 5.87283 -18.8013
12.279 6.02328 -18.8003
12.1997 6.09323 -18.8016
12.1828 6.24368 -18.8006
12.2284 6.47463 -18.7971
12.2116 6.62507 -18.796
12.1947 6.77552 -18.795
12.1779 6.92597 -18.7939
12.2235 7.15692 -18.7904
12.1442 7.22686 -18.7918
12.1273 7.37731 -18.7907
12.048 7.44726 -18.7921
12.0312 7.5977 -18.7911
11.9519 7.66765 -18.7924
11.935 7.8181 -18.7914
11.9182 7.96854 -18.7903
11.9013 8.11899 -18.7892
11.822 8.18893 -18.7906
11.8051 8.33939 -18.7896
11.7258 8.40933 -18.7909
11.6465 8.47927 -18.7923
11.5672 8.54921 -18.7937
11.4254 8.53865 -18.7974
11.3461 8.60859 -18.7988
11.2668 8.67853 -18.8002
11.1875 8.74848 -18.8015
11.0457 8.73792 -18.8053
10.9664 8.80786 -18.8067
10.8871 8.87781 -18.8081
10.8077 8.94775 -18.8094
10.7284 9.01769 -18.8108
10.6491 9.08763 -18.8122
10.5698 9.15758 -18.8135
10.428 9.14702 -18.8173
10.3487 9.21696 -18.8187
10.2694 9.2869 -18.8201
10.1901 9.35684 -18.8214
10.1108 9.42679 -18.8228
9.96899 9.41623 -18.8266
9.88967 9.48617 -18.8279
9.81036 9.55611 -18.8293
9.66858 9.54555 -18.8331
9.58926 9.6155 -18.8345
9.44748 9.60493 -18.8382
9.36816 9.67487 -18.8396
9.22639 9.66432 -18.8434
9.14707 9.73426 -18.8448
9.00529 9.7237 -18.8486
8.92597 9.79364 -18.8499
8.78419 9.78307 -18.8537
8.70488 9.85302 -18.8551
8.5631 9.84246 -18.8589
8.42132 9.8319 -18.8627
8.27954 9.82133 -18.8664
8.13776 9.81078 -18.8702
8.05845 9.88072 -18.8716
7.91667 9.87016 -18.8754
7.83735 9.9401 -18.8768
7.69557 9.92954 -18.8805
7.61625 9.99948 -18.8819
7.47447 9.98892 -18.8857
7.39516 10.0589 -18.8871
7.31585 10.1288 -18.8884
7.17406 10.1182 -18.8922
7.09475 10.1882 -18.8936
6.95297 10.1776 -18.8974
6.81119 10.1671 -18.9012
6.66941 10.1565 -18.905
6.52763 10.1459 -18.9088
6.44831 10.2159 -18.9101
6.30653 10.2053 -18.9139
6.22722 10.2753 -18.9153
6.08544 10.2647 -18.9191
5.88119 10.1736 -18.9253
5.67695 10.0826 -18.9315
5.53517 10.072 -18.9353
5.39339 10.0614 -18.9391
5.2516 10.0509 -18.9428
5.04736 9.95982 -18.9491
4.90558 9.94926 -18.9529
4.7638 9.9387 -18.9566
4.62202 9.92813 -18.9604
4.48024 9.91757 -18.9642
4.15106 9.6655 -18.9753
3.94681 9.57443 -18.9815
3.80503 9.56387 -18.9853
3.66326 9.55331 -18.9891
3.52147 9.54274 -18.9929
3.44216 9.61269 -18.9942
11.7889 8.33646 -18.7924
11.6991 8.45833 -18.7914
11.6093 8.5802 -18.7903
11.5195 8.70206 -18.7892
11.4297 8.82393 -18.7882
11.3398 8.9458 -18.7871
11.25 9.06766 -18.7861
11.1602 9.18953 -18.785
11.0565 9.21045 -18.7864
10.9529 9.23136 -18.7877
10.8492 9.25227 -18.7891
10.7456 9.27319 -18.7905
10.6419 9.29411 -18.7918
10.5382 9.31502 -18.7932
10.4484 9.43689 -18.7921
10.3448 9.4578 -18.7935
10.255 9.57967 -18.7924
10.1513 9.60058 -18.7938
10.0476 9.6215 -18.7952
9.94397 9.64241 -18.7966
9.85416 9.76428 -18.7955
9.73665 9.68425 -18.7993
9.63299 9.70516 -18.8006
9.52933 9.72608 -18.802
9.42567 9.74699 -18.8034
9.32201 9.76791 -18.8047
9.21835 9.78882 -18.8061
9.12854 9.91069 -18.8051
9.02487 9.9316 -18.8064
8.93506 10.0535 -18.8054
8.8314 10.0744 -18.8067
8.74158 10.1963 -18.8057
8.63792 10.2172 -18.807
8.53426 10.2381 -18.8084
8.4306 10.259 -18.8098
8.32694 10.2799 -18.8111
8.20944 10.1999 -18.8149
8.10578 10.2208 -18.8163
8.00212 10.2417 -18.8177
7.89846 10.2626 -18.819
7.7948 10.2835 -18.8204
7.69114 10.3045 -18.8218
7.60132 10.4263 -18.8207
7.49766 10.4472 -18.8221
7.394 10.4682 -18.8234
7.29034 10.4891 -18.8248
7.18668 10.51 -18.8262
7.08302 10.5309 -18.8275
6.97936 10.5518 -18.8289
6.86186 10.4718 -18.8327
6.7582 10.4927 -18.8341
6.65454 10.5136 -18.8354
6.55088 10.5345 -18.8368
6.44722 10.5554 -18.8382
6.34356 10.5763 -18.8395
6.22605 10.4963 -18.8433
6.12239 10.5172 -18.8447
6.01873 10.5381 -18.846
5.91507 10.5591 -18.8474
5.81141 10.58 -18.8488
5.70775 10.6009 -18.8501
5.60409 10.6218 -18.8515
5.50043 10.6427 -18.8529
5.39677 10.6636 -18.8542
5.27927 10.5836 -18.858
5.16176 10.5036 -18.8618
5.0581 10.5245 -18.8632
4.95444 10.5454 -18.8645
4.83694 10.4654 -18.8683
4.73327 10.4863 -18.8697
4.62962 10.5072 -18.8711
4.52596 10.5281 -18.8724
4.40845 10.4481 -18.8762
4.30479 10.469 -18.8776
4.18729 10.3889 -18.8814
4.08363 10.4099 -18.8827
3.96612 10.3298 -18.8865
3.86246 10.3507 -18.8879
3.7588 10.3716 -18.8893
3.6413 10.2916 -18.8931
3.53764 10.3125 -18.8944
3.43398 10.3334 -18.8958
3.31647 10.2534 -18.8996
3.21281 10.2743 -18.9009
3.09531 10.1943 -18.9047
2.9778 10.1142 -18.9085
2.8603 10.0342 -18.9123
2.75664 10.0551 -18.9137
2.62529 9.87414 -18.9199
2.50778 9.7941 -18.9237
2.39028 9.71406 -18.9275
2.27278 9.63403 -18.9313
2.15527 9.55399 -18.935
2.03777 9.47395 -18.9388
1.90642 9.29296 -18.945
9.4851 9.9807 -18.8634
9.3079 10.1357 -18.8599
9.20767 10.102 -18.8613
9.10744 10.0682 -18.8626
9.00721 10.0345 -18.864
8.86849 10.0952 -18.8629
8.76826 10.0614 -18.8643
8.62955 10.1221 -18.8633
8.49083 10.1827 -18.8622
8.35211 10.2433 -18.8611
8.25188 10.2096 -18.8625
8.11317 10.2703 -18.8614
7.93597 10.4252 -18.858
7.79725 10.4859 -18.8569
7.65853 10.5465 -18.8559
7.51982 10.6071 -18.8548
7.41959 10.5734 -18.8562
7.31936 10.5397 -18.8575
7.18064 10.6003 -18.8565
7.04192 10.661 -18.8554
6.94169 10.6272 -18.8568
6.84146 10.5935 -18.8581
6.70275 10.6542 -18.8571
6.60252 10.6204 -18.8584
6.4638 10.6811 -18.8574
6.32508 10.7417 -18.8563
6.18637 10.8023 -18.8553
6.04765 10.863 -18.8542
5.94742 10.8293 -18.8556
5.84719 10.7955 -18.8569
5.74696 10.7618 -18.8583
5.60825 10.8225 -18.8573
5.50802 10.7887 -18.8586
5.40779 10.755 -18.86
5.30756 10.7213 -18.8614
5.16884 10.7819 -18.8603
5.06861 10.7482 -18.8617
4.96838 10.7145 -18.863
4.86815 10.6808 -18.8644
4.72943 10.7414 -18.8633
4.6292 10.7077 -18.8647
4.52897 10.674 -18.8661
4.42874 10.6403 -18.8674
4.29003 10.7009 -18.8664
4.1898 10.6672 -18.8678
4.08957 10.6335 -18.8691
3.98934 10.5998 -18.8705
3.88911 10.566 -18.8718
3.78888 10.5323 -18.8732
3.68865 10.4986 -18.8746
3.58842 10.4649 -18.8759
3.48819 10.4312 -18.8773
3.38796 10.3974 -18.8787
3.24924 10.4581 -18.8776
3.14901 10.4244 -18.879
3.04878 10.3906 -18.8804
2.91007 10.4513 -18.8793
2.84832 10.3232 -18.8831
2.74809 10.2895 -18.8844
2.64786 10.2558 -18.8858
2.54763 10.2221 -18.8872
2.4474 10.1883 -18.8885
2.34717 10.1546 -18.8899
2.24694 10.1209 -18.8913
2.14671 10.0872 -18.8927
2.04648 10.0535 -18.894
1.94625 10.0198 -18.8954
1.84602 9.98604 -18.8967
1.74579 9.95232 -18.8981
1.64556 9.91861 -18.8995
1.54533 9.88489 -18.9008
1.4451 9.85117 -18.9022
1.38336 9.72311 -18.906
1.32162 9.59504 -18.9098
1.22139 9.56132 -18.9111
1.12116 9.52761 -18.9125
1.02093 9.49389 -18.9139
0.920698 9.46017 -18.9153
0.78198 9.52081 -18.9142
0.681751 9.48709 -18.9156
0.620008 9.35902 -18.9194
0.519779 9.3253 -18.9207
0.419548 9.29158 -18.9221
0.319318 9.25787 -18.9234
0.257572 9.12981 -18.9272
0.157344 9.09609 -18.9286
0.0571141 9.06237 -18.93
-0.00462842 8.9343 -18.9338
-0.104859 8.90059 -18.9351
-0.205089 8.86687 -18.9365
-0.266831 8.7388 -18.9403
-0.367062 8.70508 -18.9417
-0.428807 8.57702 -18.9454
-0.490549 8.44896 -18.9492
4.88689 11.4279 -18.9308
4.73645 11.411 -18.9297
4.58599 11.3942 -18.9287
4.43555 11.3773 -18.9276
4.2851 11.3605 -18.9266
4.13465 11.3436 -18.9255
4.06471 11.2643 -18.9269
3.91426 11.2475 -18.9258
3.84432 11.1681 -18.9272
3.69387 11.1513 -18.9261
3.62393 11.072 -18.9275
3.47348 11.0551 -18.9264
3.40354 10.9758 -18.9278
3.25309 10.959 -18.9267
3.10264 10.9421 -18.9257
2.95219 10.9253 -18.9246
2.88225 10.846 -18.926
2.81231 10.7666 -18.9274
2.74236 10.6873 -18.9287
2.67242 10.608 -18.9301
2.52197 10.5912 -18.929
2.29102 10.6368 -18.9256
2.06007 10.6824 -18.9221
1.90962 10.6655 -18.921
1.83968 10.5862 -18.9224
1.68923 10.5694 -18.9213
1.61928 10.4901 -18.9227
1.46884 10.4732 -18.9216
1.3989 10.3939 -18.923
1.32895 10.3146 -18.9244
1.1785 10.2977 -18.9233
1.10856 10.2184 -18.9247
0.877608 10.264 -18.9212
0.72716 10.2472 -18.9201
0.657216 10.1679 -18.9215
0.506771 10.151 -18.9204
0.436827 10.0717 -18.9218
0.366883 9.9924 -18.9232
0.296943 9.91309 -18.9245
0.146491 9.89624 -18.9235
0.0765476 9.81693 -18.9249
0.00660372 9.73761 -18.9262
-0.143842 9.72076 -18.9252
-0.213785 9.64145 -18.9265
-0.283729 9.56213 -18.9279
-0.353673 9.48282 -18.9293
-0.423616 9.4035 -18.9306
-0.493557 9.32419 -18.932
-0.563501 9.24487 -18.9333
-0.633445 9.16556 -18.9347
-0.78389 9.14871 -18.9337
-0.853834 9.06939 -18.935
-0.923775 8.99008 -18.9364
-1.07423 8.97323 -18.9353
-1.14417 8.89392 -18.9367
-1.21411 8.8146 -18.9381
-1.28406 8.73529 -18.9394
-1.354 8.65597 -18.9408
-1.42394 8.57666 -18.9422
-1.49389 8.49734 -18.9435
-1.56383 8.41803 -18.9449
-1.63377 8.33871 -18.9463
-1.70371 8.2594 -18.9476
-1.77366 8.18008 -18.949
-1.8436 8.10077 -18.9504
-1.91354 8.02146 -18.9517
-1.98349 7.94214 -18.9531
-2.05343 7.86282 -18.9545
-2.12337 7.78351 -18.9558
-2.19332 7.7042 -18.9572
-2.26326 7.62488 -18.9586
-2.3332 7.54557 -18.9599
-2.40315 7.46625 -18.9613
-2.47309 7.38694 -18.9627
-2.54303 7.30762 -18.964
-2.61298 7.22831 -18.9654
-2.68292 7.14899 -18.9668
-2.75286 7.06968 -18.9681
-2.82281 6.99036 -18.9695
-2.89275 6.91105 -18.9709
-2.96269 6.83173 -18.9722
-3.03263 6.75242 -18.9736
-3.10258 6.6731 -18.9749
-3.17252 6.59379 -18.9763
-3.24247 6.51448 -18.9777
-3.31241 6.43516 -18.979
-3.30184 6.29338 -18.9828
-3.37179 6.21406 -18.9842
-3.44173 6.13475 -18.9856
-3.51167 6.05543 -18.9869
-3.50111 5.91365 -18.9907
-3.57106 5.83434 -18.9921
-3.641 5.75503 -18.9935
-3.71094 5.67571 -18.9948
-3.78089 5.5964 -18.9962
-3.85083 5.51708 -18.9976
-3.92077 5.43777 -18.9989
-4.07122 5.42092 -18.9979
-4.14116 5.3416 -18.9992
-4.21111 5.26229 -19.0006
-4.20054 5.12051 -19.0044
-4.27049 5.04119 -19.0058
-4.34043 4.96188 -19.0071
-4.41038 4.88257 -19.0085
-4.39981 4.74078 -19.0123
-4.46976 4.66147 -19.0136
-4.5397 4.58216 -19.015
-4.60964 4.50284 -19.0164
-4.67959 4.42353 -19.0177
-4.74953 4.34421 -19.0191
-4.81947 4.2649 -19.0205
-4.80891 4.12312 -19.0243
-4.87885 4.0438 -19.0256
-4.9488 3.96449 -19.027
-4.93824 3.82271 -19.0308
-5.00818 3.74339 -19.0322
-4.99762 3.60161 -19.0359
-5.06756 3.5223 -19.0373
-5.1375 3.44298 -19.0387
-5.20744 3.36367 -19.04
-5.27739 3.28435 -19.0414
-5.26683 3.14257 -19.0452
-5.33677 3.06326 -19.0466
-5.48722 3.04641 -19.0455
-5.55716 2.96709 -19.0469
-5.6271 2.88778 -19.0482
-5.61654 2.746 -19.052
-5.68649 2.66669 -19.0534
-5.67592 2.5249 -19.0572
-5.34335 2.13326 -19.0706
-5.33278 1.99148 -19.0744
-2.56573 7.48209 -18.9926
-2.6876 7.39228 -18.9915
-2.70852 7.28862 -18.9929
-2.72944 7.18496 -18.9942
-3.25511 7.15052 -18.9835
-3.37697 7.0607 -18.9824
-3.49884 6.97089 -18.9814
-3.51976 6.86723 -18.9827
-3.64163 6.77741 -18.9817
-3.66254 6.67375 -18.983
-3.68345 6.57009 -18.9844
-3.80532 6.48028 -18.9834
-3.82624 6.37662 -18.9847
-3.84715 6.27296 -18.9861
-3.96902 6.18314 -18.985
-3.98994 6.07948 -18.9864
-4.01085 5.97582 -18.9878
-4.03177 5.87216 -18.9891
-4.15364 5.78234 -18.9881
-4.17455 5.67868 -18.9894
-4.19546 5.57502 -18.9908
-4.21638 5.47136 -18.9922
-4.33824 5.38155 -18.9911
-4.35916 5.27789 -18.9925
-4.27912 5.16038 -18.9963
-4.30004 5.05672 -18.9976
-4.72476 5.00844 -18.9893
-4.84663 4.91862 -18.9883
-4.9685 4.82881 -18.9872
-5.09036 4.73899 -18.9861
-5.11128 4.63533 -18.9875
-5.13219 4.53167 -18.9889
-5.15311 4.42801 -18.9902
-5.27497 4.33819 -18.9892
-5.39684 4.24838 -18.9881
-5.41776 4.14472 -18.9895
-5.53963 4.0549 -18.9884
-5.66149 3.96509 -18.9874
-5.6824 3.86143 -18.9887
-5.70332 3.75777 -18.9901
-5.82519 3.66795 -18.989
-5.84611 3.56429 -18.9904
-5.86702 3.46063 -18.9918
-5.98889 3.37082 -18.9907
-6.0098 3.26715 -18.9921
-6.03072 3.1635 -18.9935
-6.15258 3.07368 -18.9924
-6.1735 2.97002 -18.9938
-6.19441 2.86636 -18.9951
-6.21532 2.7627 -18.9965
-6.23624 2.65904 -18.9979
-6.25716 2.55538 -18.9992
-6.27807 2.45172 -19.0006
-6.29898 2.34806 -19.002
-6.3199 2.2444 -19.0033
-6.34082 2.14074 -19.0047
-6.36173 2.03708 -19.0061
-6.2817 1.91957 -19.0099
-6.30261 1.81591 -19.0112
-6.22258 1.69841 -19.015
-6.24349 1.59475 -19.0164
-6.26441 1.49109 -19.0177
-6.28532 1.38743 -19.0191
-6.30624 1.28377 -19.0205
-6.32715 1.18011 -19.0218
-6.34807 1.07645 -19.0232
-6.36898 0.972788 -19.0246
-6.3899 0.869128 -19.0259
-6.41081 0.765468 -19.0273
-6.33077 0.647961 -19.0311
-6.35169 0.544302 -19.0325
-6.3726 0.440643 -19.0338
-6.39352 0.336983 -19.0352
-6.31349 0.219479 -19.039
-6.3344 0.115817 -19.0403
-6.25436 -0.00168669 -19.0441
-6.27527 -0.105349 -19.0455
-6.19524 -0.22285 -19.0493
-6.1152 -0.340357 -19.0531
-6.03517 -0.45786 -19.0569
-6.05608 -0.56152 -19.0582
-5.97604 -0.679026 -19.062
-5.89601 -0.796531 -19.0658
-5.81597 -0.914034 -19.0696
-5.73594 -1.03154 -19.0734
-5.75685 -1.1352 -19.0748
-5.67681 -1.25271 -19.0785
-5.69773 -1.35636 -19.0799
-6.57587 2.55318 -18.9873
-6.6365 2.41446 -18.9863
-6.69713 2.27575 -18.9852
-6.75776 2.13703 -18.9842
-6.72405 2.0368 -18.9855
-6.78468 1.89809 -18.9845
-6.75096 1.79786 -18.9858
-6.8116 1.65914 -18.9848
-6.87223 1.52042 -18.9837
-6.83851 1.42019 -18.9851
-6.89914 1.28148 -18.984
-6.86543 1.18125 -18.9854
-6.83171 1.08102 -18.9868
-6.79799 0.980789 -18.9881
-6.85863 0.84207 -18.9871
-6.82491 0.741839 -18.9884
-6.88554 0.603125 -18.9874
-6.85182 0.502897 -18.9887
-6.8181 0.402666 -18.9901
-6.87874 0.263949 -18.989
-6.84502 0.163719 -18.9904
-6.81131 0.0634875 -18.9918
-6.77759 -0.0367408 -18.9931
-6.83822 -0.175458 -18.9921
-6.8045 -0.275688 -18.9935
-6.77079 -0.375918 -18.9948
-6.73707 -0.476148 -18.9962
-6.70335 -0.576377 -18.9976
-6.66963 -0.676609 -18.9989
-6.63592 -0.776837 -19.0003
-6.6022 -0.877069 -19.0016
-6.56848 -0.977299 -19.003
-6.53477 -1.07753 -19.0044
-6.50105 -1.17776 -19.0058
-6.46733 -1.27799 -19.0071
-6.43362 -1.37822 -19.0085
-6.3999 -1.47845 -19.0099
-6.36618 -1.57868 -19.0112
-6.33246 -1.67891 -19.0126
-6.29875 -1.77914 -19.0139
-6.26503 -1.87937 -19.0153
-6.23131 -1.9796 -19.0167
-6.1976 -2.07983 -19.0181
-6.16388 -2.18006 -19.0194
-6.13016 -2.28029 -19.0208
-6.09645 -2.38052 -19.0221
-6.06273 -2.48075 -19.0235
-6.02901 -2.58098 -19.0249
-5.90095 -2.64272 -19.0287
-5.86723 -2.74295 -19.03
-5.83351 -2.84318 -19.0314
-5.79979 -2.94341 -19.0328
-5.76608 -3.04364 -19.0341
-5.73236 -3.14387 -19.0355
-5.69864 -3.2441 -19.0369
-5.66492 -3.34433 -19.0382
-5.63121 -3.44456 -19.0396
-5.50314 -3.5063 -19.0434
-5.46942 -3.60653 -19.0448
-5.43571 -3.70676 -19.0461
-5.40199 -3.80699 -19.0475
-5.27393 -3.86874 -19.0513
-5.24021 -3.96897 -19.0526
-5.20649 -4.0692 -19.054
-5.17278 -4.16943 -19.0554
-5.13906 -4.26966 -19.0567
-5.10534 -4.36989 -19.0581
-4.97727 -4.43163 -19.0619
-4.94356 -4.53186 -19.0632
-4.90984 -4.63209 -19.0646
-4.78177 -4.69383 -19.0684
-4.74806 -4.79406 -19.0698
-4.71434 -4.89429 -19.0711
-4.58627 -4.95604 -19.0749
-4.55255 -5.05626 -19.0763
-4.51884 -5.15649 -19.0777
-4.48512 -5.25672 -19.079
-4.45141 -5.35696 -19.0804
-4.41769 -5.45719 -19.0818
-4.38397 -5.55741 -19.0831
-4.2559 -5.61916 -19.0869
-4.22219 -5.71939 -19.0883
-4.09412 -5.78113 -19.0921
-4.06041 -5.88136 -19.0934
-4.02669 -5.98159 -19.0948
-3.99297 -6.08182 -19.0962
-3.86491 -6.14357 -19.1
-3.83119 -6.2438 -19.1013
-3.79747 -6.34403 -19.1027
-3.76375 -6.44425 -19.104
-3.73004 -6.54449 -19.1054
-3.60197 -6.60623 -19.1092
-3.56826 -6.70646 -19.1106
-3.53454 -6.80669 -19.1119
-3.50082 -6.90692 -19.1133
-3.37276 -6.96866 -19.1171
-3.33904 -7.06889 -19.1185
-3.30532 -7.16912 -19.1198
-3.2716 -7.26935 -19.1212
-3.23789 -7.36958 -19.1226
-3.10982 -7.43132 -19.1264
-3.0761 -7.53155 -19.1277
-3.04238 -7.63178 -19.1291
-3.00867 -7.73201 -19.1304
-2.97495 -7.83224 -19.1318
-2.84689 -7.89399 -19.1356
-2.81317 -7.99422 -19.137
-2.77946 -8.09445 -19.1383
-2.74574 -8.19468 -19.1397
-2.61767 -8.25642 -19.1435
-2.58395 -8.35665 -19.1449
-2.55024 -8.45688 -19.1462
-2.42217 -8.51863 -19.15
-2.38845 -8.61885 -19.1514
-2.35473 -8.71908 -19.1527
-2.22667 -8.78083 -19.1565
-2.19295 -8.88106 -19.1579
-2.15923 -8.98129 -19.1593
-2.03117 -9.04303 -19.1631
-1.99745 -9.14326 -19.1644
