ply
format ascii 1.0
comment VCGLIB generated
element vertex 1243
property float x
property float y
property float z
element face 0
property list uchar int vertex_indices
end_header
4.91474 -13.6898 -17.7746
5.2262 -13.7979 -17.7687
5.45715 -13.8435 -17.7652
5.6881 -13.8891 -17.7617
5.91906 -13.9347 -17.7583
6.0695 -13.9179 -17.7572
6.21995 -13.901 -17.7561
6.3704 -13.8842 -17.7551
6.52085 -13.8673 -17.754
6.67129 -13.8505 -17.753
6.82174 -13.8336 -17.7519
6.89169 -13.7543 -17.7533
6.96163 -13.675 -17.7547
7.03157 -13.5957 -17.756
7.18202 -13.5788 -17.755
7.25196 -13.4995 -17.7563
7.40241 -13.4827 -17.7553
7.55286 -13.4658 -17.7542
7.6228 -13.3865 -17.7556
7.69275 -13.3072 -17.757
7.84319 -13.2903 -17.7559
7.91314 -13.211 -17.7573
7.98308 -13.1317 -17.7586
8.05302 -13.0524 -17.76
8.12297 -12.9731 -17.7614
8.19291 -12.8938 -17.7627
8.26285 -12.8144 -17.7641
8.3328 -12.7351 -17.7655
8.40274 -12.6558 -17.7668
8.47268 -12.5765 -17.7682
8.54263 -12.4972 -17.7696
8.61257 -12.4179 -17.7709
8.68251 -12.3386 -17.7723
8.83296 -12.3217 -17.7712
8.9029 -12.2424 -17.7726
8.97285 -12.1631 -17.774
9.04279 -12.0838 -17.7753
9.11273 -12.0045 -17.7767
9.18267 -11.9251 -17.7781
9.33312 -11.9083 -17.777
9.40306 -11.829 -17.7784
9.47301 -11.7497 -17.7797
9.54295 -11.6703 -17.7811
9.6934 -11.6535 -17.78
9.76334 -11.5742 -17.7814
9.91379 -11.5573 -17.7803
9.98374 -11.478 -17.7817
10.0537 -11.3987 -17.7831
10.1236 -11.3194 -17.7845
10.1936 -11.2401 -17.7858
10.2635 -11.1608 -17.7872
10.3335 -11.0814 -17.7885
10.4839 -11.0646 -17.7875
10.5538 -10.9853 -17.7889
10.6238 -10.906 -17.7902
10.7742 -10.8891 -17.7892
10.8442 -10.8098 -17.7905
10.9946 -10.793 -17.7895
11.0646 -10.7136 -17.7908
11.215 -10.6968 -17.7898
11.285 -10.6175 -17.7912
11.4354 -10.6006 -17.7901
11.5054 -10.5213 -17.7915
11.5753 -10.442 -17.7928
11.7257 -10.4251 -17.7918
11.7957 -10.3458 -17.7931
11.9461 -10.329 -17.7921
12.0966 -10.3121 -17.791
12.1665 -10.2328 -17.7924
12.317 -10.216 -17.7913
12.3869 -10.1367 -17.7927
12.4569 -10.0573 -17.7941
12.5268 -9.97803 -17.7954
12.5967 -9.89871 -17.7968
12.6667 -9.8194 -17.7982
12.8171 -9.80255 -17.7971
12.8871 -9.72323 -17.7985
12.957 -9.64392 -17.7998
13.027 -9.56461 -17.8012
13.1774 -9.54775 -17.8001
13.2474 -9.46844 -17.8015
13.3978 -9.45159 -17.8004
13.4677 -9.37228 -17.8018
13.6182 -9.35543 -17.8008
13.6881 -9.27612 -17.8021
13.7581 -9.1968 -17.8035
13.9085 -9.17995 -17.8024
13.9785 -9.10064 -17.8038
14.0484 -9.02132 -17.8052
14.1184 -8.94201 -17.8065
14.2688 -8.92515 -17.8055
14.3387 -8.84584 -17.8068
14.4087 -8.76653 -17.8082
14.4786 -8.68721 -17.8096
14.5486 -8.60789 -17.8109
14.699 -8.59105 -17.8099
14.769 -8.51174 -17.8112
14.8389 -8.43242 -17.8126
14.9089 -8.3531 -17.814
15.0593 -8.33626 -17.8129
15.1292 -8.25694 -17.8143
15.1992 -8.17763 -17.8157
15.2691 -8.09831 -17.817
15.3391 -8.019 -17.8184
15.409 -7.93968 -17.8197
15.479 -7.86037 -17.8211
15.5489 -7.78105 -17.8225
15.6188 -7.70174 -17.8239
15.6888 -7.62242 -17.8252
15.7587 -7.54311 -17.8266
15.8287 -7.46379 -17.828
15.8986 -7.38448 -17.8293
15.9686 -7.30516 -17.8307
15.958 -7.16338 -17.8345
16.0279 -7.08407 -17.8358
16.0979 -7.00476 -17.8372
16.0873 -6.86297 -17.841
16.1573 -6.78366 -17.8424
16.2272 -6.70434 -17.8437
16.2167 -6.56257 -17.8475
16.2866 -6.48325 -17.8489
16.276 -6.34147 -17.8527
16.346 -6.26216 -17.854
16.3354 -6.12037 -17.8578
16.3249 -5.9786 -17.8616
16.2338 -5.77435 -17.8678
16.1427 -5.5701 -17.874
16.0517 -5.36586 -17.8802
16.1216 -5.28654 -17.8816
16.111 -5.14477 -17.8854
16.1005 -5.00298 -17.8892
16.0899 -4.8612 -17.893
7.11054 -13.7514 -17.7845
7.23241 -13.6615 -17.7834
7.35428 -13.5717 -17.7824
7.37519 -13.4681 -17.7837
7.79992 -13.4198 -17.7754
8.02273 -13.3438 -17.7719
8.1446 -13.254 -17.7709
8.16551 -13.1503 -17.7722
8.28738 -13.0605 -17.7712
8.3083 -12.9569 -17.7725
8.43016 -12.8671 -17.7715
8.65298 -12.7911 -17.768
8.8758 -12.7151 -17.7645
8.89672 -12.6114 -17.7659
9.01859 -12.5216 -17.7648
9.0395 -12.418 -17.7662
9.06041 -12.3143 -17.7676
9.18228 -12.2245 -17.7665
9.2032 -12.1208 -17.7679
9.32507 -12.031 -17.7668
9.44693 -11.9412 -17.7657
9.46784 -11.8375 -17.7671
9.58972 -11.7477 -17.7661
9.71158 -11.6579 -17.765
9.83345 -11.5681 -17.7639
9.95532 -11.4783 -17.7629
10.0772 -11.3885 -17.7618
10.199 -11.2986 -17.7608
10.4219 -11.2227 -17.7573
10.5437 -11.1329 -17.7562
10.5646 -11.0292 -17.7576
10.6865 -10.9394 -17.7565
10.8084 -10.8496 -17.7555
11.0312 -10.7736 -17.752
11.355 -10.7115 -17.7461
11.4768 -10.6217 -17.7451
11.5987 -10.5318 -17.744
11.7206 -10.442 -17.7429
11.7415 -10.3384 -17.7443
11.8634 -10.2485 -17.7432
12.0862 -10.1726 -17.7398
12.5109 -10.1243 -17.7314
12.5318 -10.0206 -17.7328
12.6537 -9.93082 -17.7318
12.6746 -9.82716 -17.7331
12.7965 -9.73734 -17.7321
13.0193 -9.66137 -17.7286
13.1412 -9.57155 -17.7275
13.263 -9.48174 -17.7265
13.3849 -9.39192 -17.7254
13.6077 -9.31595 -17.7219
13.7296 -9.22613 -17.7209
13.8514 -9.13632 -17.7198
13.8724 -9.03266 -17.7212
13.9942 -8.94284 -17.7201
14.0151 -8.83918 -17.7215
14.137 -8.74937 -17.7204
14.1579 -8.64571 -17.7218
14.2798 -8.55589 -17.7207
14.3007 -8.45223 -17.7221
14.4226 -8.36242 -17.721
14.5444 -8.2726 -17.72
14.6663 -8.18278 -17.7189
14.7882 -8.09297 -17.7179
15.4148 -8.07237 -17.7047
15.5367 -7.98256 -17.7036
15.5576 -7.8789 -17.705
15.5785 -7.77524 -17.7064
15.7004 -7.68542 -17.7053
15.7213 -7.58176 -17.7067
15.7422 -7.4781 -17.7081
15.8641 -7.38829 -17.707
15.885 -7.28462 -17.7084
15.9059 -7.18096 -17.7097
16.0278 -7.09115 -17.7087
16.0487 -6.98749 -17.71
16.0696 -6.88383 -17.7114
16.0905 -6.78017 -17.7128
16.2124 -6.69035 -17.7117
16.2333 -6.58669 -17.7131
16.3551 -6.49688 -17.712
16.3761 -6.39322 -17.7134
16.397 -6.28956 -17.7148
16.4179 -6.18589 -17.7161
16.4388 -6.08224 -17.7175
16.4597 -5.97858 -17.7188
16.4806 -5.87492 -17.7202
16.5015 -5.77126 -17.7216
16.5225 -5.66759 -17.7229
16.5434 -5.56393 -17.7243
16.4633 -5.44643 -17.7281
16.4843 -5.34277 -17.7295
16.5052 -5.23911 -17.7308
16.5261 -5.13545 -17.7322
16.547 -5.03179 -17.7336
16.5679 -4.92813 -17.7349
16.5888 -4.82447 -17.7363
16.5088 -4.70696 -17.7401
16.5297 -4.6033 -17.7415
16.4497 -4.4858 -17.7452
16.3696 -4.3683 -17.749
16.2896 -4.25079 -17.7528
16.2096 -4.13329 -17.7566
16.2305 -4.02963 -17.758
16.1504 -3.91212 -17.7618
14.0514 -3.51773 -17.814
13.9713 -3.40023 -17.8178
13.9923 -3.29657 -17.8192
14.0132 -3.19291 -17.8205
13.9331 -3.0754 -17.8243
13.954 -2.97174 -17.8257
13.874 -2.85424 -17.8295
13.794 -2.73673 -17.8333
13.7139 -2.61923 -17.8371
13.7348 -2.51557 -17.8384
13.6548 -2.39806 -17.8422
13.6757 -2.2944 -17.8436
13.6966 -2.19074 -17.8449
13.6166 -2.07324 -17.8487
13.6375 -1.96958 -17.8501
13.6584 -1.86592 -17.8515
13.5784 -1.74841 -17.8553
13.5993 -1.64475 -17.8566
13.5193 -1.52725 -17.8604
13.3383 -1.3959 -17.8666
13.1573 -1.26455 -17.8728
13.0773 -1.14705 -17.8766
12.9972 -1.02954 -17.8804
12.9172 -0.912038 -17.8842
12.9381 -0.808376 -17.8856
12.959 -0.704718 -17.8869
12.879 -0.587214 -17.8907
12.8999 -0.483554 -17.8921
12.9208 -0.379894 -17.8935
12.8408 -0.262388 -17.8972
12.8617 -0.158729 -17.8986
12.7817 -0.0412235 -17.9024
12.8026 0.0624359 -17.9038
12.7225 0.179939 -17.9076
12.7434 0.283601 -17.9089
12.7644 0.387261 -17.9103
12.6843 0.504766 -17.9141
12.7052 0.608423 -17.9155
12.7262 0.712083 -17.9168
12.7471 0.815745 -17.9182
12.667 0.93325 -17.922
12.688 1.03691 -17.9233
12.7089 1.14057 -17.9247
12.7298 1.24423 -17.9261
12.6497 1.36174 -17.9299
12.6707 1.4654 -17.9312
12.5906 1.5829 -17.935
12.6115 1.68656 -17.9364
12.5315 1.80406 -17.9402
12.5524 1.90773 -17.9415
12.5733 2.01138 -17.9429
12.4933 2.12889 -17.9467
12.5142 2.23255 -17.948
12.5351 2.33621 -17.9494
12.556 2.43987 -17.9508
12.577 2.54353 -17.9521
12.4969 2.66103 -17.9559
12.5178 2.76469 -17.9573
12.5387 2.86835 -17.9587
12.4587 2.98586 -17.9625
12.4796 3.08952 -17.9638
12.3996 3.20702 -17.9676
12.4205 3.31069 -17.969
12.4414 3.41434 -17.9704
12.3614 3.53185 -17.9741
12.3823 3.63551 -17.9755
12.4032 3.73917 -17.9769
12.4241 3.84283 -17.9782
12.3441 3.96034 -17.982
12.365 4.06399 -17.9834
12.285 4.1815 -17.9872
12.2049 4.299 -17.991
12.1249 4.41651 -17.9948
12.1458 4.52017 -17.9961
12.1667 4.62383 -17.9975
12.1876 4.72749 -17.9989
12.2086 4.83115 -18.0002
12.2295 4.93481 -18.0016
12.2504 5.03847 -18.0029
12.2713 5.14213 -18.0043
12.2922 5.24579 -18.0057
12.2122 5.36329 -18.0095
12.2331 5.46695 -18.0108
12.254 5.57061 -18.0122
12.174 5.68812 -18.016
12.1949 5.79178 -18.0174
12.2158 5.89544 -18.0187
12.2367 5.9991 -18.0201
12.2576 6.10276 -18.0215
12.2785 6.20642 -18.0228
12.2995 6.31008 -18.0242
12.3204 6.41374 -18.0256
12.3413 6.5174 -18.0269
12.2613 6.6349 -18.0307
12.1812 6.75241 -18.0345
15.0486 -7.64578 -17.7322
15.4867 -7.35312 -17.7215
15.9247 -7.06046 -17.7107
16.0797 -6.88326 -17.7072
16.1403 -6.74454 -17.7062
16.2009 -6.60582 -17.7051
16.2616 -6.46711 -17.7041
16.4166 -6.28991 -17.7006
16.5715 -6.1127 -17.6971
16.6322 -5.97399 -17.696
16.5984 -5.87376 -17.6974
16.6591 -5.73504 -17.6964
16.7197 -5.59632 -17.6953
16.686 -5.49609 -17.6967
16.7466 -5.35738 -17.6956
16.7129 -5.25715 -17.697
16.7735 -5.11843 -17.6959
16.7398 -5.0182 -17.6973
16.7061 -4.91797 -17.6987
16.6724 -4.81774 -17.7
16.6387 -4.71751 -17.7014
16.6993 -4.5788 -17.7003
16.6656 -4.47857 -17.7017
16.6319 -4.37833 -17.7031
16.6925 -4.23962 -17.702
16.6588 -4.13939 -17.7034
16.4364 -4.11613 -17.7096
16.3083 -4.05439 -17.7134
16.2746 -3.95416 -17.7147
16.2409 -3.85393 -17.7161
16.2072 -3.7537 -17.7175
16.0791 -3.69196 -17.7213
16.0454 -3.59172 -17.7226
16.0117 -3.49149 -17.724
15.9779 -3.39127 -17.7254
15.8499 -3.32952 -17.7291
15.8162 -3.22929 -17.7305
15.0276 -3.43695 -17.7513
14.8996 -3.37521 -17.7551
14.7715 -3.31347 -17.7588
14.6434 -3.25172 -17.7626
14.5154 -3.18998 -17.7664
14.4817 -3.08975 -17.7678
14.448 -2.98952 -17.7691
14.3199 -2.92778 -17.7729
14.2862 -2.82755 -17.7743
14.2524 -2.72732 -17.7757
14.2187 -2.62709 -17.777
14.185 -2.52685 -17.7784
14.1513 -2.42663 -17.7798
14.1176 -2.3264 -17.7811
14.0839 -2.22617 -17.7825
14.0501 -2.12594 -17.7839
14.0164 -2.02571 -17.7852
13.9827 -1.92548 -17.7866
13.949 -1.82525 -17.788
13.9153 -1.72502 -17.7893
13.8816 -1.62479 -17.7907
13.8478 -1.52456 -17.7921
13.8141 -1.42433 -17.7934
13.7804 -1.3241 -17.7948
13.7467 -1.22387 -17.7962
13.713 -1.12364 -17.7975
13.6793 -1.02341 -17.7989
13.6455 -0.923177 -17.8003
13.5175 -0.861434 -17.804
13.4838 -0.761205 -17.8054
13.45 -0.660974 -17.8068
13.4163 -0.560745 -17.8082
13.3826 -0.460515 -17.8095
13.3489 -0.360284 -17.8109
13.4095 -0.221568 -17.8098
13.3758 -0.121338 -17.8112
13.3421 -0.0211082 -17.8126
13.3084 0.0791221 -17.8139
13.2747 0.179352 -17.8153
13.2409 0.279583 -17.8167
13.2072 0.379812 -17.818
13.1735 0.480041 -17.8194
13.1398 0.580271 -17.8208
13.1061 0.680502 -17.8221
13.0724 0.780732 -17.8235
13.0386 0.880962 -17.8248
12.9106 0.942704 -17.8286
12.8769 1.04293 -17.83
12.8431 1.14316 -17.8314
12.9038 1.28188 -17.8303
12.87 1.38211 -17.8317
12.9307 1.52083 -17.8306
12.897 1.62106 -17.832
12.8633 1.72129 -17.8334
12.8295 1.82152 -17.8347
12.7958 1.92175 -17.8361
12.7621 2.02198 -17.8374
12.7284 2.12221 -17.8388
12.6947 2.22244 -17.8402
12.661 2.32267 -17.8416
12.7216 2.46138 -17.8405
12.6879 2.56161 -17.8419
12.6541 2.66184 -17.8432
12.6204 2.76207 -17.8446
12.6811 2.90079 -17.8435
12.6473 3.00102 -17.8449
12.6136 3.10125 -17.8463
12.5799 3.20148 -17.8476
12.6405 3.3402 -17.8466
12.6068 3.44043 -17.8479
12.5731 3.54065 -17.8493
12.5394 3.64089 -17.8507
12.5057 3.74112 -17.852
12.5663 3.87983 -17.851
12.5326 3.98006 -17.8523
12.4989 4.08029 -17.8537
12.4652 4.18052 -17.8551
12.4314 4.28075 -17.8564
12.4921 4.41947 -17.8554
12.4584 4.5197 -17.8568
12.4246 4.61993 -17.8581
12.4853 4.75864 -17.8571
12.4516 4.85887 -17.8584
12.4178 4.9591 -17.8598
12.3841 5.05933 -17.8612
12.3504 5.15956 -17.8625
12.411 5.29828 -17.8615
12.3773 5.39851 -17.8628
12.3436 5.49874 -17.8642
12.3099 5.59897 -17.8656
12.2762 5.6992 -17.8669
12.2424 5.79943 -17.8683
12.2087 5.89966 -17.8697
12.175 5.99989 -17.871
12.2356 6.1386 -17.87
12.2019 6.23883 -17.8713
12.1682 6.33906 -17.8727
12.1345 6.43929 -17.8741
12.1951 6.57801 -17.873
12.1614 6.67824 -17.8744
12.1277 6.77847 -17.8757
12.094 6.8787 -17.8771
12.0603 6.97893 -17.8785
12.1209 7.11765 -17.8774
12.0872 7.21788 -17.8788
12.0535 7.31811 -17.8802
11.9254 7.37985 -17.8839
11.8917 7.48008 -17.8853
11.858 7.58031 -17.8867
11.7299 7.64205 -17.8905
11.6018 7.7038 -17.8943
11.5681 7.80403 -17.8956
11.44 7.86577 -17.8994
11.4063 7.966 -17.9008
11.2783 8.02774 -17.9046
11.0558 8.051 -17.9108
10.9278 8.11274 -17.9146
10.8941 8.21297 -17.9159
10.766 8.27472 -17.9197
10.7323 8.37495 -17.9211
10.6042 8.43669 -17.9249
10.4761 8.49843 -17.9287
10.2537 8.52169 -17.9349
10.22 8.62192 -17.9362
10.0919 8.68367 -17.94
10.0582 8.7839 -17.9414
9.93017 8.84564 -17.9452
9.6134 8.83041 -17.9538
9.48533 8.89215 -17.9576
8.97987 8.79995 -17.9711
8.94615 8.90018 -17.9725
8.81808 8.96193 -17.9762
8.78437 9.06216 -17.9776
8.6563 9.1239 -17.9814
8.62259 9.22413 -17.9828
8.49452 9.28587 -17.9866
8.2721 9.30913 -17.9928
7.76664 9.21693 -18.0063
7.63858 9.27867 -18.01
16.5944 -4.42617 -17.7919
16.5776 -4.27572 -17.7909
16.5607 -4.12527 -17.7898
16.5439 -3.97482 -17.7888
16.4646 -3.90488 -17.7901
16.4477 -3.75443 -17.7891
16.3684 -3.68449 -17.7905
16.3516 -3.53404 -17.7894
16.2723 -3.4641 -17.7908
16.2554 -3.31365 -17.7897
16.1761 -3.2437 -17.7911
16.1592 -3.09326 -17.79
16.0799 -3.02332 -17.7914
16.0006 -2.95337 -17.7928
15.9213 -2.88343 -17.7941
15.7795 -2.89399 -17.7979
15.7002 -2.82405 -17.7993
15.5584 -2.83461 -17.8031
15.4791 -2.76467 -17.8044
15.3373 -2.77523 -17.8082
15.258 -2.70528 -17.8096
15.1162 -2.71585 -17.8134
15.0369 -2.6459 -17.8147
14.8951 -2.65646 -17.8185
14.8158 -2.58652 -17.8199
14.7365 -2.51658 -17.8213
14.6572 -2.44663 -17.8226
14.5779 -2.37669 -17.824
14.4986 -2.30675 -17.8254
14.4192 -2.2368 -17.8267
14.3399 -2.16686 -17.8281
14.2606 -2.09692 -17.8295
14.2438 -1.94647 -17.8284
14.1645 -1.87653 -17.8298
14.0851 -1.80658 -17.8311
13.9434 -1.81714 -17.8349
13.864 -1.7472 -17.8363
13.7847 -1.67726 -17.8376
13.7679 -1.52681 -17.8366
13.751 -1.37636 -17.8355
13.7966 -1.14541 -17.8321
13.7798 -0.994965 -17.831
13.7629 -0.844516 -17.8299
13.6836 -0.774573 -17.8313
13.6043 -0.704628 -17.8327
13.525 -0.634688 -17.834
13.5082 -0.484236 -17.833
13.4913 -0.333791 -17.8319
13.412 -0.263847 -17.8333
13.3951 -0.113397 -17.8322
13.3158 -0.0434551 -17.8336
13.2365 0.0264883 -17.835
13.1572 0.0964322 -17.8363
13.0154 0.0858684 -17.8401
12.8736 0.0753107 -17.8439
12.7676 1.66029 -17.8309
12.7508 1.81074 -17.8299
12.7339 1.96119 -17.8288
12.7171 2.11164 -17.8277
12.8251 2.42309 -17.8218
12.8083 2.57354 -17.8208
12.7914 2.72399 -17.8197
12.7121 2.79393 -17.8211
12.6953 2.94438 -17.82
12.616 3.01432 -17.8214
12.5366 3.08426 -17.8228
12.3949 3.0737 -17.8266
12.3156 3.14365 -17.8279
12.2987 3.2941 -17.8269
12.2194 3.36404 -17.8282
12.3275 3.6755 -17.8223
12.3106 3.82595 -17.8213
12.2313 3.89589 -17.8226
12.2145 4.04633 -17.8216
12.1976 4.19678 -17.8205
12.2432 4.42774 -17.817
12.2888 4.65869 -17.8136
12.3345 4.88964 -17.8101
12.3176 5.04009 -17.809
12.3008 5.19054 -17.808
12.2214 5.26048 -17.8093
12.2046 5.41093 -17.8083
12.1253 5.48087 -17.8096
12.1084 5.63132 -17.8086
12.0916 5.78177 -17.8075
12.1372 6.01272 -17.804
12.1828 6.24368 -17.8006
12.166 6.39412 -17.7995
12.1491 6.54457 -17.7985
12.1323 6.69502 -17.7974
12.1154 6.84546 -17.7963
12.0986 6.99591 -17.7953
12.0817 7.14636 -17.7942
12.0024 7.2163 -17.7956
11.9856 7.36675 -17.7945
11.9062 7.43669 -17.7959
11.8269 7.50664 -17.7973
11.7476 7.57658 -17.7986
11.7308 7.72703 -17.7976
11.6514 7.79697 -17.7989
11.6346 7.94742 -17.7979
11.5553 8.01736 -17.7993
11.5384 8.16781 -17.7982
11.4591 8.23775 -17.7996
11.3798 8.3077 -17.8009
11.238 8.29714 -17.8047
11.1587 8.36708 -17.8061
11.0794 8.43702 -17.8074
11.0001 8.50696 -17.8088
10.9208 8.57691 -17.8102
10.8414 8.64685 -17.8115
10.7621 8.7168 -17.8129
10.6204 8.70623 -17.8167
10.541 8.77618 -17.8181
10.4617 8.84612 -17.8194
10.3824 8.91606 -17.8208
10.2406 8.9055 -17.8246
10.1613 8.97544 -17.826
10.082 9.04539 -17.8273
10.0027 9.11533 -17.8287
9.92337 9.18527 -17.83
9.84405 9.25522 -17.8314
9.76474 9.32516 -17.8328
9.62296 9.3146 -17.8366
9.54365 9.38454 -17.8379
9.46433 9.45449 -17.8393
9.32255 9.44393 -17.8431
9.24324 9.51387 -17.8445
9.10145 9.5033 -17.8483
8.95968 9.49275 -17.852
8.88036 9.56269 -17.8534
8.80104 9.63263 -17.8548
8.65926 9.62207 -17.8586
8.57995 9.69201 -17.8599
8.43817 9.68145 -17.8637
8.23392 9.59039 -17.8699
8.09214 9.57982 -17.8737
8.01283 9.64976 -17.8751
7.93351 9.71971 -17.8764
7.8542 9.78965 -17.8778
7.77489 9.8596 -17.8792
7.69557 9.92954 -17.8805
7.61625 9.99948 -17.8819
7.47447 9.98892 -17.8857
7.33269 9.97836 -17.8895
7.19091 9.9678 -17.8933
7.04913 9.95723 -17.8971
6.90735 9.94667 -17.9009
6.82804 10.0166 -17.9022
6.68626 10.0061 -17.906
6.54447 9.99549 -17.9098
6.4027 9.98493 -17.9136
6.26092 9.97437 -17.9174
6.11914 9.96381 -17.9212
5.97736 9.95325 -17.925
5.89804 10.0232 -17.9263
5.75626 10.0126 -17.9301
5.61448 10.0021 -17.9339
5.4727 9.9915 -17.9377
5.33092 9.98094 -17.9415
5.18914 9.97038 -17.9453
5.04736 9.95982 -17.9491
4.90558 9.94926 -17.9529
4.7638 9.9387 -17.9566
4.55956 9.84763 -17.9628
4.41777 9.83707 -17.9666
4.21353 9.746 -17.9729
3.88435 9.49393 -17.9839
3.6801 9.40286 -17.9901
3.53832 9.3923 -17.9939
3.39654 9.38173 -17.9977
11.5539 8.17639 -17.8
11.4779 8.39921 -17.7965
11.3881 8.52107 -17.7954
11.2845 8.54199 -17.7968
11.1946 8.66386 -17.7958
11.1187 8.88668 -17.7923
11.0289 9.00854 -17.7912
10.9252 9.02946 -17.7926
10.8354 9.15132 -17.7915
10.7317 9.17224 -17.7929
10.6281 9.19315 -17.7943
10.5382 9.31502 -17.7932
10.4346 9.33593 -17.7946
10.3171 9.25589 -17.7984
10.2134 9.27681 -17.7997
10.1098 9.29773 -17.8011
10.0199 9.4196 -17.8
9.91628 9.44051 -17.8014
9.82647 9.56238 -17.8003
9.72281 9.58329 -17.8017
9.61915 9.60421 -17.8031
9.52933 9.72608 -17.802
9.42567 9.74699 -17.8034
9.32201 9.76791 -17.8047
9.21835 9.78882 -17.8061
9.11469 9.80974 -17.8075
9.01103 9.83065 -17.8089
8.90737 9.85157 -17.8102
8.80371 9.87248 -17.8116
8.70005 9.8934 -17.8129
8.61024 10.0153 -17.8119
8.50657 10.0362 -17.8132
8.40291 10.0571 -17.8146
8.29925 10.078 -17.816
8.19559 10.0989 -17.8174
8.09193 10.1198 -17.8187
7.98827 10.1408 -17.8201
7.88461 10.1617 -17.8215
7.78095 10.1826 -17.8228
7.67729 10.2035 -17.8242
7.57363 10.2244 -17.8255
7.46997 10.2453 -17.8269
7.38016 10.3672 -17.8259
7.2765 10.3881 -17.8272
7.17284 10.409 -17.8286
7.05533 10.329 -17.8324
6.95167 10.3499 -17.8337
6.84801 10.3708 -17.8351
6.74435 10.3917 -17.8365
6.64069 10.4127 -17.8378
6.53703 10.4336 -17.8392
6.43337 10.4545 -17.8406
6.32971 10.4754 -17.8419
6.22605 10.4963 -17.8433
6.12239 10.5172 -17.8447
6.00489 10.4372 -17.8485
5.90123 10.4581 -17.8498
5.79757 10.479 -17.8512
5.69391 10.4999 -17.8526
5.59025 10.5209 -17.8539
5.47274 10.4408 -17.8577
5.36908 10.4617 -17.8591
5.26542 10.4826 -17.8604
5.16176 10.5036 -17.8618
5.04426 10.4235 -17.8656
4.9406 10.4444 -17.867
4.82309 10.3644 -17.8708
4.70559 10.2844 -17.8745
4.60193 10.3053 -17.8759
4.49827 10.3262 -17.8773
4.38076 10.2462 -17.8811
4.2771 10.2671 -17.8824
4.17344 10.288 -17.8838
4.06978 10.3089 -17.8852
3.96612 10.3298 -17.8865
3.84862 10.2498 -17.8903
3.74496 10.2707 -17.8917
3.62745 10.1907 -17.8955
3.50995 10.1106 -17.8993
3.3786 9.92963 -17.9055
3.26109 9.8496 -17.9093
3.17128 9.97146 -17.9082
3.06762 9.99238 -17.9096
2.96396 10.0133 -17.9109
2.84645 9.93326 -17.9147
2.74279 9.95417 -17.9161
2.62529 9.87414 -17.9199
2.49394 9.69315 -17.9261
2.37644 9.61311 -17.9299
2.25893 9.53307 -17.9337
2.14143 9.45303 -17.9375
2.02392 9.373 -17.9413
1.92026 9.39392 -17.9426
1.80276 9.31388 -17.9464
1.6991 9.33479 -17.9478
1.58159 9.25476 -17.9516
1.47793 9.27567 -17.9529
1.37427 9.29659 -17.9543
1.25677 9.21655 -17.9581
1.12542 9.03556 -17.9643
0.99407 8.85457 -17.9705
0.890411 8.87549 -17.9719
0.772906 8.79545 -17.9757
0.669246 8.81637 -17.977
0.551742 8.73633 -17.9808
0.448081 8.75724 -17.9822
0.233666 7.97055 -18.0029
0.130004 7.99146 -18.0043
0.0125028 7.91142 -18.0081
-0.105003 7.83138 -18.0119
9.63905 9.6033 -17.8731
9.50033 9.66393 -17.872
9.4001 9.63022 -17.8734
9.26138 9.69086 -17.8723
9.16115 9.65714 -17.8737
9.06092 9.62342 -17.8751
8.92221 9.68405 -17.874
8.82198 9.65033 -17.8754
8.68326 9.71097 -17.8743
8.46757 9.96029 -17.8684
8.29037 10.1153 -17.8649
8.15165 10.1759 -17.8639
7.97445 10.3309 -17.8604
7.87422 10.2972 -17.8618
7.73551 10.3578 -17.8607
7.59679 10.4184 -17.8596
7.45807 10.4791 -17.8586
7.31936 10.5397 -17.8575
7.18064 10.6003 -17.8565
7.04192 10.661 -17.8554
6.94169 10.6272 -17.8568
6.80298 10.6879 -17.8557
6.70275 10.6542 -17.8571
6.60252 10.6204 -17.8584
6.50229 10.5867 -17.8598
6.40206 10.553 -17.8612
6.30183 10.5193 -17.8625
6.2016 10.4856 -17.8639
6.06288 10.5462 -17.8629
5.96265 10.5125 -17.8642
5.82394 10.5731 -17.8632
5.7237 10.5394 -17.8645
5.58499 10.6 -17.8635
5.48476 10.5663 -17.8648
5.34604 10.627 -17.8638
5.24581 10.5932 -17.8651
5.14558 10.5595 -17.8665
5.04535 10.5258 -17.8679
4.94512 10.4921 -17.8692
4.84489 10.4584 -17.8706
4.74466 10.4247 -17.872
4.60595 10.4853 -17.8709
4.50572 10.4516 -17.8723
4.40549 10.4178 -17.8737
4.30526 10.3841 -17.875
4.20503 10.3504 -17.8764
4.1048 10.3167 -17.8777
4.00457 10.283 -17.8791
3.90434 10.2493 -17.8805
3.76562 10.3099 -17.8794
3.66539 10.2762 -17.8808
3.56516 10.2425 -17.8822
3.42645 10.3031 -17.8811
3.32622 10.2694 -17.8825
3.22599 10.2357 -17.8838
3.12576 10.2019 -17.8852
3.02553 10.1682 -17.8866
2.88681 10.2289 -17.8855
2.78658 10.1951 -17.8869
2.68635 10.1614 -17.8882
2.58612 10.1277 -17.8896
2.48589 10.094 -17.891
2.38566 10.0603 -17.8923
2.32392 9.93221 -17.8961
2.22369 9.89849 -17.8975
2.12346 9.86477 -17.8989
2.02323 9.83105 -17.9002
1.923 9.79734 -17.9016
1.82277 9.76362 -17.903
1.72254 9.72991 -17.9043
1.62231 9.69619 -17.9057
1.52208 9.66247 -17.9071
1.42185 9.62875 -17.9084
1.32162 9.59504 -17.9098
1.25987 9.46698 -17.9136
1.15964 9.43326 -17.9149
1.05941 9.39954 -17.9163
0.959183 9.36582 -17.9177
0.858952 9.33211 -17.919
0.758723 9.29839 -17.9204
0.658493 9.26468 -17.9218
0.596751 9.1366 -17.9256
0.496521 9.10289 -17.9269
0.396291 9.06917 -17.9283
0.296061 9.03545 -17.9297
0.234318 8.90739 -17.9335
0.134088 8.87367 -17.9348
0.0338573 8.83995 -17.9362
-0.0663731 8.80624 -17.9375
-0.128118 8.67818 -17.9413
-0.228347 8.64446 -17.9427
-0.290089 8.51639 -17.9465
-0.390319 8.48267 -17.9479
-0.452063 8.35461 -17.9516
-0.552294 8.32089 -17.953
-0.614037 8.19282 -17.9568
-0.675781 8.06476 -17.9606
-0.77601 8.03104 -17.962
-0.837754 7.90298 -17.9657
-0.899497 7.77491 -17.9695
4.60712 11.1106 -17.9362
4.45667 11.0938 -17.9352
4.30622 11.0769 -17.9341
4.15578 11.0601 -17.9331
4.00533 11.0432 -17.932
3.85488 11.0264 -17.931
3.78494 10.9471 -17.9323
3.71499 10.8677 -17.9337
3.56455 10.8509 -17.9326
3.4946 10.7716 -17.934
3.34416 10.7547 -17.933
3.19371 10.7379 -17.9319
3.12376 10.6586 -17.9333
2.97332 10.6417 -17.9322
2.90337 10.5624 -17.9336
2.75293 10.5455 -17.9325
2.68298 10.4662 -17.9339
2.53254 10.4494 -17.9328
2.46259 10.3701 -17.9342
2.31214 10.3532 -17.9331
1.83968 10.5862 -17.9224
1.68923 10.5694 -17.9213
1.61928 10.4901 -17.9227
1.46884 10.4732 -17.9216
1.3989 10.3939 -17.923
1.16794 10.4395 -17.9195
1.0175 10.4227 -17.9185
0.947552 10.3434 -17.9198
0.877608 10.264 -17.9212
0.72716 10.2472 -17.9201
0.657216 10.1679 -17.9215
0.587272 10.0886 -17.9229
0.517328 10.0093 -17.9242
0.447384 9.92994 -17.9256
0.377444 9.85062 -17.927
0.226999 9.83377 -17.9259
0.157055 9.75446 -17.9273
0.087111 9.67514 -17.9286
0.01717 9.59583 -17.93
-0.13328 9.57898 -17.9289
-0.203224 9.49967 -17.9303
-0.273169 9.42035 -17.9317
-0.343112 9.34104 -17.933
-0.413053 9.26172 -17.9344
-0.482996 9.18241 -17.9358
-0.633445 9.16556 -17.9347
-0.703389 9.08624 -17.9361
-0.773333 9.00693 -17.9375
-0.843273 8.92761 -17.9388
-0.993718 8.91076 -17.9378
-1.06366 8.83145 -17.9391
-1.13361 8.75213 -17.9405
-1.20355 8.67282 -17.9419
-1.27349 8.5935 -17.9432
-1.26293 8.45173 -17.947
-1.33288 8.37241 -17.9484
-1.48332 8.35556 -17.9473
-1.55326 8.27624 -17.9487
-1.62321 8.19693 -17.9501
-1.69315 8.11761 -17.9514
-1.76309 8.0383 -17.9528
-1.83304 7.95899 -17.9541
-1.90298 7.87967 -17.9555
-1.97292 7.80036 -17.9569
-2.04287 7.72104 -17.9583
-2.11281 7.64173 -17.9596
-2.18275 7.56241 -17.961
-2.3332 7.54557 -17.9599
-2.40315 7.46625 -17.9613
-2.47309 7.38694 -17.9627
-2.54303 7.30762 -17.964
-2.61298 7.22831 -17.9654
-2.68292 7.14899 -17.9668
-2.67235 7.00721 -17.9706
-2.7423 6.9279 -17.9719
-2.81224 6.84858 -17.9733
-2.88218 6.76927 -17.9746
-2.95213 6.68995 -17.976
-3.02207 6.61064 -17.9774
-3.09201 6.53132 -17.9787
-3.16196 6.45201 -17.9801
-3.2319 6.37269 -17.9815
-3.30184 6.29338 -17.9828
-3.37179 6.21406 -17.9842
-3.44173 6.13475 -17.9856
-3.51167 6.05543 -17.9869
-3.50111 5.91365 -17.9907
-3.57106 5.83434 -17.9921
-3.641 5.75503 -17.9935
-3.71094 5.67571 -17.9948
-3.78089 5.5964 -17.9962
-3.77032 5.45462 -18
-3.84027 5.3753 -18.0013
-3.91021 5.29599 -18.0027
-3.98016 5.21667 -18.0041
-4.0501 5.13736 -18.0054
-4.03953 4.99558 -18.0092
-4.18998 4.97873 -18.0082
-4.25993 4.89942 -18.0095
-4.32987 4.8201 -18.0109
-4.39981 4.74078 -18.0123
-4.46976 4.66147 -18.0136
-4.5397 4.58216 -18.015
-4.60964 4.50284 -18.0164
-4.67959 4.42353 -18.0177
-4.74953 4.34421 -18.0191
-4.81947 4.2649 -18.0205
-4.80891 4.12312 -18.0243
-4.87885 4.0438 -18.0256
-4.9488 3.96449 -18.027
-5.01874 3.88517 -18.0284
-5.00818 3.74339 -18.0322
-5.07812 3.66408 -18.0335
-5.14807 3.58476 -18.0349
-5.21801 3.50545 -18.0362
-5.20744 3.36367 -18.04
-5.19688 3.22189 -18.0438
-3.54067 6.76357 -17.9841
-3.56159 6.65991 -17.9855
-3.68345 6.57009 -17.9844
-3.70437 6.46643 -17.9858
-3.72529 6.36277 -17.9872
-3.7462 6.25911 -17.9885
-3.86806 6.16929 -17.9875
-3.98994 6.07948 -17.9864
-4.01085 5.97582 -17.9878
-4.03177 5.87216 -17.9891
-4.15364 5.78234 -17.9881
-4.17455 5.67868 -17.9894
-4.19546 5.57502 -17.9908
-4.21638 5.47136 -17.9922
-4.2373 5.3677 -17.9935
-4.35916 5.27789 -17.9925
-4.38007 5.17423 -17.9939
-4.50194 5.08441 -17.9928
-4.52286 4.98075 -17.9942
-4.64473 4.89094 -17.9931
-4.66564 4.78728 -17.9945
-4.78751 4.69746 -17.9934
-4.90937 4.60764 -17.9924
-5.03124 4.51783 -17.9913
-5.15311 4.42801 -17.9902
-5.17402 4.32435 -17.9916
-5.29589 4.23454 -17.9906
-5.3168 4.13088 -17.9919
-5.43867 4.04106 -17.9909
-5.45959 3.9374 -17.9922
-5.4805 3.83374 -17.9936
-5.60237 3.74392 -17.9925
-5.62329 3.64026 -17.9939
-5.74515 3.55045 -17.9928
-5.76607 3.44679 -17.9942
-5.88793 3.35697 -17.9931
-5.90885 3.25331 -17.9945
-5.92977 3.14965 -17.9959
-5.95068 3.04599 -17.9973
-6.07255 2.95618 -17.9962
-6.09346 2.85251 -17.9976
-6.11438 2.74885 -17.9989
-6.13529 2.6452 -18.0003
-6.15621 2.54153 -18.0016
-6.17712 2.43787 -18.003
-6.19804 2.33421 -18.0044
-6.118 2.21671 -18.0082
-6.03796 2.0992 -18.012
-5.95793 1.9817 -18.0157
-5.97884 1.87804 -18.0171
-5.99976 1.77438 -18.0185
-5.91972 1.65688 -18.0223
-6.04159 1.56706 -18.0212
-6.06251 1.4634 -18.0226
-6.08342 1.35974 -18.024
-6.10433 1.25608 -18.0253
-6.12525 1.15242 -18.0267
-6.14617 1.04876 -18.028
-6.16708 0.945099 -18.0294
-6.18799 0.841438 -18.0308
-6.20891 0.737779 -18.0322
-6.22983 0.634117 -18.0335
-6.25074 0.530458 -18.0349
-6.1707 0.412954 -18.0387
-6.19161 0.309294 -18.04
-6.11158 0.191791 -18.0438
-6.13249 0.0881292 -18.0452
-6.15341 -0.0155303 -18.0466
-6.07337 -0.133038 -18.0503
-6.09429 -0.236696 -18.0517
-6.1152 -0.340357 -18.0531
-6.03517 -0.45786 -18.0569
-6.05608 -0.56152 -18.0582
-6.077 -0.665182 -18.0596
-6.09791 -0.768842 -18.061
-6.01788 -0.886345 -18.0648
-5.73594 -1.03154 -18.0734
-5.6559 -1.14904 -18.0772
-5.57586 -1.26655 -18.081
-5.59678 -1.37021 -18.0823
-5.61769 -1.47387 -18.0837
-5.53766 -1.59137 -18.0875
-5.55857 -1.69503 -18.0889
-5.57949 -1.79869 -18.0902
-5.6004 -1.90235 -18.0916
-5.52036 -2.01986 -18.0954
-5.23842 -2.16505 -18.104
-5.15838 -2.28256 -18.1078
-5.07835 -2.40006 -18.1116
-4.99831 -2.51756 -18.1154
-4.91828 -2.63507 -18.1192
-4.93919 -2.73873 -18.1205
-4.85915 -2.85623 -18.1243
-4.88007 -2.95989 -18.1257
-4.90098 -3.06355 -18.1271
-4.82095 -3.18106 -18.1308
-6.6297 2.07529 -17.9879
-6.59598 1.97506 -17.9893
-6.65662 1.83634 -17.9883
-6.71725 1.69763 -17.9872
-6.77788 1.55891 -17.9861
-6.74416 1.45868 -17.9875
-6.80479 1.31996 -17.9865
-6.77108 1.21973 -17.9878
-6.83171 1.08102 -17.9868
-6.79799 0.980789 -17.9881
-6.76427 0.880558 -17.9895
-6.82491 0.741839 -17.9884
-6.79119 0.64161 -17.9898
-6.75747 0.541381 -17.9912
-6.8181 0.402666 -17.9901
-6.78439 0.302436 -17.9915
-6.75067 0.202206 -17.9928
-6.81131 0.0634875 -17.9918
-6.77759 -0.0367408 -17.9931
-6.74387 -0.136971 -17.9945
-6.71015 -0.237201 -17.9959
-6.67644 -0.337431 -17.9973
-6.64272 -0.437662 -17.9986
-6.70335 -0.576377 -17.9976
-6.66963 -0.676609 -17.9989
-6.63592 -0.776837 -18.0003
-6.50785 -0.838582 -18.0041
-6.47414 -0.938812 -18.0054
-6.44042 -1.03904 -18.0068
-6.4067 -1.13927 -18.0082
-6.37298 -1.2395 -18.0095
-6.33927 -1.33973 -18.0109
-6.3999 -1.47845 -18.0099
-6.36618 -1.57868 -18.0112
-6.33246 -1.67891 -18.0126
-6.29875 -1.77914 -18.0139
-6.26503 -1.87937 -18.0153
-6.23131 -1.9796 -18.0167
-6.1976 -2.07983 -18.0181
-6.16388 -2.18006 -18.0194
-6.13016 -2.28029 -18.0208
-6.09645 -2.38052 -18.0221
-5.96838 -2.44226 -18.0259
-5.93466 -2.54249 -18.0273
-5.90095 -2.64272 -18.0287
-5.86723 -2.74295 -18.03
-5.83351 -2.84318 -18.0314
-5.70544 -2.90492 -18.0352
-5.67173 -3.00515 -18.0366
-5.63801 -3.10538 -18.0379
-5.60429 -3.20561 -18.0393
-5.57057 -3.30584 -18.0406
-5.53686 -3.40607 -18.042
-5.50314 -3.5063 -18.0434
-5.37508 -3.56805 -18.0472
-5.34136 -3.66828 -18.0485
-5.30764 -3.76851 -18.0499
-5.27393 -3.86874 -18.0513
-5.24021 -3.96897 -18.0526
-5.20649 -4.0692 -18.054
-5.17278 -4.16943 -18.0554
-5.13906 -4.26966 -18.0567
-5.01099 -4.3314 -18.0605
-4.97727 -4.43163 -18.0619
-4.84921 -4.49337 -18.0657
-4.81549 -4.5936 -18.067
-4.78177 -4.69383 -18.0684
-4.74806 -4.79406 -18.0698
-4.61999 -4.85581 -18.0736
-4.58627 -4.95604 -18.0749
-4.55255 -5.05626 -18.0763
-4.51884 -5.15649 -18.0777
-4.48512 -5.25672 -18.079
-4.45141 -5.35696 -18.0804
-4.41769 -5.45719 -18.0818
-4.28962 -5.51893 -18.0856
-4.2559 -5.61916 -18.0869
-4.22219 -5.71939 -18.0883
-4.18847 -5.81962 -18.0896
-4.06041 -5.88136 -18.0934
-4.02669 -5.98159 -18.0948
-3.99297 -6.08182 -18.0962
-3.86491 -6.14357 -18.1
-3.83119 -6.2438 -18.1013
-3.79747 -6.34403 -18.1027
-3.6694 -6.40577 -18.1065
-3.63569 -6.506 -18.1078
-3.60197 -6.60623 -18.1092
-3.56826 -6.70646 -18.1106
-3.53454 -6.80669 -18.1119
-3.50082 -6.90692 -18.1133
-3.37276 -6.96866 -18.1171
-3.33904 -7.06889 -18.1185
-3.30532 -7.16912 -18.1198
-3.17725 -7.23086 -18.1236
-3.14353 -7.3311 -18.125
-3.10982 -7.43132 -18.1264
-3.0761 -7.53155 -18.1277
-3.04238 -7.63178 -18.1291
-3.00867 -7.73201 -18.1304
-2.8806 -7.79376 -18.1342
-2.84689 -7.89399 -18.1356
-2.81317 -7.99422 -18.137
-2.77946 -8.09445 -18.1383
-2.74574 -8.19468 -18.1397
-2.61767 -8.25642 -18.1435
-2.58395 -8.35665 -18.1449
-2.55024 -8.45688 -18.1462
-2.42217 -8.51863 -18.15
-2.38845 -8.61885 -18.1514
-2.35473 -8.71908 -18.1527
-2.32102 -8.81931 -18.1541
-2.19295 -8.88106 -18.1579
-2.15923 -8.98129 -18.1593
-2.12552 -9.08152 -18.1606
-1.99745 -9.14326 -18.1644
-1.86939 -9.205 -18.1682
-1.26958 -9.07432 -18.1841
-1.23586 -9.17455 -18.1855
-1.20214 -9.27478 -18.1868
-1.16842 -9.37501 -18.1882
-1.13471 -9.47524 -18.1896
-1.10099 -9.57547 -18.1909
-1.06727 -9.6757 -18.1923
-0.939204 -9.73744 -18.1961
-0.905487 -9.83767 -18.1975
-0.777422 -9.89941 -18.2013
-0.64936 -9.96116 -18.205
-0.42694 -9.98441 -18.2113
-0.298875 -10.0462 -18.215
-0.17081 -10.1079 -18.2188
0.0516078 -10.1312 -18.2251
0.179673 -10.1929 -18.2288
0.213389 -10.2931 -18.2302
0.341457 -10.3549 -18.234
0.375174 -10.4551 -18.2354
0.503239 -10.5168 -18.2392
0.536959 -10.6171 -18.2405
0.66502 -10.6788 -18.2443
0.793089 -10.7406 -18.2481
0.826805 -10.8408 -18.2495
