ply
format ascii 1.0
comment VCGLIB generated
element vertex 1201
property float x
property float y
property float z
element face 0
property list uchar int vertex_indices
end_header
4.1902 -13.1276 -16.7964
4.82368 -13.4855 -16.7808
5.05463 -13.5312 -16.7773
5.20507 -13.5143 -16.7763
5.35552 -13.4975 -16.7752
5.82799 -13.7305 -16.7645
5.97844 -13.7136 -16.7634
6.04838 -13.6343 -16.7648
6.19883 -13.6175 -16.7637
6.42978 -13.6631 -16.7603
6.58023 -13.6462 -16.7592
6.73068 -13.6294 -16.7581
6.80062 -13.5501 -16.7595
6.95107 -13.5332 -16.7585
7.02101 -13.4539 -16.7598
7.09095 -13.3746 -16.7612
7.1609 -13.2953 -16.7625
7.31134 -13.2784 -16.7615
7.46179 -13.2616 -16.7604
7.53174 -13.1823 -16.7618
7.68219 -13.1654 -16.7607
7.75213 -13.0861 -16.7621
7.82207 -13.0068 -16.7635
7.97252 -12.9899 -16.7624
8.04246 -12.9106 -16.7638
8.11241 -12.8313 -16.7652
8.18235 -12.752 -16.7665
8.25229 -12.6727 -16.7679
8.32223 -12.5934 -16.7692
8.39218 -12.514 -16.7706
8.46212 -12.4347 -16.772
8.53206 -12.3554 -16.7733
8.68251 -12.3386 -16.7723
8.75246 -12.2592 -16.7737
8.8224 -12.1799 -16.775
8.89234 -12.1006 -16.7764
8.96228 -12.0213 -16.7778
9.03223 -11.942 -16.7791
9.10217 -11.8627 -16.7805
9.17212 -11.7834 -16.7818
9.32256 -11.7665 -16.7808
9.3925 -11.6872 -16.7822
9.54295 -11.6703 -16.7811
9.6129 -11.591 -16.7825
9.68284 -11.5117 -16.7838
9.75278 -11.4324 -16.7852
9.82272 -11.3531 -16.7866
9.97317 -11.3362 -16.7855
10.0431 -11.2569 -16.7869
10.1131 -11.1776 -16.7882
10.183 -11.0983 -16.7896
10.3335 -11.0814 -16.7885
10.4034 -11.0021 -16.7899
10.4733 -10.9228 -16.7913
10.5433 -10.8435 -16.7926
10.6132 -10.7642 -16.794
10.7637 -10.7473 -16.793
10.8336 -10.668 -16.7943
10.9036 -10.5887 -16.7957
11.1345 -10.6343 -16.7922
11.285 -10.6175 -16.7912
11.3549 -10.5382 -16.7925
11.4248 -10.4588 -16.7939
11.4948 -10.3795 -16.7952
11.5647 -10.3002 -16.7966
11.7152 -10.2834 -16.7956
11.7851 -10.2041 -16.7969
11.8551 -10.1247 -16.7983
12.0055 -10.1079 -16.7972
12.156 -10.091 -16.7962
12.2259 -10.0117 -16.7975
12.3764 -9.99488 -16.7965
12.4463 -9.91556 -16.7979
12.5162 -9.83625 -16.7992
12.5862 -9.75693 -16.8006
12.7366 -9.74008 -16.7995
12.8066 -9.66077 -16.8009
12.8765 -9.58145 -16.8023
12.9465 -9.50214 -16.8036
13.0969 -9.48529 -16.8026
13.1668 -9.40598 -16.8039
13.2368 -9.32666 -16.8053
13.3872 -9.30981 -16.8042
13.4572 -9.23049 -16.8056
13.5271 -9.15118 -16.807
13.5971 -9.07187 -16.8083
13.667 -8.99255 -16.8097
13.737 -8.91324 -16.8111
13.8874 -8.89639 -16.81
14.0379 -8.87954 -16.809
14.1078 -8.80023 -16.8103
14.2582 -8.78338 -16.8093
14.3282 -8.70406 -16.8106
14.3981 -8.62475 -16.812
14.4681 -8.54543 -16.8134
14.538 -8.46612 -16.8147
14.6885 -8.44927 -16.8137
14.7584 -8.36995 -16.815
14.8283 -8.29064 -16.8164
14.8983 -8.21132 -16.8178
15.0487 -8.19448 -16.8167
15.1187 -8.11516 -16.8181
15.1886 -8.03585 -16.8194
15.2586 -7.95653 -16.8208
15.3285 -7.87722 -16.8222
15.3985 -7.7979 -16.8235
15.4684 -7.71859 -16.8249
15.4578 -7.5768 -16.8287
15.5278 -7.49749 -16.8301
15.5977 -7.41818 -16.8314
15.5872 -7.2764 -16.8352
15.6571 -7.19708 -16.8366
15.727 -7.11777 -16.838
15.7165 -6.97599 -16.8417
15.7864 -6.89667 -16.8431
15.8564 -6.81736 -16.8445
15.8458 -6.67558 -16.8483
15.9158 -6.59626 -16.8496
15.9857 -6.51695 -16.851
16.0556 -6.43763 -16.8524
16.0451 -6.29585 -16.8562
16.115 -6.21654 -16.8575
16.1045 -6.07476 -16.8613
16.0134 -5.87051 -16.8675
16.0028 -5.72873 -16.8713
15.8313 -5.46202 -16.8799
15.8207 -5.32024 -16.8837
15.8101 -5.17846 -16.8875
15.7996 -5.03668 -16.8913
15.789 -4.8949 -16.8951
7.29515 -13.3506 -16.7875
7.41702 -13.2608 -16.7865
7.63984 -13.1848 -16.783
7.86266 -13.1088 -16.7795
7.98453 -13.019 -16.7784
8.20735 -12.943 -16.775
8.43016 -12.8671 -16.7715
8.45108 -12.7634 -16.7728
8.47199 -12.6597 -16.7742
8.59386 -12.5699 -16.7731
8.61478 -12.4663 -16.7745
8.73664 -12.3764 -16.7735
8.85851 -12.2866 -16.7724
8.87942 -12.183 -16.7738
9.00129 -12.0931 -16.7727
9.12316 -12.0033 -16.7717
9.24503 -11.9135 -16.7706
9.36689 -11.8237 -16.7695
9.48876 -11.7339 -16.7685
9.50968 -11.6302 -16.7699
9.53059 -11.5266 -16.7712
9.65246 -11.4367 -16.7702
9.77432 -11.3469 -16.7691
10.0981 -11.2848 -16.7632
10.22 -11.195 -16.7621
10.2409 -11.0913 -16.7635
10.3627 -11.0015 -16.7625
10.4846 -10.9117 -16.7614
10.7074 -10.8357 -16.7579
10.9303 -10.7598 -16.7544
11.0521 -10.6699 -16.7534
11.174 -10.5801 -16.7523
11.2958 -10.4903 -16.7513
11.4177 -10.4005 -16.7502
11.6405 -10.3245 -16.7467
11.7624 -10.2347 -16.7457
12.0862 -10.1726 -16.7398
12.208 -10.0828 -16.7387
12.3299 -9.99294 -16.7377
12.4518 -9.90313 -16.7366
12.5736 -9.81331 -16.7355
12.5946 -9.70965 -16.7369
12.7164 -9.61984 -16.7358
12.8383 -9.53002 -16.7348
13.0611 -9.45405 -16.7313
13.183 -9.36423 -16.7303
13.3048 -9.27442 -16.7292
13.3258 -9.17076 -16.7306
13.3467 -9.0671 -16.7319
13.4685 -8.97728 -16.7309
13.5904 -8.88747 -16.7298
13.7123 -8.79765 -16.7288
13.8341 -8.70783 -16.7277
13.956 -8.61802 -16.7266
14.0779 -8.5282 -16.7256
14.0988 -8.42454 -16.7269
14.2207 -8.33473 -16.7259
14.4435 -8.25875 -16.7224
14.4644 -8.1551 -16.7238
14.5863 -8.06528 -16.7227
14.7081 -7.97546 -16.7217
14.83 -7.88565 -16.7206
15.0528 -7.80968 -16.7171
15.3766 -7.74755 -16.7112
15.4985 -7.65773 -16.7102
15.5194 -7.55407 -16.7115
15.6412 -7.46426 -16.7105
15.6622 -7.3606 -16.7118
15.6831 -7.25694 -16.7132
15.704 -7.15328 -16.7146
15.7249 -7.04962 -16.7159
15.8468 -6.9598 -16.7149
15.8677 -6.85614 -16.7162
15.8886 -6.75248 -16.7176
16.0105 -6.66266 -16.7166
16.0314 -6.559 -16.7179
16.0523 -6.45534 -16.7193
16.1742 -6.36553 -16.7182
16.1951 -6.26187 -16.7196
16.216 -6.15821 -16.721
16.2369 -6.05455 -16.7223
16.2578 -5.95089 -16.7237
16.2787 -5.84723 -16.7251
16.2996 -5.74357 -16.7264
16.3206 -5.63991 -16.7278
16.3415 -5.53625 -16.7292
16.3624 -5.43259 -16.7305
16.2824 -5.31508 -16.7343
16.2023 -5.19758 -16.7381
16.1223 -5.08007 -16.7419
16.0422 -4.96257 -16.7457
16.0632 -4.85891 -16.7471
16.0841 -4.75525 -16.7484
16.105 -4.65159 -16.7498
16.1259 -4.54793 -16.7511
16.1468 -4.44427 -16.7525
16.0668 -4.32676 -16.7563
15.9867 -4.20926 -16.7601
14.3924 -3.88409 -16.8002
14.3124 -3.76659 -16.804
14.1314 -3.63524 -16.8102
14.0514 -3.51773 -16.814
13.9713 -3.40023 -16.8178
13.9923 -3.29657 -16.8192
13.9122 -3.17906 -16.823
13.9331 -3.0754 -16.8243
13.8531 -2.9579 -16.8281
13.7731 -2.84039 -16.8319
13.794 -2.73673 -16.8333
13.7139 -2.61923 -16.8371
13.7348 -2.51557 -16.8384
13.6548 -2.39806 -16.8422
13.6757 -2.2944 -16.8436
13.5957 -2.1769 -16.8474
13.6166 -2.07324 -16.8487
13.6375 -1.96958 -16.8501
13.5575 -1.85207 -16.8539
13.4774 -1.73457 -16.8577
13.3974 -1.61706 -16.8615
13.2164 -1.48572 -16.8677
13.1364 -1.36821 -16.8715
13.0563 -1.25071 -16.8753
13.0773 -1.14705 -16.8766
12.9972 -1.02954 -16.8804
13.0181 -0.925883 -16.8818
12.9381 -0.808376 -16.8856
12.959 -0.704718 -16.8869
12.879 -0.587214 -16.8907
12.8999 -0.483554 -16.8921
12.8199 -0.36605 -16.8959
12.7398 -0.248543 -16.8997
12.6598 -0.131039 -16.9035
12.6807 -0.0273798 -16.9048
12.7016 0.0762796 -16.9062
12.6216 0.193783 -16.91
12.6425 0.297445 -16.9113
12.6634 0.401104 -16.9127
12.5834 0.518612 -16.9165
12.6043 0.622269 -16.9179
12.5243 0.739773 -16.9217
12.5452 0.843435 -16.923
12.5661 0.947095 -16.9244
12.486 1.0646 -16.9282
12.507 1.16826 -16.9296
12.5279 1.27192 -16.9309
12.5488 1.37558 -16.9323
12.4688 1.49308 -16.9361
12.4897 1.59675 -16.9374
12.5106 1.7004 -16.9388
12.4305 1.81791 -16.9426
12.4515 1.92157 -16.944
12.4724 2.02523 -16.9453
12.3923 2.14273 -16.9491
12.4133 2.24639 -16.9505
12.3332 2.3639 -16.9543
12.2532 2.4814 -16.9581
12.1731 2.59891 -16.9618
12.1941 2.70257 -16.9632
12.215 2.80623 -16.9646
12.2359 2.90989 -16.9659
12.2568 3.01355 -16.9673
12.1768 3.13105 -16.9711
12.1977 3.23471 -16.9725
12.1176 3.35222 -16.9762
12.1386 3.45588 -16.9776
12.0585 3.57338 -16.9814
12.0794 3.67704 -16.9828
12.1004 3.7807 -16.9841
12.1213 3.88436 -16.9855
12.1422 3.98802 -16.9869
12.0622 4.10553 -16.9907
12.0831 4.20919 -16.992
12.104 4.31285 -16.9934
12.1249 4.41651 -16.9948
12.1458 4.52017 -16.9961
12.1667 4.62383 -16.9975
12.0867 4.74133 -17.0013
12.1076 4.84499 -17.0026
12.1285 4.94865 -17.004
12.1494 5.05231 -17.0054
12.1704 5.15597 -17.0067
12.0903 5.27348 -17.0105
12.0103 5.39098 -17.0143
12.0312 5.49464 -17.0157
11.9512 5.61215 -17.0195
11.9721 5.71581 -17.0208
11.993 5.81947 -17.0222
12.0139 5.92313 -17.0236
12.0348 6.02679 -17.0249
11.9548 6.14429 -17.0287
11.9757 6.24795 -17.0301
11.8957 6.36546 -17.0339
11.9166 6.46912 -17.0352
11.9375 6.57277 -17.0366
11.8574 6.69028 -17.0404
11.1717 6.89085 -17.0587
10.9907 7.0222 -17.0649
15.8303 -7.09894 -16.7132
15.9853 -6.92174 -16.7097
16.046 -6.78303 -16.7086
16.1066 -6.64431 -16.7076
16.0729 -6.54408 -16.7089
16.1335 -6.40536 -16.7079
16.1941 -6.26665 -16.7068
16.5378 -6.01247 -16.6985
16.6928 -5.83527 -16.695
16.6591 -5.73504 -16.6964
16.7197 -5.59632 -16.6953
16.686 -5.49609 -16.6967
16.7466 -5.35738 -16.6956
16.7129 -5.25715 -16.697
16.6792 -5.15692 -16.6983
16.6455 -5.05669 -16.6997
16.6118 -4.95646 -16.7011
16.578 -4.85623 -16.7024
16.5443 -4.756 -16.7038
16.5106 -4.65577 -16.7052
16.4769 -4.55554 -16.7065
16.4432 -4.45531 -16.7079
16.4095 -4.35508 -16.7093
16.3757 -4.25485 -16.7106
16.342 -4.15462 -16.712
16.3083 -4.05439 -16.7134
16.2746 -3.95416 -16.7147
16.1465 -3.89241 -16.7185
16.1128 -3.79218 -16.7199
16.0791 -3.69196 -16.7213
15.951 -3.63021 -16.7251
15.823 -3.56847 -16.7288
15.6949 -3.50673 -16.7326
15.3781 -3.52196 -16.7413
15.2501 -3.46021 -16.7451
15.0276 -3.43695 -16.7513
14.8996 -3.37521 -16.7551
14.7715 -3.31347 -16.7588
14.6434 -3.25172 -16.7626
14.6097 -3.15149 -16.764
14.4817 -3.08975 -16.7678
14.448 -2.98952 -16.7691
14.3199 -2.92778 -16.7729
14.2862 -2.82755 -16.7743
14.2524 -2.72732 -16.7757
14.2187 -2.62709 -16.777
14.185 -2.52685 -16.7784
14.1513 -2.42663 -16.7798
14.1176 -2.3264 -16.7811
14.0839 -2.22617 -16.7825
13.9558 -2.16442 -16.7863
13.9221 -2.06419 -16.7877
13.8884 -1.96396 -16.789
13.8546 -1.86373 -16.7904
13.8209 -1.7635 -16.7917
13.8816 -1.62479 -16.7907
13.8478 -1.52456 -16.7921
13.8141 -1.42433 -16.7934
13.6861 -1.36258 -16.7972
13.6523 -1.26235 -16.7986
13.6186 -1.16212 -16.8
13.5849 -1.06189 -16.8013
13.5512 -0.961664 -16.8027
13.4231 -0.89992 -16.8065
13.3894 -0.79969 -16.8078
13.3557 -0.69946 -16.8092
13.322 -0.59923 -16.8106
13.2883 -0.499001 -16.8119
13.3489 -0.360284 -16.8109
13.3152 -0.260055 -16.8122
13.2815 -0.159824 -16.8136
13.2477 -0.0595956 -16.815
13.214 0.0406356 -16.8163
13.1803 0.140865 -16.8177
13.1466 0.241096 -16.8191
13.1129 0.341325 -16.8204
13.0792 0.441554 -16.8218
13.0454 0.541784 -16.8232
13.0117 0.642015 -16.8245
12.978 0.742245 -16.8259
12.9443 0.842474 -16.8273
12.9106 0.942704 -16.8286
12.8769 1.04293 -16.83
12.8431 1.14316 -16.8314
12.8094 1.2434 -16.8327
12.7757 1.34362 -16.8341
12.8363 1.48234 -16.833
12.8026 1.58257 -16.8344
12.7689 1.6828 -16.8358
12.7352 1.78303 -16.8371
12.7015 1.88326 -16.8385
12.6677 1.98349 -16.8399
12.634 2.08372 -16.8412
12.6947 2.22244 -16.8402
12.661 2.32267 -16.8416
12.6272 2.4229 -16.8429
12.5935 2.52313 -16.8443
12.5598 2.62336 -16.8456
12.6204 2.76207 -16.8446
12.5867 2.8623 -16.846
12.553 2.96253 -16.8473
12.5193 3.06276 -16.8487
12.5799 3.20148 -16.8476
12.5462 3.30171 -16.849
12.5125 3.40194 -16.8504
12.4788 3.50217 -16.8517
12.5394 3.64089 -16.8507
12.5057 3.74112 -16.852
12.472 3.84135 -16.8534
12.4382 3.94158 -16.8548
12.4045 4.0418 -16.8561
12.3708 4.14204 -16.8575
12.3371 4.24226 -16.8589
12.3034 4.3425 -16.8602
12.2697 4.44272 -16.8616
12.3303 4.58144 -16.8605
12.2966 4.68167 -16.8619
12.2629 4.7819 -16.8633
12.1348 4.84365 -16.8671
12.1011 4.94387 -16.8684
12.0674 5.0441 -16.8698
12.0336 5.14434 -16.8712
12.0943 5.28305 -16.8701
12.0605 5.38328 -16.8715
12.0268 5.48351 -16.8728
12.0875 5.62222 -16.8718
12.0538 5.72246 -16.8732
12.1144 5.86117 -16.8721
12.0807 5.9614 -16.8735
12.0469 6.06163 -16.8748
12.0132 6.16186 -16.8762
11.9795 6.26209 -16.8775
11.9458 6.36232 -16.8789
12.0064 6.50104 -16.8779
11.9727 6.60127 -16.8792
11.939 6.7015 -16.8806
11.9053 6.80173 -16.882
11.8716 6.90196 -16.8833
11.8378 7.00219 -16.8847
11.8041 7.10242 -16.8861
11.6761 7.16416 -16.8898
11.6423 7.26439 -16.8912
11.5143 7.32613 -16.895
11.4806 7.42636 -16.8964
11.3525 7.48811 -16.9002
11.2244 7.54985 -16.9039
11.1907 7.65008 -16.9053
11.157 7.75031 -16.9067
11.0289 7.81205 -16.9105
10.9009 7.8738 -16.9143
10.8671 7.97403 -16.9156
10.7391 8.03577 -16.9194
10.7054 8.136 -16.9208
10.6716 8.23623 -16.9221
10.5436 8.29797 -16.9259
10.4155 8.35972 -16.9297
10.1931 8.38298 -16.9359
9.97068 8.40623 -16.9422
9.84262 8.46798 -16.9459
9.71455 8.52972 -16.9497
9.58648 8.59146 -16.9535
9.36407 8.61472 -16.9597
9.236 8.67646 -16.9635
9.10793 8.73821 -16.9673
8.97987 8.79995 -16.9711
8.75745 8.82321 -16.9773
8.62939 8.88495 -16.9811
8.59567 8.98518 -16.9825
8.46761 9.04693 -16.9863
7.96214 8.95472 -16.9997
7.83408 9.01647 -17.0035
7.70601 9.07821 -17.0073
7.4836 9.10147 -17.0135
7.35553 9.16321 -17.0173
6.85007 9.07101 -17.0308
15.8469 -3.49578 -16.8021
15.8301 -3.34533 -16.8011
15.7507 -3.27539 -16.8024
15.7339 -3.12494 -16.8014
15.5921 -3.1355 -16.8052
15.5128 -3.06556 -16.8065
15.371 -3.07612 -16.8103
15.2917 -3.00618 -16.8117
15.2124 -2.93624 -16.8131
15.1331 -2.86629 -16.8144
14.9913 -2.87686 -16.8182
14.912 -2.80691 -16.8196
14.8327 -2.73697 -16.821
14.7534 -2.66702 -16.8223
14.674 -2.59708 -16.8237
14.5947 -2.52714 -16.825
14.5154 -2.4572 -16.8264
14.4361 -2.38725 -16.8278
14.3568 -2.31731 -16.8291
14.3399 -2.16686 -16.8281
14.3231 -2.01641 -16.827
14.2438 -1.94647 -16.8284
14.2269 -1.79602 -16.8273
14.1476 -1.72608 -16.8287
14.0683 -1.65613 -16.8301
14.0514 -1.50569 -16.829
13.9721 -1.43575 -16.8304
13.8928 -1.3658 -16.8317
13.8135 -1.29586 -16.8331
13.7342 -1.22592 -16.8345
13.7173 -1.07547 -16.8334
13.638 -1.00552 -16.8348
13.6212 -0.855077 -16.8337
13.5419 -0.785133 -16.8351
13.4625 -0.715192 -16.8365
13.4457 -0.564744 -16.8354
13.3664 -0.4948 -16.8368
13.2871 -0.424857 -16.8381
13.2702 -0.274405 -16.8371
13.1909 -0.204464 -16.8384
13.174 -0.054019 -16.8374
13.0947 0.0159245 -16.8388
13.0154 0.0858684 -16.8401
12.9986 0.236319 -16.8391
12.9192 0.306262 -16.8404
12.9024 0.456709 -16.8394
12.8231 0.526652 -16.8407
12.7438 0.596596 -16.8421
12.6645 0.666537 -16.8435
12.5851 0.736481 -16.8448
12.5683 0.88693 -16.8438
12.4265 0.876369 -16.8476
12.7845 1.50985 -16.832
12.7676 1.66029 -16.8309
12.6883 1.73023 -16.8323
12.6714 1.88068 -16.8312
12.6546 2.03113 -16.8302
12.6377 2.18158 -16.8291
12.6209 2.33203 -16.828
12.729 2.64348 -16.8221
12.7121 2.79393 -16.8211
12.6953 2.94438 -16.82
12.616 3.01432 -16.8214
12.5991 3.16477 -16.8203
12.5198 3.23472 -16.8217
12.4405 3.30466 -16.8231
12.4236 3.4551 -16.822
12.3443 3.52505 -16.8234
12.3275 3.6755 -16.8223
12.3731 3.90645 -16.8188
12.4187 4.1374 -16.8154
12.4019 4.28785 -16.8143
12.385 4.4383 -16.8132
12.3057 4.50824 -16.8146
12.2888 4.65869 -16.8136
12.272 4.80914 -16.8125
12.1927 4.87908 -16.8139
12.1758 5.02953 -16.8128
12.0965 5.09947 -16.8142
12.0797 5.24992 -16.8131
12.0628 5.40037 -16.8121
12.046 5.55081 -16.811
12.0291 5.70126 -16.81
11.9498 5.77121 -16.8113
11.9954 6.00216 -16.8078
11.9786 6.15261 -16.8068
11.9617 6.30305 -16.8057
11.9449 6.4535 -16.8047
11.928 6.60395 -16.8036
11.9112 6.7544 -16.8026
11.8943 6.90485 -16.8015
11.815 6.97479 -16.8029
11.7982 7.12524 -16.8018
11.7813 7.27569 -16.8008
11.702 7.34563 -16.8021
11.6851 7.49608 -16.8011
11.6058 7.56602 -16.8024
11.589 7.71646 -16.8014
11.5097 7.78641 -16.8027
11.4928 7.93686 -16.8017
11.4135 8.0068 -16.803
11.3342 8.07674 -16.8044
11.2549 8.14669 -16.8058
11.1756 8.21663 -16.8071
11.0962 8.28658 -16.8085
11.0169 8.35652 -16.8099
10.9376 8.42646 -16.8112
10.8583 8.4964 -16.8126
10.7165 8.48584 -16.8164
10.6372 8.55578 -16.8178
10.5579 8.62572 -16.8191
10.4786 8.69567 -16.8205
10.3368 8.68511 -16.8243
10.2575 8.75505 -16.8256
10.1782 8.825 -16.827
10.0364 8.81444 -16.8308
9.95707 8.88438 -16.8322
9.87775 8.95432 -16.8335
9.79844 9.02427 -16.8349
9.65666 9.0137 -16.8387
9.57734 9.08364 -16.8401
9.49803 9.15359 -16.8414
9.41871 9.22353 -16.8428
9.3394 9.29348 -16.8441
9.19762 9.28292 -16.8479
9.11831 9.35286 -16.8493
8.97652 9.34229 -16.8531
8.89721 9.41224 -16.8545
8.75543 9.40168 -16.8582
8.67611 9.47162 -16.8596
8.5968 9.54156 -16.861
8.45502 9.531 -16.8648
8.37571 9.60095 -16.8661
8.23392 9.59039 -16.8699
8.15461 9.66033 -16.8713
8.01283 9.64976 -16.8751
7.93351 9.71971 -16.8764
7.79174 9.70915 -16.8802
7.71242 9.77909 -16.8816
7.57064 9.76853 -16.8854
7.49132 9.83847 -16.8868
7.28708 9.7474 -16.893
7.1453 9.73685 -16.8968
7.00352 9.72628 -16.9005
6.86173 9.71572 -16.9043
6.71996 9.70516 -16.9081
6.64064 9.7751 -16.9095
6.49886 9.76454 -16.9133
6.41954 9.83448 -16.9146
6.34023 9.90442 -16.916
6.26092 9.97437 -16.9174
6.11914 9.96381 -16.9212
5.97736 9.95325 -16.925
5.77311 9.86218 -16.9312
5.63133 9.85162 -16.935
5.48955 9.84106 -16.9388
5.34777 9.8305 -16.9425
5.26846 9.90044 -16.9439
5.06421 9.80937 -16.9501
4.92243 9.79881 -16.9539
4.78065 9.78825 -16.9577
4.51394 9.61668 -16.9663
4.30969 9.52561 -16.9725
4.16791 9.51505 -16.9763
3.77627 9.18247 -16.9898
3.63449 9.17191 -16.9936
11.6022 7.75167 -16.8083
11.5124 7.87353 -16.8073
11.4087 7.89445 -16.8086
11.3189 8.01632 -16.8076
11.2429 8.23913 -16.8041
11.167 8.46195 -16.8006
11.0771 8.58382 -16.7995
10.9735 8.60473 -16.8009
10.8698 8.62564 -16.8023
10.7662 8.64656 -16.8036
10.6625 8.66748 -16.805
10.5727 8.78935 -16.804
10.469 8.81026 -16.8053
10.3792 8.93213 -16.8043
10.2755 8.95304 -16.8056
10.1857 9.07491 -16.8046
10.0821 9.09583 -16.8059
9.99226 9.2177 -16.8049
9.88859 9.23861 -16.8062
9.78493 9.25952 -16.8076
9.69512 9.38139 -16.8065
9.59146 9.4023 -16.8079
9.4878 9.42322 -16.8093
9.38414 9.44413 -16.8107
9.29432 9.566 -16.8096
9.19066 9.58692 -16.811
9.10085 9.70879 -16.8099
8.99719 9.7297 -16.8113
8.89353 9.75061 -16.8126
8.78987 9.77153 -16.814
8.67236 9.69149 -16.8178
8.5687 9.71241 -16.8192
8.46504 9.73332 -16.8205
8.36138 9.75424 -16.8219
8.27157 9.87611 -16.8208
8.16791 9.89702 -16.8222
8.06425 9.91794 -16.8236
7.96059 9.93885 -16.8249
7.85693 9.95976 -16.8263
7.75326 9.98068 -16.8277
7.6496 10.0016 -16.829
7.54594 10.0225 -16.8304
7.44228 10.0434 -16.8318
7.33862 10.0643 -16.8331
7.23496 10.0853 -16.8345
7.14515 10.2071 -16.8334
7.04149 10.228 -16.8348
6.93783 10.249 -16.8362
6.83417 10.2699 -16.8375
6.73051 10.2908 -16.8389
6.62685 10.3117 -16.8403
6.52319 10.3326 -16.8416
6.41953 10.3535 -16.843
6.31587 10.3744 -16.8444
6.19836 10.2944 -16.8482
6.0947 10.3153 -16.8495
5.99104 10.3362 -16.8509
5.88738 10.3572 -16.8522
5.78372 10.3781 -16.8536
5.66622 10.298 -16.8574
5.56256 10.3189 -16.8588
5.4589 10.3399 -16.8601
5.35524 10.3608 -16.8615
5.23773 10.2807 -16.8653
5.13407 10.3017 -16.8667
5.01657 10.2216 -16.8705
4.89906 10.1416 -16.8742
4.7954 10.1625 -16.8756
4.6779 10.0825 -16.8794
4.57424 10.1034 -16.8808
4.47058 10.1243 -16.8821
4.35307 10.0443 -16.8859
4.24941 10.0652 -16.8873
4.14575 10.0861 -16.8886
4.04209 10.107 -16.89
3.92459 10.027 -16.8938
3.82093 10.0479 -16.8952
3.71727 10.0688 -16.8965
3.59976 9.98876 -16.9003
3.4961 10.0097 -16.9017
3.3786 9.92963 -16.9055
3.26109 9.8496 -16.9093
3.14359 9.76956 -16.9131
3.02608 9.68953 -16.9168
2.92243 9.71044 -16.9182
2.80492 9.6304 -16.922
2.70126 9.65132 -16.9234
2.58376 9.57128 -16.9272
2.4801 9.5922 -16.9285
2.36259 9.51216 -16.9323
2.25893 9.53307 -16.9337
2.14143 9.45303 -16.9375
2.02392 9.373 -16.9413
1.92026 9.39392 -16.9426
1.80276 9.31388 -16.9464
1.68525 9.23384 -16.9502
1.58159 9.25476 -16.9516
1.46409 9.17472 -16.9554
1.33274 8.99373 -16.9616
9.19964 9.56279 -16.8761
9.02244 9.71776 -16.8726
8.88372 9.7784 -16.8716
8.745 9.83903 -16.8705
8.64477 9.80532 -16.8719
8.50606 9.86594 -16.8708
8.36734 9.92658 -16.8698
8.22863 9.98721 -16.8687
8.05142 10.1422 -16.8652
7.91271 10.2028 -16.8642
7.77399 10.2635 -16.8631
7.67376 10.2297 -16.8645
7.53505 10.2904 -16.8634
7.39633 10.351 -16.8624
7.2961 10.3173 -16.8637
7.19587 10.2836 -16.8651
7.05715 10.3442 -16.864
6.91844 10.4048 -16.863
6.77972 10.4655 -16.8619
6.67949 10.4318 -16.8633
6.54077 10.4924 -16.8622
6.44054 10.4587 -16.8636
6.34031 10.4249 -16.865
6.24008 10.3912 -16.8663
6.13985 10.3575 -16.8677
6.00114 10.4181 -16.8666
5.90091 10.3844 -16.868
5.80068 10.3507 -16.8694
5.66196 10.4113 -16.8683
5.52325 10.472 -16.8673
5.38453 10.5326 -16.8662
5.2843 10.4989 -16.8676
5.14558 10.5595 -16.8665
5.04535 10.5258 -16.8679
4.94512 10.4921 -16.8692
4.84489 10.4584 -16.8706
4.74466 10.4247 -16.872
4.64443 10.3909 -16.8734
4.5442 10.3572 -16.8747
4.44397 10.3235 -16.8761
4.30526 10.3841 -16.875
4.20503 10.3504 -16.8764
4.1048 10.3167 -16.8777
4.00457 10.283 -16.8791
3.86585 10.3436 -16.8781
3.76562 10.3099 -16.8794
3.70388 10.1818 -16.8832
3.60365 10.1481 -16.8846
3.50342 10.1144 -16.8859
3.40319 10.0807 -16.8873
3.30296 10.047 -16.8887
3.20273 10.0132 -16.89
3.06401 10.0739 -16.889
2.96378 10.0402 -16.8904
2.86355 10.0064 -16.8917
2.76332 9.97273 -16.8931
2.62461 10.0334 -16.892
2.52438 9.99964 -16.8934
2.42415 9.96592 -16.8948
2.32392 9.93221 -16.8961
2.22369 9.89849 -16.8975
2.12346 9.86477 -16.8989
2.02323 9.83105 -16.9002
1.923 9.79734 -16.9016
1.82277 9.76362 -16.903
1.72254 9.72991 -16.9043
1.62231 9.69619 -16.9057
1.56056 9.56812 -16.9095
1.46033 9.53441 -16.9108
1.3601 9.50069 -16.9122
1.29836 9.37262 -16.916
1.19813 9.33891 -16.9174
1.0979 9.30519 -16.9187
0.997671 9.27147 -16.9201
0.89744 9.23776 -16.9215
0.797211 9.20404 -16.9228
0.735467 9.07597 -16.9266
0.635237 9.04225 -16.928
0.535007 9.00854 -16.9294
0.434777 8.97482 -16.9307
0.334546 8.94111 -16.9321
0.272803 8.81304 -16.9359
0.172573 8.77932 -16.9372
0.0723422 8.74561 -16.9386
-0.0278885 8.71189 -16.94
-0.128118 8.67818 -16.9413
-0.189858 8.5501 -16.9451
-0.290089 8.51639 -16.9465
-0.390319 8.48267 -16.9479
-0.452063 8.35461 -16.9516
-0.513808 8.22654 -16.9554
-0.57555 8.09847 -16.9592
-0.675781 8.06476 -16.9606
-0.737524 7.93669 -16.9644
-0.837754 7.90298 -16.9657
-0.937985 7.86926 -16.9671
-0.999725 7.74119 -16.9709
-1.09996 7.70747 -16.9723
-1.1617 7.57941 -16.9761
-1.22345 7.45134 -16.9798
-1.2467 7.22893 -16.9861
-1.30844 7.10086 -16.9899
-1.37019 6.97279 -16.9936
-1.47042 6.93908 -16.995
-1.53216 6.81101 -16.9988
-1.63239 6.77729 -17.0002
-1.69413 6.64923 -17.004
-1.79437 6.61551 -17.0053
-1.8946 6.58179 -17.0067
-1.95634 6.45373 -17.0105
-2.05657 6.42001 -17.0118
-2.1568 6.38629 -17.0132
-2.21854 6.25822 -17.017
-2.28029 6.13016 -17.0208
-2.34203 6.0021 -17.0246
-2.40377 5.87403 -17.0284
-2.504 5.84031 -17.0297
-2.56575 5.71225 -17.0335
-2.66598 5.67853 -17.0349
-2.72772 5.55046 -17.0387
-2.82795 5.51674 -17.04
-2.88969 5.38868 -17.0438
-2.95144 5.26061 -17.0476
-3.01318 5.13255 -17.0514
-3.07492 5.00448 -17.0552
-3.13667 4.87641 -17.059
-3.2369 4.8427 -17.0603
-3.29864 4.71463 -17.0641
-3.36038 4.58657 -17.0679
-3.46061 4.55285 -17.0693
-3.52236 4.42478 -17.0731
2.97332 10.6417 -16.9322
2.82287 10.6249 -16.9311
2.67242 10.608 -16.9301
2.60248 10.5287 -16.9315
2.53254 10.4494 -16.9328
2.38208 10.4325 -16.9318
2.07063 10.5406 -16.9259
1.92018 10.5238 -16.9248
1.85024 10.4445 -16.9262
1.78029 10.3651 -16.9275
1.71035 10.2858 -16.9289
1.55991 10.269 -16.9278
1.48996 10.1897 -16.9292
1.33951 10.1728 -16.9281
1.10856 10.2184 -16.9247
0.958113 10.2016 -16.9236
0.888172 10.1223 -16.925
0.737723 10.1054 -16.9239
0.667779 10.0261 -16.9253
0.597835 9.94678 -16.9267
0.527892 9.86747 -16.928
0.457951 9.78816 -16.9294
0.388007 9.70884 -16.9308
0.237556 9.69199 -16.9297
0.167613 9.61268 -16.9311
0.097671 9.53336 -16.9324
-0.052773 9.51651 -16.9314
-0.122717 9.4372 -16.9327
-0.192661 9.35788 -16.9341
-0.343112 9.34104 -16.933
-0.413053 9.26172 -16.9344
-0.482996 9.18241 -16.9358
-0.55294 9.10309 -16.9371
-0.622884 9.02378 -16.9385
-0.692828 8.94446 -16.9399
-0.762768 8.86515 -16.9412
-0.913217 8.8483 -16.9402
-0.983161 8.76899 -16.9415
-1.05311 8.68967 -16.9429
-1.12305 8.61036 -16.9443
-1.19299 8.53104 -16.9456
-1.26293 8.45173 -16.947
-1.33288 8.37241 -16.9484
-1.40282 8.2931 -16.9498
-1.47276 8.21378 -16.9511
-1.54271 8.13447 -16.9525
-1.69315 8.11761 -16.9514
-1.76309 8.0383 -16.9528
-1.83304 7.95899 -16.9541
-1.90298 7.87967 -16.9555
-1.97292 7.80036 -16.9569
-2.04287 7.72104 -16.9583
-2.11281 7.64173 -16.9596
-2.18275 7.56241 -16.961
-2.25269 7.4831 -16.9623
-2.32264 7.40378 -16.9637
-2.39258 7.32447 -16.9651
-2.46253 7.24516 -16.9664
-2.53247 7.16584 -16.9678
-2.60241 7.08652 -16.9692
-2.67235 7.00721 -16.9706
-2.7423 6.9279 -16.9719
-2.81224 6.84858 -16.9733
-2.88218 6.76927 -16.9746
-2.95213 6.68995 -16.976
-3.02207 6.61064 -16.9774
-3.09201 6.53132 -16.9787
-3.16196 6.45201 -16.9801
-3.2319 6.37269 -16.9815
-3.30184 6.29338 -16.9828
-3.29128 6.1516 -16.9866
-3.36123 6.07229 -16.988
-3.43117 5.99297 -16.9894
-3.50111 5.91365 -16.9907
-3.57106 5.83434 -16.9921
-3.5605 5.69256 -16.9959
-3.63044 5.61325 -16.9973
-3.70038 5.53393 -16.9986
-3.77032 5.45462 -17
-3.84027 5.3753 -17.0013
-3.91021 5.29599 -17.0027
-3.98016 5.21667 -17.0041
-3.96959 5.07489 -17.0079
-4.03953 4.99558 -17.0092
-4.02898 4.8538 -17.013
-4.09892 4.77448 -17.0144
-4.08836 4.6327 -17.0182
-4.2388 4.61585 -17.0171
-4.30875 4.53654 -17.0185
-4.37869 4.45722 -17.0199
-4.44864 4.37791 -17.0212
-4.51858 4.2986 -17.0226
-4.58852 4.21928 -17.024
-4.65846 4.13997 -17.0253
-4.6479 3.99818 -17.0291
-4.71784 3.91887 -17.0305
-4.70728 3.77709 -17.0343
-4.69672 3.63531 -17.0381
-4.84717 3.61846 -17.037
-4.91711 3.53914 -17.0384
-4.98706 3.45983 -17.0397
-5.057 3.38052 -17.0411
-5.12694 3.3012 -17.0424
-5.11638 3.15942 -17.0462
-5.18632 3.08011 -17.0476
-5.25627 3.00079 -17.049
-5.2457 2.85901 -17.0528
-5.31565 2.7797 -17.0541
-5.30509 2.63792 -17.0579
-5.37503 2.5586 -17.0593
-5.36447 2.41682 -17.0631
-5.43441 2.33751 -17.0644
-5.42385 2.19573 -17.0682
-5.07669 3.77836 -17.0033
-5.19856 3.68855 -17.0022
-5.42138 3.61257 -16.9987
-5.54325 3.52276 -16.9977
-5.56416 3.4191 -16.9991
-5.68603 3.32928 -16.998
-5.70695 3.22562 -16.9994
-5.72786 3.12196 -17.0007
-5.74878 3.0183 -17.0021
-5.87064 2.92849 -17.001
-5.89155 2.82483 -17.0024
-5.91247 2.72116 -17.0038
-5.93339 2.61751 -17.0051
-5.9543 2.51384 -17.0065
-5.97522 2.41018 -17.0079
-5.99613 2.30653 -17.0092
-6.01705 2.20286 -17.0106
-6.03796 2.0992 -17.012
-6.05888 1.99554 -17.0133
-6.07979 1.89188 -17.0147
-6.10071 1.78823 -17.0161
-6.12162 1.68456 -17.0174
-6.14254 1.5809 -17.0188
-6.06251 1.4634 -17.0226
-6.08342 1.35974 -17.024
-6.00338 1.24223 -17.0277
-6.02429 1.13858 -17.0291
-5.94426 1.02107 -17.0329
-5.96517 0.91741 -17.0343
-5.98609 0.81375 -17.0356
-6.007 0.71009 -17.037
-6.02792 0.606429 -17.0384
-6.04883 0.502769 -17.0397
-6.06975 0.39911 -17.0411
-6.09066 0.29545 -17.0424
-6.11158 0.191791 -17.0438
-6.03154 0.0742837 -17.0476
-6.05246 -0.0293759 -17.049
-6.07337 -0.133038 -17.0503
-6.09429 -0.236696 -17.0517
-6.01425 -0.354201 -17.0555
-6.03517 -0.45786 -17.0569
-6.05608 -0.56152 -17.0582
-6.077 -0.665182 -17.0596
-5.99696 -0.782685 -17.0634
-6.01788 -0.886345 -17.0648
-5.93784 -1.00385 -17.0685
-5.95876 -1.10751 -17.0699
-5.97967 -1.21117 -17.0713
-5.89963 -1.32867 -17.0751
-5.92055 -1.43234 -17.0764
-5.84051 -1.54984 -17.0802
-5.76047 -1.66734 -17.084
-5.57949 -1.79869 -17.0902
-5.39849 -1.93004 -17.0964
-5.31846 -2.04755 -17.1002
-5.23842 -2.16505 -17.104
-5.25934 -2.26871 -17.1054
-5.1793 -2.38621 -17.1092
-5.20022 -2.48987 -17.1105
-5.12018 -2.60738 -17.1143
-5.04014 -2.72488 -17.1181
-6.21178 1.78983 -17.0007
-6.36677 1.61262 -16.9972
-6.33305 1.51239 -16.9986
-6.67673 1.25822 -16.9902
-6.73736 1.1195 -16.9892
-6.70364 1.01927 -16.9906
-6.76427 0.880558 -16.9895
-6.73056 0.780327 -16.9909
-6.69684 0.680098 -16.9922
-6.75747 0.541381 -16.9912
-6.72376 0.44115 -16.9925
-6.69004 0.340921 -16.9939
-6.65632 0.240691 -16.9953
-6.71695 0.101975 -16.9942
-6.68323 0.00174618 -16.9956
-6.64952 -0.0984843 -16.9969
-6.6158 -0.198714 -16.9983
-6.58209 -0.298944 -16.9997
-6.54837 -0.399174 -17.001
-6.51465 -0.499403 -17.0024
-6.48093 -0.599634 -17.0038
-6.54157 -0.73835 -17.0027
-6.50785 -0.838582 -17.0041
-6.47414 -0.938812 -17.0054
-6.44042 -1.03904 -17.0068
-6.4067 -1.13927 -17.0082
-6.37298 -1.2395 -17.0095
-6.33927 -1.33973 -17.0109
-6.30555 -1.43996 -17.0123
-6.27183 -1.54019 -17.0136
-6.23812 -1.64042 -17.015
-6.2044 -1.74065 -17.0164
-6.17068 -1.84088 -17.0177
-6.13696 -1.94111 -17.0191
-6.10325 -2.04134 -17.0205
-6.06953 -2.14157 -17.0218
-6.03581 -2.2418 -17.0232
-6.0021 -2.34203 -17.0246
-5.96838 -2.44226 -17.0259
-5.93466 -2.54249 -17.0273
-5.80659 -2.60423 -17.0311
-5.77288 -2.70446 -17.0325
-5.73916 -2.80469 -17.0338
-5.70544 -2.90492 -17.0352
-5.67173 -3.00515 -17.0366
-5.63801 -3.10538 -17.0379
-5.60429 -3.20561 -17.0393
-5.57057 -3.30584 -17.0406
-5.53686 -3.40607 -17.042
-5.50314 -3.5063 -17.0434
-5.37508 -3.56805 -17.0472
-5.34136 -3.66828 -17.0485
-5.30764 -3.76851 -17.0499
-5.27393 -3.86874 -17.0513
-5.24021 -3.96897 -17.0526
-5.20649 -4.0692 -17.054
-5.17278 -4.16943 -17.0554
-5.0447 -4.23117 -17.0592
-5.01099 -4.3314 -17.0605
-4.97727 -4.43163 -17.0619
-4.84921 -4.49337 -17.0657
-4.81549 -4.5936 -17.067
-4.78177 -4.69383 -17.0684
-4.74806 -4.79406 -17.0698
-4.71434 -4.89429 -17.0711
-4.58627 -4.95604 -17.0749
-4.55255 -5.05626 -17.0763
-4.51884 -5.15649 -17.0777
-4.48512 -5.25672 -17.079
-4.45141 -5.35696 -17.0804
-4.32334 -5.4187 -17.0842
-4.28962 -5.51893 -17.0856
-4.2559 -5.61916 -17.0869
-4.12784 -5.6809 -17.0907
-4.09412 -5.78113 -17.0921
-4.06041 -5.88136 -17.0934
-4.02669 -5.98159 -17.0948
-3.99297 -6.08182 -17.0962
-3.95925 -6.18205 -17.0975
-3.83119 -6.2438 -17.1013
-3.79747 -6.34403 -17.1027
-3.6694 -6.40577 -17.1065
-3.63569 -6.506 -17.1078
-3.60197 -6.60623 -17.1092
-3.47391 -6.66797 -17.113
-3.44019 -6.7682 -17.1144
-3.40647 -6.86843 -17.1157
-3.37276 -6.96866 -17.1171
-3.24469 -7.0304 -17.1209
-3.21097 -7.13064 -17.1223
-3.17725 -7.23086 -17.1236
-3.04919 -7.29261 -17.1274
-3.01547 -7.39284 -17.1288
-2.98176 -7.49307 -17.1301
-2.94804 -7.5933 -17.1315
-2.91432 -7.69353 -17.1329
-2.8806 -7.79376 -17.1342
-2.84689 -7.89399 -17.1356
-2.81317 -7.99422 -17.137
-2.68511 -8.05596 -17.1408
-2.65139 -8.15619 -17.1421
-2.61767 -8.25642 -17.1435
-2.4896 -8.31817 -17.1473
-2.45589 -8.4184 -17.1487
-2.42217 -8.51863 -17.15
-2.2941 -8.58037 -17.1538
-2.26038 -8.6806 -17.1552
-2.22667 -8.78083 -17.1565
-2.0986 -8.84257 -17.1603
-2.06488 -8.9428 -17.1617
-1.93682 -9.00455 -17.1655
-1.80875 -9.06629 -17.1693
-1.77504 -9.16652 -17.1706
-1.64697 -9.22826 -17.1744
-1.5189 -9.29001 -17.1782
-1.29649 -9.31326 -17.1844
-1.16842 -9.37501 -17.1882
-1.13471 -9.47524 -17.1896
-1.00664 -9.53698 -17.1934
-0.97292 -9.63721 -17.1947
-0.939204 -9.73744 -17.1961
-0.905487 -9.83767 -17.1975
-0.871771 -9.9379 -17.1988
-0.743706 -9.99964 -17.2026
-0.709986 -10.0999 -17.204
-0.67627 -10.2001 -17.2054
-0.548208 -10.2618 -17.2091
-0.42014 -10.3236 -17.2129
