ply
format ascii 1.0
comment VCGLIB generated
element vertex 1102
property float x
property float y
property float z
element face 0
property list uchar int vertex_indices
end_header
4.17964 -12.9858 -15.8002
4.33008 -12.969 -15.7991
4.56104 -13.0146 -15.7957
4.953 -13.1851 -15.7874
5.42547 -13.4181 -15.7766
5.57592 -13.4013 -15.7755
5.80687 -13.4469 -15.7721
6.03782 -13.4925 -15.7686
6.10776 -13.4132 -15.7699
6.25821 -13.3964 -15.7689
6.32816 -13.3171 -15.7702
6.63961 -13.4251 -15.7644
6.79006 -13.4083 -15.7633
6.86 -13.329 -15.7647
6.92994 -13.2497 -15.766
6.99989 -13.1703 -15.7674
7.15034 -13.1535 -15.7663
7.22028 -13.0742 -15.7677
7.29022 -12.9949 -15.7691
7.44067 -12.978 -15.768
7.51061 -12.8987 -15.7694
7.66106 -12.8818 -15.7683
7.731 -12.8025 -15.7697
7.88145 -12.7857 -15.7686
7.9514 -12.7064 -15.77
8.02134 -12.6271 -15.7714
8.09128 -12.5477 -15.7727
8.16122 -12.4684 -15.7741
8.23117 -12.3891 -15.7755
8.30111 -12.3098 -15.7768
8.45156 -12.2929 -15.7758
8.5215 -12.2136 -15.7771
8.59145 -12.1343 -15.7785
8.66139 -12.055 -15.7799
8.81184 -12.0382 -15.7788
8.88178 -11.9588 -15.7802
8.95172 -11.8795 -15.7815
9.02167 -11.8002 -15.7829
9.09161 -11.7209 -15.7843
9.16155 -11.6416 -15.7856
9.312 -11.6247 -15.7846
9.38194 -11.5454 -15.7859
9.45189 -11.4661 -15.7873
9.52183 -11.3868 -15.7887
9.59177 -11.3075 -15.79
9.66172 -11.2282 -15.7914
9.81216 -11.2113 -15.7904
9.96261 -11.1945 -15.7893
10.0326 -11.1151 -15.7907
10.1025 -11.0358 -15.792
10.1724 -10.9565 -15.7934
10.2424 -10.8772 -15.7948
10.3123 -10.7979 -15.7961
10.3823 -10.7186 -15.7975
10.4522 -10.6393 -15.7989
10.5222 -10.5599 -15.8002
10.5921 -10.4806 -15.8016
10.7425 -10.4638 -15.8005
10.893 -10.4469 -15.7995
11.0434 -10.4301 -15.7984
11.1939 -10.4132 -15.7974
11.2638 -10.3339 -15.7987
11.3338 -10.2546 -15.8001
11.4842 -10.2378 -15.799
11.5542 -10.1584 -15.8004
11.7046 -10.1416 -15.7993
11.8551 -10.1247 -15.7983
11.925 -10.0454 -15.7997
11.9949 -9.96611 -15.801
12.0649 -9.88679 -15.8024
12.1348 -9.80748 -15.8038
12.2853 -9.79063 -15.8027
12.3552 -9.71132 -15.8041
12.4252 -9.632 -15.8054
12.5756 -9.61515 -15.8044
12.6456 -9.53584 -15.8057
12.7155 -9.45652 -15.8071
12.7854 -9.37721 -15.8085
12.8554 -9.29789 -15.8098
12.9253 -9.21858 -15.8112
12.9953 -9.13926 -15.8126
13.1457 -9.12242 -15.8115
13.2157 -9.0431 -15.8129
13.2856 -8.96379 -15.8142
13.3556 -8.88447 -15.8156
13.4255 -8.80516 -15.817
13.4954 -8.72584 -15.8183
13.5654 -8.64653 -15.8197
13.7158 -8.62968 -15.8186
13.7858 -8.55036 -15.82
13.8557 -8.47105 -15.8214
14.0062 -8.4542 -15.8203
14.0761 -8.37488 -15.8217
14.2266 -8.35803 -15.8206
14.2965 -8.27872 -15.822
14.4469 -8.26187 -15.8209
14.5169 -8.18256 -15.8223
14.6673 -8.16571 -15.8213
14.7373 -8.0864 -15.8226
14.8072 -8.00708 -15.824
14.8772 -7.92777 -15.8253
15.0276 -7.91091 -15.8243
15.0976 -7.8316 -15.8257
15.1675 -7.75229 -15.827
15.2374 -7.67297 -15.8284
15.3074 -7.59366 -15.8298
15.3773 -7.51434 -15.8311
15.4473 -7.43503 -15.8325
15.5172 -7.35571 -15.8339
15.5872 -7.2764 -15.8352
15.5766 -7.13462 -15.839
15.6465 -7.0553 -15.8404
15.636 -6.91352 -15.8442
15.7059 -6.83421 -15.8455
15.6954 -6.69243 -15.8493
15.6848 -6.55065 -15.8531
15.6742 -6.40887 -15.8569
15.7442 -6.32955 -15.8583
15.7336 -6.18777 -15.8621
15.8036 -6.10846 -15.8634
15.793 -5.96668 -15.8672
15.6214 -5.69997 -15.8758
15.5304 -5.49572 -15.882
7.156 -13.0119 -15.7965
7.27786 -12.9221 -15.7954
7.39973 -12.8323 -15.7943
7.62255 -12.7563 -15.7909
7.84537 -12.6803 -15.7874
7.96724 -12.5905 -15.7863
7.98815 -12.4868 -15.7877
8.00907 -12.3832 -15.7891
8.43379 -12.3349 -15.7807
8.55565 -12.2451 -15.7797
8.57657 -12.1414 -15.781
8.69844 -12.0516 -15.78
8.82031 -11.9618 -15.7789
8.94217 -11.872 -15.7779
9.06404 -11.7822 -15.7768
9.18591 -11.6924 -15.7758
9.40872 -11.6164 -15.7723
9.53059 -11.5266 -15.7712
9.65246 -11.4367 -15.7702
9.67338 -11.3331 -15.7715
9.79524 -11.2433 -15.7705
9.91711 -11.1535 -15.7694
10.039 -11.0636 -15.7684
10.2618 -10.9877 -15.7649
10.3837 -10.8979 -15.7638
10.4046 -10.7942 -15.7652
10.4255 -10.6905 -15.7666
10.5474 -10.6007 -15.7655
10.5683 -10.4971 -15.7669
10.6901 -10.4072 -15.7658
11.1149 -10.359 -15.7575
11.3377 -10.283 -15.754
11.4595 -10.1932 -15.7529
11.5814 -10.1034 -15.7519
11.7033 -10.0135 -15.7508
11.7242 -9.90988 -15.7522
11.8461 -9.82006 -15.7511
11.9679 -9.73025 -15.7501
12.2917 -9.66812 -15.7442
12.5145 -9.59215 -15.7407
12.5354 -9.48849 -15.7421
12.6573 -9.39867 -15.741
12.7792 -9.30886 -15.7399
13.002 -9.23289 -15.7365
13.1239 -9.14307 -15.7354
13.2457 -9.05325 -15.7343
13.3676 -8.96344 -15.7333
13.4895 -8.87362 -15.7322
13.5104 -8.76996 -15.7336
13.6322 -8.68015 -15.7325
13.6532 -8.57649 -15.7339
13.775 -8.48667 -15.7328
13.8969 -8.39685 -15.7318
14.0188 -8.30704 -15.7307
14.0397 -8.20338 -15.7321
14.1615 -8.11356 -15.731
14.1825 -8.0099 -15.7324
14.3043 -7.92008 -15.7314
14.4262 -7.83027 -15.7303
14.649 -7.7543 -15.7268
14.8718 -7.67833 -15.7233
14.9937 -7.58851 -15.7223
15.1156 -7.49869 -15.7212
15.3384 -7.42272 -15.7177
15.4602 -7.33291 -15.7167
15.4812 -7.22925 -15.718
15.5021 -7.12559 -15.7194
15.6239 -7.03577 -15.7184
15.6449 -6.93211 -15.7197
15.6658 -6.82845 -15.7211
15.6867 -6.72479 -15.7225
15.7076 -6.62113 -15.7238
15.7285 -6.51747 -15.7252
15.7494 -6.41381 -15.7266
15.7704 -6.31015 -15.7279
15.7913 -6.20649 -15.7293
15.8122 -6.10283 -15.7307
15.7321 -5.98533 -15.7345
15.7531 -5.88167 -15.7358
15.774 -5.778 -15.7372
15.7949 -5.67435 -15.7385
15.8158 -5.57068 -15.7399
15.8367 -5.46702 -15.7413
15.8576 -5.36336 -15.7426
15.7776 -5.24586 -15.7464
15.6976 -5.12836 -15.7502
15.7185 -5.0247 -15.7516
15.6384 -4.90719 -15.7554
15.5584 -4.78969 -15.7592
15.5793 -4.68603 -15.7605
15.3983 -4.55468 -15.7667
15.2173 -4.42333 -15.7729
14.7335 -4.25045 -15.7864
14.7544 -4.14679 -15.7878
14.6744 -4.02928 -15.7916
14.3924 -3.88409 -15.8002
14.2114 -3.75274 -15.8064
14.1314 -3.63524 -15.8102
14.0514 -3.51773 -15.814
13.9713 -3.40023 -15.8178
13.8913 -3.28272 -15.8216
13.8113 -3.16522 -15.8254
13.6303 -3.03387 -15.8316
13.5502 -2.91636 -15.8354
13.5711 -2.81271 -15.8367
13.5921 -2.70904 -15.8381
13.512 -2.59154 -15.8419
13.5329 -2.48788 -15.8433
13.5539 -2.38422 -15.8446
13.4738 -2.26672 -15.8484
13.4947 -2.16306 -15.8498
13.4147 -2.04555 -15.8536
12.9309 -1.87267 -15.8671
12.8508 -1.75516 -15.8708
12.7708 -1.63766 -15.8746
12.7917 -1.534 -15.876
12.7117 -1.4165 -15.8798
12.7326 -1.31284 -15.8812
12.7535 -1.20918 -15.8825
12.7744 -1.10552 -15.8839
12.6944 -0.98801 -15.8877
12.7153 -0.884351 -15.8891
12.7362 -0.780689 -15.8904
12.6562 -0.663185 -15.8942
12.5761 -0.54568 -15.898
12.4961 -0.428177 -15.9018
12.4161 -0.310672 -15.9056
12.437 -0.20701 -15.9069
12.4579 -0.10335 -15.9083
12.4788 0.000309229 -15.9097
12.4997 0.103969 -15.911
12.4197 0.221473 -15.9148
12.4406 0.325135 -15.9162
12.3606 0.442637 -15.92
12.3815 0.546299 -15.9213
12.3014 0.663802 -15.9251
12.3224 0.767462 -15.9265
12.3433 0.871124 -15.9279
12.3642 0.974783 -15.9292
12.3851 1.07844 -15.9306
12.406 1.1821 -15.932
12.326 1.29961 -15.9358
12.3469 1.40327 -15.9371
12.3678 1.50693 -15.9385
12.2878 1.62443 -15.9423
12.3087 1.72809 -15.9436
12.2286 1.8456 -15.9474
12.1486 1.9631 -15.9512
12.1695 2.06676 -15.9526
12.0895 2.18427 -15.9564
12.1104 2.28793 -15.9577
12.0304 2.40543 -15.9615
12.0513 2.50909 -15.9629
12.0722 2.61275 -15.9643
11.9922 2.73026 -15.968
12.0131 2.83391 -15.9694
12.034 2.93758 -15.9708
12.0549 3.04124 -15.9722
11.9749 3.15874 -15.9759
11.9958 3.2624 -15.9773
12.0167 3.36606 -15.9787
12.0376 3.46972 -15.98
12.0585 3.57338 -15.9814
11.9785 3.69089 -15.9852
11.8985 3.80839 -15.989
11.9194 3.91205 -15.9904
11.8393 4.02956 -15.9941
11.8602 4.13321 -15.9955
11.8812 4.23687 -15.9969
11.9021 4.34054 -15.9982
11.923 4.4442 -15.9996
11.843 4.5617 -16.0034
11.8639 4.66536 -16.0048
11.8848 4.76902 -16.0061
11.9057 4.87268 -16.0075
11.8257 4.99019 -16.0113
11.8466 5.09385 -16.0126
11.8675 5.19751 -16.014
11.8884 5.30117 -16.0154
11.8084 5.41867 -16.0192
11.8293 5.52233 -16.0205
11.8502 5.62599 -16.0219
11.7702 5.74349 -16.0257
11.7911 5.84715 -16.0271
11.812 5.95082 -16.0284
11.732 6.06832 -16.0322
11.6519 6.18582 -16.036
11.1681 6.35871 -16.0495
11.088 6.47621 -16.0533
11.008 6.59372 -16.0571
15.9516 -6.82151 -15.711
16.0122 -6.6828 -15.71
16.0729 -6.54408 -15.7089
16.0392 -6.44385 -15.7103
16.0998 -6.30513 -15.7092
16.0661 -6.2049 -15.7106
16.0324 -6.10467 -15.712
15.9986 -6.00445 -15.7133
15.9649 -5.90421 -15.7147
15.9312 -5.80398 -15.716
15.9918 -5.66527 -15.715
15.9581 -5.56504 -15.7164
15.9244 -5.46481 -15.7177
15.8907 -5.36458 -15.7191
15.857 -5.26435 -15.7205
16.295 -4.97169 -15.7097
16.3556 -4.83297 -15.7086
16.3219 -4.73274 -15.71
16.2882 -4.63251 -15.7114
16.2545 -4.53228 -15.7128
16.1264 -4.47054 -15.7165
16.0927 -4.37031 -15.7179
16.059 -4.27008 -15.7193
15.9309 -4.20833 -15.7231
15.8972 -4.1081 -15.7244
15.6748 -4.08485 -15.7306
15.6411 -3.98462 -15.732
15.513 -3.92287 -15.7358
15.4793 -3.82265 -15.7372
15.3512 -3.7609 -15.741
15.3175 -3.66067 -15.7423
15.0951 -3.63741 -15.7485
14.8727 -3.61416 -15.7547
14.7446 -3.55241 -15.7585
14.6165 -3.49067 -15.7623
14.5828 -3.39044 -15.7637
14.4547 -3.3287 -15.7675
14.421 -3.22847 -15.7688
14.3873 -3.12824 -15.7702
14.3536 -3.028 -15.7716
14.3199 -2.92778 -15.7729
14.1918 -2.86603 -15.7767
14.1581 -2.7658 -15.7781
14.1244 -2.66557 -15.7795
14.0907 -2.56534 -15.7808
13.9626 -2.5036 -15.7846
13.9289 -2.40337 -15.786
13.8952 -2.30314 -15.7874
13.8614 -2.20291 -15.7887
13.8277 -2.10268 -15.7901
13.794 -2.00245 -15.7914
13.7603 -1.90222 -15.7928
13.7266 -1.80199 -15.7942
13.6929 -1.70176 -15.7955
13.6591 -1.60153 -15.7969
13.6254 -1.5013 -15.7983
13.5917 -1.40107 -15.7996
13.6523 -1.26235 -15.7986
13.6186 -1.16212 -15.8
13.4906 -1.10038 -15.8037
13.4568 -1.00015 -15.8051
13.4231 -0.89992 -15.8065
13.3894 -0.79969 -15.8078
13.3557 -0.69946 -15.8092
13.322 -0.59923 -15.8106
13.2883 -0.499001 -15.8119
13.2545 -0.39877 -15.8133
13.2208 -0.29854 -15.8147
13.1871 -0.19831 -15.816
13.1534 -0.0980811 -15.8174
13.1197 0.00214958 -15.8188
13.086 0.102379 -15.8201
13.0522 0.20261 -15.8215
13.0185 0.30284 -15.8229
12.9848 0.403068 -15.8242
12.9511 0.503299 -15.8256
12.9174 0.603529 -15.827
12.8837 0.703759 -15.8283
12.8499 0.803989 -15.8297
12.8162 0.904218 -15.8311
12.7825 1.00445 -15.8324
12.7488 1.10468 -15.8338
12.7151 1.20491 -15.8352
12.6814 1.30514 -15.8365
12.6476 1.40537 -15.8379
12.7083 1.54408 -15.8368
12.6746 1.64431 -15.8382
12.6408 1.74454 -15.8396
12.7015 1.88326 -15.8385
12.6677 1.98349 -15.8399
12.634 2.08372 -15.8412
12.6003 2.18395 -15.8426
12.5666 2.28418 -15.844
12.5329 2.38441 -15.8453
12.5935 2.52313 -15.8443
12.5598 2.62336 -15.8456
12.5261 2.72359 -15.847
12.4924 2.82382 -15.8484
12.4586 2.92405 -15.8497
12.4249 3.02428 -15.8511
12.3912 3.12451 -15.8525
12.3575 3.22474 -15.8538
12.3238 3.32497 -15.8552
12.2901 3.4252 -15.8566
12.3507 3.56391 -15.8555
12.317 3.66414 -15.8569
12.2833 3.76437 -15.8582
12.2495 3.8646 -15.8596
12.3102 4.00332 -15.8586
12.2765 4.10355 -15.8599
12.2427 4.20378 -15.8613
12.209 4.30401 -15.8627
12.1753 4.40424 -15.864
12.1416 4.50447 -15.8654
12.1079 4.6047 -15.8668
12.0742 4.70493 -15.8681
12.1348 4.84365 -15.8671
12.1011 4.94387 -15.8684
12.0674 5.0441 -15.8698
12.0336 5.14434 -15.8712
11.9999 5.24457 -15.8725
11.9662 5.34479 -15.8739
12.0268 5.48351 -15.8728
11.9931 5.58374 -15.8742
11.9594 5.68397 -15.8756
11.9257 5.7842 -15.8769
11.892 5.88443 -15.8783
11.9526 6.02314 -15.8772
11.9189 6.12338 -15.8786
11.8852 6.22361 -15.88
11.8514 6.32384 -15.8813
11.9121 6.46255 -15.8803
11.8784 6.56278 -15.8817
11.939 6.7015 -15.8806
11.9053 6.80173 -15.882
11.8716 6.90196 -15.8833
11.8378 7.00219 -15.8847
11.7098 7.06393 -15.8885
11.5817 7.12568 -15.8923
11.4536 7.18742 -15.8961
11.4199 7.28765 -15.8974
11.2919 7.34939 -15.9012
11.2581 7.44962 -15.9026
11.1301 7.51137 -15.9064
11.002 7.57311 -15.9102
10.8739 7.63485 -15.914
10.7459 7.69659 -15.9177
10.6178 7.75834 -15.9215
10.5841 7.85857 -15.9229
10.456 7.92031 -15.9267
10.4223 8.02054 -15.9281
10.2942 8.08229 -15.9318
10.0718 8.10554 -15.938
9.94377 8.16729 -15.9418
9.91005 8.26752 -15.9432
9.78198 8.32926 -15.947
9.74827 8.42949 -15.9484
9.6202 8.49123 -15.9521
9.39779 8.51449 -15.9584
9.26972 8.57623 -15.9621
9.14165 8.63798 -15.9659
9.01359 8.69972 -15.9697
8.88552 8.76147 -15.9735
8.66311 8.78473 -15.9797
8.53504 8.84647 -15.9835
8.40697 8.90821 -15.9873
15.7557 -3.95769 -15.8091
15.7388 -3.80724 -15.808
15.6595 -3.73729 -15.8094
15.6427 -3.58685 -15.8083
15.6258 -3.4364 -15.8073
15.5465 -3.36646 -15.8087
15.4672 -3.29651 -15.81
15.3879 -3.22657 -15.8114
15.3086 -3.15663 -15.8128
15.2292 -3.08668 -15.8141
15.1499 -3.01674 -15.8155
15.0706 -2.9468 -15.8168
14.9913 -2.87686 -15.8182
14.912 -2.80691 -15.8196
14.8327 -2.73697 -15.821
14.7534 -2.66702 -15.8223
14.674 -2.59708 -15.8237
14.5947 -2.52714 -15.825
14.5154 -2.4572 -15.8264
14.4361 -2.38725 -15.8278
14.3568 -2.31731 -15.8291
14.2775 -2.24736 -15.8305
14.2606 -2.09692 -15.8295
14.1813 -2.02698 -15.8308
14.102 -1.95703 -15.8322
14.0851 -1.80658 -15.8311
14.0058 -1.73664 -15.8325
13.9265 -1.6667 -15.8339
13.9097 -1.51625 -15.8328
13.8928 -1.3658 -15.8317
13.8135 -1.29586 -15.8331
13.7966 -1.14541 -15.8321
13.7173 -1.07547 -15.8334
13.638 -1.00552 -15.8348
13.5587 -0.935579 -15.8362
13.4794 -0.865635 -15.8375
13.4001 -0.795693 -15.8389
13.3208 -0.72575 -15.8403
13.2414 -0.655807 -15.8416
13.2246 -0.505361 -15.8406
13.1453 -0.435417 -15.8419
13.1284 -0.284972 -15.8409
13.1116 -0.134521 -15.8398
13.0323 -0.0645771 -15.8412
13.0154 0.0858684 -15.8401
12.9986 0.236319 -15.8391
12.9192 0.306262 -15.8404
12.9024 0.456709 -15.8394
12.8231 0.526652 -15.8407
12.7438 0.596596 -15.8421
12.1639 4.49768 -15.8184
12.1471 4.64813 -15.8174
12.0677 4.71807 -15.8187
12.0509 4.86852 -15.8177
12.034 5.01897 -15.8166
11.9547 5.08891 -15.818
12.0003 5.31986 -15.8145
11.9835 5.47031 -15.8134
11.9666 5.62076 -15.8124
11.9498 5.77121 -15.8113
11.933 5.92165 -15.8103
11.9161 6.0721 -15.8092
11.8993 6.22255 -15.8082
11.8824 6.373 -15.8071
11.8031 6.44294 -15.8085
11.7862 6.59339 -15.8074
11.7069 6.66334 -15.8088
11.6901 6.81378 -15.8077
11.6108 6.88372 -15.8091
11.5939 7.03417 -15.808
11.6395 7.26512 -15.8045
11.6227 7.41557 -15.8035
11.5434 7.48552 -15.8048
11.464 7.55546 -15.8062
11.4472 7.70591 -15.8052
11.3679 7.77585 -15.8065
11.2886 7.84579 -15.8079
11.2093 7.91574 -15.8092
11.1299 7.98568 -15.8106
11.0506 8.05562 -15.812
10.9713 8.12557 -15.8134
10.9545 8.27601 -15.8123
10.8751 8.34595 -15.8137
10.7958 8.4159 -15.815
10.7165 8.48584 -15.8164
10.6372 8.55578 -15.8178
10.4954 8.54522 -15.8215
10.4161 8.61517 -15.8229
10.3368 8.68511 -15.8243
10.195 8.67455 -15.8281
10.0532 8.66399 -15.8319
9.97392 8.73393 -15.8332
9.83214 8.72337 -15.837
9.75282 8.79331 -15.8384
9.67351 8.86326 -15.8397
9.59419 8.9332 -15.8411
9.51488 9.00314 -15.8425
9.3731 8.99258 -15.8463
9.29378 9.06252 -15.8476
9.21447 9.13247 -15.849
9.07269 9.12191 -15.8528
8.99337 9.19184 -15.8542
8.91406 9.26179 -15.8555
8.77228 9.25123 -15.8593
8.69296 9.32118 -15.8607
8.55118 9.31061 -15.8645
8.47187 9.38055 -15.8658
8.33009 9.36999 -15.8696
8.25077 9.43994 -15.871
8.10899 9.42938 -15.8748
8.02968 9.49932 -15.8761
7.95036 9.56926 -15.8775
7.80858 9.5587 -15.8813
7.6668 9.54814 -15.8851
7.52502 9.53758 -15.8889
7.38324 9.52701 -15.8927
7.30393 9.59696 -15.894
7.22461 9.6669 -15.8954
7.08283 9.65634 -15.8992
6.94105 9.64578 -15.903
6.79927 9.63521 -15.9068
6.65749 9.62465 -15.9106
6.51571 9.61409 -15.9143
6.4364 9.68404 -15.9157
6.29461 9.67347 -15.9195
6.15283 9.66291 -15.9233
6.07352 9.73286 -15.9247
5.93174 9.72229 -15.9284
5.78996 9.71173 -15.9322
5.64818 9.70117 -15.936
5.5064 9.69061 -15.9398
5.36462 9.68005 -15.9436
5.22284 9.66949 -15.9474
4.8312 9.3369 -15.9609
4.75188 9.40685 -15.9622
4.6101 9.39629 -15.966
4.46832 9.38573 -15.9698
4.38901 9.45567 -15.9712
11.5468 7.34785 -15.818
11.457 7.46973 -15.8169
11.3672 7.59159 -15.8159
11.2912 7.81441 -15.8124
11.2152 8.03723 -15.8089
11.1254 8.1591 -15.8079
11.0218 8.18001 -15.8092
10.9319 8.30188 -15.8082
10.8283 8.32279 -15.8095
10.7385 8.44466 -15.8085
10.6487 8.56653 -15.8074
10.545 8.58744 -15.8088
10.4552 8.70931 -15.8077
10.3515 8.73022 -15.8091
10.2479 8.75114 -15.8105
10.158 8.87301 -15.8094
10.0682 8.99487 -15.8084
9.96457 9.01579 -15.8097
9.87475 9.13766 -15.8087
9.77109 9.15857 -15.81
9.66743 9.17949 -15.8114
9.57761 9.30135 -15.8103
9.47396 9.32227 -15.8117
9.37029 9.34318 -15.8131
9.28048 9.46505 -15.812
9.17682 9.48596 -15.8134
9.07316 9.50688 -15.8148
8.9695 9.52779 -15.8161
8.86584 9.54871 -15.8175
8.76218 9.56962 -15.8188
8.65852 9.59054 -15.8202
8.5687 9.71241 -15.8192
8.46504 9.73332 -15.8205
8.36138 9.75424 -15.8219
8.25772 9.77515 -15.8233
8.16791 9.89702 -15.8222
8.06425 9.91794 -15.8236
7.96059 9.93885 -15.8249
7.85693 9.95976 -15.8263
7.75326 9.98068 -15.8277
7.6496 10.0016 -15.829
7.54594 10.0225 -15.8304
7.42844 9.94247 -15.8342
7.32478 9.96339 -15.8356
7.22112 9.98431 -15.8369
7.11746 10.0052 -15.8383
7.0138 10.0261 -15.8396
6.91014 10.047 -15.841
6.80648 10.068 -15.8424
6.70282 10.0889 -15.8438
6.59916 10.1098 -15.8451
6.4955 10.1307 -15.8465
6.39184 10.1516 -15.8478
6.28818 10.1725 -15.8492
6.18452 10.1935 -15.8506
6.06701 10.1134 -15.8544
5.96335 10.1343 -15.8557
5.85969 10.1552 -15.8571
5.75603 10.1762 -15.8585
5.63853 10.0961 -15.8623
5.53487 10.117 -15.8636
5.43121 10.138 -15.865
5.3137 10.0579 -15.8688
5.21004 10.0788 -15.8701
5.10638 10.0998 -15.8715
4.96119 9.81781 -15.8801
4.84369 9.73777 -15.8839
4.72618 9.65774 -15.8877
4.63637 9.7796 -15.8867
4.53271 9.80052 -15.888
4.42905 9.82143 -15.8894
4.32539 9.84235 -15.8908
4.22173 9.86326 -15.8921
4.11807 9.88418 -15.8935
4.0144 9.9051 -15.8949
3.8969 9.82506 -15.8987
3.79324 9.84597 -15.9
3.67573 9.76594 -15.9038
3.57208 9.78685 -15.9052
3.45457 9.70682 -15.909
3.35091 9.72773 -15.9103
3.2334 9.64769 -15.9141
3.1159 9.56766 -15.9179
3.01224 9.58857 -15.9193
2.89474 9.50854 -15.923
2.77723 9.42849 -15.9268
2.67357 9.44941 -15.9282
2.55607 9.36937 -15.932
2.43856 9.28934 -15.9358
2.32106 9.2093 -15.9396
2.2174 9.23022 -15.9409
2.09989 9.15018 -15.9447
1.99623 9.1711 -15.9461
1.89257 9.19201 -15.9475
1.77507 9.11197 -15.9513
1.67141 9.13289 -15.9526
1.56775 9.1538 -15.954
1.45025 9.07377 -15.9578
1.27736 8.58992 -15.9713
8.66 9.48855 -15.8805
8.52129 9.54918 -15.8795
8.38257 9.60981 -15.8784
8.24386 9.67045 -15.8773
8.14363 9.63673 -15.8787
8.00491 9.69736 -15.8777
7.86619 9.75799 -15.8766
7.68899 9.91297 -15.8731
7.4733 10.1623 -15.8672
7.33458 10.2229 -15.8662
7.23436 10.1892 -15.8675
7.09564 10.2498 -15.8665
6.95692 10.3105 -15.8654
6.81821 10.3711 -15.8643
6.71798 10.3374 -15.8657
6.57926 10.398 -15.8647
6.47903 10.3643 -15.866
6.3788 10.3306 -15.8674
6.27857 10.2969 -15.8688
6.17834 10.2632 -15.8701
6.03962 10.3238 -15.8691
5.93939 10.2901 -15.8704
5.80068 10.3507 -15.8694
5.70045 10.317 -15.8707
5.56173 10.3776 -15.8697
5.42302 10.4383 -15.8686
5.32279 10.4045 -15.87
5.18407 10.4652 -15.8689
5.08384 10.4315 -15.8703
4.98361 10.3977 -15.8717
4.88338 10.364 -15.873
4.78315 10.3303 -15.8744
4.68292 10.2966 -15.8758
4.58269 10.2629 -15.8771
4.48246 10.2292 -15.8785
4.38223 10.1954 -15.8799
4.282 10.1617 -15.8812
4.18177 10.128 -15.8826
4.08154 10.0943 -15.884
3.98131 10.0606 -15.8853
3.88108 10.0269 -15.8867
3.74236 10.0875 -15.8856
3.64213 10.0538 -15.887
3.5419 10.02 -15.8884
3.40319 10.0807 -15.8873
3.30296 10.047 -15.8887
3.20273 10.0132 -15.89
3.1025 9.97953 -15.8914
3.00227 9.94581 -15.8928
2.90204 9.9121 -15.8941
2.80181 9.87838 -15.8955
2.70158 9.84466 -15.8969
2.60135 9.81095 -15.8982
2.50112 9.77723 -15.8996
2.40089 9.74351 -15.901
2.30066 9.70979 -15.9023
2.20043 9.67608 -15.9037
2.1002 9.64236 -15.9051
1.99997 9.60864 -15.9064
1.89974 9.57493 -15.9078
1.79951 9.54121 -15.9092
1.69928 9.50749 -15.9105
1.63754 9.37942 -15.9143
1.53731 9.34571 -15.9157
1.43708 9.31199 -15.9171
1.37533 9.18393 -15.9209
1.2751 9.15021 -15.9222
1.17487 9.11649 -15.9236
1.11313 8.98843 -15.9274
1.0129 8.95471 -15.9287
0.912669 8.92099 -15.9301
0.812439 8.88728 -15.9315
0.71221 8.85356 -15.9328
0.61198 8.81984 -15.9342
0.51175 8.78613 -15.9356
0.411519 8.75241 -15.9369
0.311291 8.71869 -15.9383
0.211061 8.68497 -15.9397
0.11083 8.65126 -15.941
0.0105996 8.61754 -15.9424
-0.0896301 8.58382 -15.9438
-0.151373 8.45576 -15.9476
-0.251603 8.42204 -15.9489
-0.351833 8.38832 -15.9503
-0.413577 8.26026 -15.9541
-0.513808 8.22654 -15.9554
-0.57555 8.09847 -15.9592
2.31214 10.3532 -15.9331
2.16169 10.3364 -15.9321
1.85024 10.4445 -15.9262
1.69979 10.4276 -15.9251
1.54934 10.4108 -15.9241
1.4794 10.3314 -15.9254
1.32895 10.3146 -15.9244
1.25901 10.2353 -15.9257
1.18907 10.156 -15.9271
1.03862 10.1391 -15.926
0.968676 10.0598 -15.9274
0.898733 9.98048 -15.9288
0.828788 9.90117 -15.9301
0.67834 9.88432 -15.9291
0.608396 9.80501 -15.9305
0.538456 9.72569 -15.9318
0.388007 9.70884 -15.9308
0.318064 9.62953 -15.9321
0.24812 9.55021 -15.9335
0.097671 9.53336 -15.9324
0.0277281 9.45405 -15.9338
-0.0422158 9.37474 -15.9352
-0.192661 9.35788 -15.9341
-0.262605 9.27857 -15.9355
-0.332546 9.19925 -15.9368
-0.402489 9.11994 -15.9382
-0.472433 9.04063 -15.9396
-0.542377 8.96131 -15.9409
-0.612321 8.882 -15.9423
-0.682261 8.80268 -15.9437
-0.752205 8.72337 -15.945
-0.822149 8.64405 -15.9464
-0.9726 8.6272 -15.9453
-1.04254 8.54789 -15.9467
-1.11248 8.46857 -15.9481
-1.18243 8.38926 -15.9494
-1.25237 8.30995 -15.9508
-1.32232 8.23063 -15.9522
-1.39226 8.15132 -15.9535
-1.54271 8.13447 -15.9525
-1.61265 8.05515 -15.9538
-1.76309 8.0383 -15.9528
-1.83304 7.95899 -15.9541
-1.90298 7.87967 -15.9555
-1.97292 7.80036 -15.9569
-2.04287 7.72104 -15.9583
-2.11281 7.64173 -15.9596
-2.18275 7.56241 -15.961
-2.25269 7.4831 -15.9623
-2.32264 7.40378 -15.9637
-2.39258 7.32447 -15.9651
-2.46253 7.24516 -15.9664
-2.53247 7.16584 -15.9678
-2.52191 7.02406 -15.9716
-2.59185 6.94475 -15.973
-2.6618 6.86543 -15.9743
-2.73174 6.78612 -15.9757
-2.80168 6.7068 -15.9771
-2.87162 6.62749 -15.9784
-2.94157 6.54817 -15.9798
-2.93101 6.40639 -15.9836
-3.00095 6.32708 -15.985
-3.07089 6.24776 -15.9863
-3.14084 6.16845 -15.9877
-3.21078 6.08914 -15.989
-3.28072 6.00982 -15.9904
-3.35067 5.93051 -15.9918
-3.42061 5.85119 -15.9931
-3.49055 5.77188 -15.9945
-3.47999 5.63009 -15.9983
-3.54993 5.55078 -15.9997
-3.61988 5.47147 -16.001
-3.60932 5.32969 -16.0048
-3.67926 5.25037 -16.0062
-3.6687 5.10859 -16.01
-3.73864 5.02928 -16.0114
-3.80858 4.94996 -16.0127
-3.79802 4.80818 -16.0165
-3.78746 4.6664 -16.0203
-2.60757 7.27477 -15.9953
-2.83038 7.1988 -15.9918
-2.95226 7.10899 -15.9908
-3.07412 7.01917 -15.9897
-3.09504 6.91551 -15.9911
-3.2169 6.82569 -15.99
-3.23782 6.72203 -15.9914
-3.35969 6.63222 -15.9903
-3.3806 6.52856 -15.9917
-3.40151 6.4249 -15.9931
-3.52338 6.33508 -15.992
-3.5443 6.23142 -15.9934
-3.56521 6.12776 -15.9947
-3.68708 6.03795 -15.9937
-3.70799 5.93429 -15.995
-3.72891 5.83063 -15.9964
-3.74983 5.72697 -15.9978
-3.77074 5.62331 -15.9991
-3.79165 5.51964 -16.0005
-3.91352 5.42983 -15.9995
-3.93444 5.32617 -16.0008
-4.0563 5.23635 -15.9998
-4.07722 5.13269 -16.0011
-4.19909 5.04288 -16.0001
-4.22 4.93922 -16.0014
-4.34187 4.8494 -16.0004
-4.36279 4.74574 -16.0017
-4.3837 4.64208 -16.0031
-4.40462 4.53842 -16.0045
-4.42553 4.43476 -16.0058
-4.44645 4.3311 -16.0072
-4.56831 4.24129 -16.0061
-4.58922 4.13763 -16.0075
-4.71109 4.04781 -16.0065
-4.83296 3.95799 -16.0054
-4.95483 3.86818 -16.0043
-4.97574 3.76452 -16.0057
-5.09761 3.6747 -16.0047
-5.21948 3.58489 -16.0036
-5.24039 3.48123 -16.005
-5.36226 3.39141 -16.0039
-5.38317 3.28775 -16.0053
-5.40409 3.18409 -16.0066
-5.425 3.08043 -16.008
-5.44592 2.97677 -16.0094
-5.46684 2.87311 -16.0107
-5.48775 2.76945 -16.0121
-5.50866 2.66579 -16.0135
-5.63053 2.57597 -16.0124
-5.7524 2.48616 -16.0114
-5.77331 2.3825 -16.0127
-5.79423 2.27884 -16.0141
-5.81514 2.17518 -16.0154
-5.83606 2.07152 -16.0168
-5.85698 1.96785 -16.0182
-5.87789 1.86419 -16.0195
-5.8988 1.76054 -16.0209
-5.91972 1.65688 -16.0223
-5.94063 1.55322 -16.0236
-5.8606 1.43571 -16.0274
-5.88151 1.33205 -16.0288
-5.80148 1.21455 -16.0326
-5.72144 1.09704 -16.0364
-5.6414 0.979538 -16.0402
-5.66232 0.875877 -16.0415
-5.78418 0.786061 -16.0405
-5.90605 0.696245 -16.0394
-5.92697 0.592584 -16.0408
-5.94788 0.488924 -16.0421
-5.9688 0.385265 -16.0435
-5.98971 0.281605 -16.0449
-5.90968 0.164101 -16.0487
-5.93059 0.0604399 -16.05
-5.95151 -0.0432196 -16.0514
-5.97242 -0.146882 -16.0528
-5.99334 -0.250539 -16.0541
-5.9133 -0.368044 -16.0579
-5.93422 -0.471704 -16.0593
-5.95513 -0.575364 -16.0607
-5.87509 -0.692871 -16.0644
-5.89601 -0.796531 -16.0658
-5.71502 -0.927878 -16.072
-5.63498 -1.04538 -16.0758
-5.6559 -1.14904 -16.0772
-5.57586 -1.26655 -16.081
-5.59678 -1.37021 -16.0823
-5.51674 -1.48771 -16.0861
-5.4367 -1.60522 -16.0899
-5.35667 -1.72272 -16.0937
-5.27663 -1.84023 -16.0975
-5.29754 -1.94389 -16.0988
-5.21751 -2.06139 -16.1026
-5.23842 -2.16505 -16.104
-5.25934 -2.26871 -16.1054
-5.1793 -2.38621 -16.1092
-5.20022 -2.48987 -16.1105
-5.22113 -2.59354 -16.1119
-5.1411 -2.71104 -16.1157
-6.77788 1.55891 -15.9861
-6.83851 1.42019 -15.9851
-6.80479 1.31996 -15.9865
-6.77108 1.21973 -15.9878
-6.83171 1.08102 -15.9868
-6.79799 0.980789 -15.9881
-6.76427 0.880558 -15.9895
-6.73056 0.780327 -15.9909
-6.69684 0.680098 -15.9922
-6.66312 0.579869 -15.9936
-6.6294 0.479639 -15.9949
-6.59569 0.379409 -15.9963
-6.56197 0.279179 -15.9977
-6.52826 0.178948 -15.9991
-6.58889 0.040231 -15.998
-6.55517 -0.0599995 -15.9994
-6.52146 -0.160229 -16.0007
-6.48774 -0.260459 -16.0021
-6.45402 -0.36069 -16.0035
-6.51465 -0.499403 -16.0024
-6.48093 -0.599634 -16.0038
-6.44722 -0.699863 -16.0051
-6.4135 -0.800095 -16.0065
-6.37978 -0.900325 -16.0079
-6.34606 -1.00055 -16.0092
-6.31235 -1.10078 -16.0106
-6.27863 -1.20101 -16.012
-6.24492 -1.30124 -16.0133
-6.2112 -1.40147 -16.0147
-6.17748 -1.5017 -16.0161
-6.23812 -1.64042 -16.015
-6.2044 -1.74065 -16.0164
-6.17068 -1.84088 -16.0177
-6.13696 -1.94111 -16.0191
-6.10325 -2.04134 -16.0205
-6.06953 -2.14157 -16.0218
-6.03581 -2.2418 -16.0232
-6.0021 -2.34203 -16.0246
-5.96838 -2.44226 -16.0259
-5.84031 -2.504 -16.0297
-5.80659 -2.60423 -16.0311
-5.77288 -2.70446 -16.0325
-5.73916 -2.80469 -16.0338
-5.70544 -2.90492 -16.0352
-5.67173 -3.00515 -16.0366
-5.54366 -3.0669 -16.0403
-5.50995 -3.16713 -16.0417
-5.47623 -3.26736 -16.0431
-5.44251 -3.36759 -16.0444
-5.40879 -3.46782 -16.0458
-5.37508 -3.56805 -16.0472
-5.34136 -3.66828 -16.0485
-5.30764 -3.76851 -16.0499
-5.17957 -3.83025 -16.0537
-5.14586 -3.93048 -16.0551
-5.11214 -4.03071 -16.0564
-5.07843 -4.13094 -16.0578
-5.0447 -4.23117 -16.0592
-4.91664 -4.29291 -16.0629
-4.88292 -4.39314 -16.0643
-4.75486 -4.45489 -16.0681
-4.72114 -4.55511 -16.0695
-4.68742 -4.65534 -16.0708
-4.55936 -4.71709 -16.0746
-4.52564 -4.81732 -16.076
-4.49193 -4.91755 -16.0774
-4.45821 -5.01778 -16.0787
-4.33014 -5.07952 -16.0825
-4.29642 -5.17975 -16.0839
-4.26271 -5.27998 -16.0852
-4.22899 -5.38021 -16.0866
-4.10092 -5.44196 -16.0904
-4.06721 -5.54219 -16.0918
-4.03349 -5.64242 -16.0931
-3.99977 -5.74265 -16.0945
-3.87171 -5.80439 -16.0983
-3.83799 -5.90462 -16.0997
-3.70992 -5.96636 -16.1034
-3.67621 -6.06659 -16.1048
-3.64249 -6.16682 -16.1062
-3.60878 -6.26705 -16.1075
-3.57506 -6.36728 -16.1089
-3.54134 -6.46751 -16.1103
-3.41327 -6.52925 -16.1141
-3.37955 -6.62949 -16.1154
-3.34583 -6.72971 -16.1168
-3.31212 -6.82994 -16.1182
-3.18406 -6.89169 -16.1219
-3.15034 -6.99192 -16.1233
-3.11662 -7.09215 -16.1247
-3.0829 -7.19238 -16.126
-3.04919 -7.29261 -16.1274
-2.92112 -7.35435 -16.1312
-2.88741 -7.45458 -16.1326
-2.85369 -7.55481 -16.1339
-2.72562 -7.61655 -16.1377
-2.6919 -7.71679 -16.1391
-2.56384 -7.77853 -16.1429
-2.53012 -7.87876 -16.1442
-2.49641 -7.97899 -16.1456
-2.46269 -8.07922 -16.147
-2.33462 -8.14096 -16.1508
-2.11221 -8.16422 -16.157
-1.98414 -8.22596 -16.1608
-1.95042 -8.32619 -16.1621
-1.91671 -8.42642 -16.1635
-1.88299 -8.52665 -16.1649
-1.84927 -8.62688 -16.1662
-1.81556 -8.72711 -16.1676
-1.68749 -8.78886 -16.1714
-1.65377 -8.88909 -16.1727
-1.52571 -8.95083 -16.1765
-1.49199 -9.05106 -16.1779
-1.36392 -9.1128 -16.1817
-1.3302 -9.21303 -16.1831
-1.29649 -9.31326 -16.1844
-1.16842 -9.37501 -16.1882
-1.13471 -9.47524 -16.1896
-1.10099 -9.57547 -16.1909
-1.06727 -9.6757 -16.1923
-0.939204 -9.73744 -16.1961
-0.811138 -9.79918 -16.1999
