ply
format ascii 1.0
comment VCGLIB generated
element vertex 1158
property float x
property float y
property float z
element face 0
property list uchar int vertex_indices
end_header
3.85762 -12.736 -14.8099
4.4911 -13.0939 -14.7943
4.64154 -13.077 -14.7933
4.8725 -13.1227 -14.7898
5.02294 -13.1058 -14.7887
5.2539 -13.1514 -14.7852
5.40434 -13.1346 -14.7842
5.55479 -13.1177 -14.7831
5.78574 -13.1634 -14.7796
5.93619 -13.1465 -14.7786
6.08664 -13.1297 -14.7775
6.23709 -13.1128 -14.7765
6.38753 -13.096 -14.7754
6.53798 -13.0791 -14.7744
6.68843 -13.0623 -14.7733
6.75838 -12.9829 -14.7747
6.90882 -12.9661 -14.7736
6.97876 -12.8868 -14.775
7.04871 -12.8075 -14.7763
7.11865 -12.7281 -14.7777
7.2691 -12.7113 -14.7766
7.33904 -12.632 -14.778
7.48949 -12.6151 -14.777
7.63994 -12.5983 -14.7759
7.79039 -12.5814 -14.7748
7.86033 -12.5021 -14.7762
8.01077 -12.4853 -14.7751
8.08072 -12.406 -14.7765
8.15066 -12.3266 -14.7779
8.22061 -12.2473 -14.7793
8.29055 -12.168 -14.7806
8.36049 -12.0887 -14.782
8.43043 -12.0094 -14.7833
8.50038 -11.9301 -14.7847
8.65083 -11.9132 -14.7837
8.72077 -11.8339 -14.785
8.79071 -11.7546 -14.7864
8.86066 -11.6753 -14.7878
9.01111 -11.6584 -14.7867
9.08105 -11.5791 -14.7881
9.15099 -11.4998 -14.7894
9.14043 -11.358 -14.7932
9.21037 -11.2787 -14.7946
9.28032 -11.1994 -14.7959
9.35026 -11.1201 -14.7973
9.50071 -11.1032 -14.7963
9.57065 -11.0239 -14.7976
9.7211 -11.0071 -14.7966
9.79104 -10.9277 -14.7979
9.86098 -10.8484 -14.7993
9.93093 -10.7691 -14.8007
10.0814 -10.7523 -14.7996
10.1513 -10.673 -14.801
10.3018 -10.6561 -14.7999
10.4522 -10.6393 -14.7989
10.5222 -10.5599 -14.8002
10.6726 -10.5431 -14.7992
10.7425 -10.4638 -14.8005
10.893 -10.4469 -14.7995
10.9629 -10.3676 -14.8008
11.0329 -10.2883 -14.8022
11.1833 -10.2715 -14.8011
11.2533 -10.1921 -14.8025
11.4037 -10.1753 -14.8015
11.4737 -10.096 -14.8028
11.6241 -10.0791 -14.8018
11.6941 -9.99981 -14.8031
11.764 -9.9205 -14.8045
11.8339 -9.84118 -14.8059
11.9844 -9.82433 -14.8048
12.0543 -9.74502 -14.8062
12.1243 -9.6657 -14.8075
12.1942 -9.58639 -14.8089
12.2642 -9.50707 -14.8103
12.4146 -9.49022 -14.8092
12.4846 -9.41091 -14.8106
12.635 -9.39406 -14.8095
12.7049 -9.31474 -14.8109
12.7749 -9.23543 -14.8123
12.9253 -9.21858 -14.8112
12.9953 -9.13926 -14.8126
13.0652 -9.05995 -14.8139
13.1352 -8.98063 -14.8153
13.2051 -8.90132 -14.8167
13.3556 -8.88447 -14.8156
13.4255 -8.80516 -14.817
13.4954 -8.72584 -14.8183
13.5654 -8.64653 -14.8197
13.6353 -8.56721 -14.8211
13.7053 -8.4879 -14.8224
13.7752 -8.40858 -14.8238
13.8452 -8.32927 -14.8252
13.9151 -8.24995 -14.8265
13.985 -8.17064 -14.8279
14.1355 -8.15379 -14.8268
14.2054 -8.07448 -14.8282
14.2754 -7.99516 -14.8296
14.4258 -7.97831 -14.8285
14.5763 -7.96146 -14.8275
14.6462 -7.88215 -14.8288
14.7162 -7.80283 -14.8302
14.8666 -7.78598 -14.8291
14.9365 -7.70667 -14.8305
15.0065 -7.62735 -14.8319
15.0764 -7.54804 -14.8332
15.1464 -7.46872 -14.8346
15.2163 -7.38941 -14.836
15.2863 -7.31009 -14.8373
15.3562 -7.23078 -14.8387
15.4262 -7.15146 -14.8401
15.4156 -7.00969 -14.8439
15.4855 -6.93037 -14.8452
15.5555 -6.85105 -14.8466
15.5449 -6.70928 -14.8504
15.4538 -6.50503 -14.8566
15.2018 -6.17586 -14.8676
15.1912 -6.03407 -14.8714
15.2612 -5.95476 -14.8728
15.2506 -5.81298 -14.8766
15.24 -5.6712 -14.8804
6.7731 -12.8529 -14.8075
7.19783 -12.8046 -14.7992
7.5216 -12.7425 -14.7933
7.74442 -12.6665 -14.7898
7.86628 -12.5767 -14.7887
7.8872 -12.473 -14.7901
7.90812 -12.3693 -14.7915
8.02998 -12.2795 -14.7904
8.2528 -12.2036 -14.7869
8.37467 -12.1137 -14.7859
8.39558 -12.0101 -14.7872
8.4165 -11.9064 -14.7886
8.53837 -11.8166 -14.7876
8.55928 -11.7129 -14.7889
8.68114 -11.6231 -14.7879
8.80302 -11.5333 -14.7868
9.02583 -11.4573 -14.7833
9.1477 -11.3675 -14.7823
9.26957 -11.2777 -14.7812
9.39143 -11.1879 -14.7802
9.61425 -11.1119 -14.7767
9.73612 -11.0221 -14.7756
9.85798 -10.9323 -14.7746
9.97985 -10.8425 -14.7735
10.1017 -10.7527 -14.7724
10.1226 -10.649 -14.7738
10.2445 -10.5592 -14.7728
10.3664 -10.4694 -14.7717
10.4882 -10.3796 -14.7706
10.6101 -10.2897 -14.7696
10.631 -10.1861 -14.771
10.7529 -10.0963 -14.7699
11.1776 -10.048 -14.7616
11.4004 -9.97201 -14.7581
11.5223 -9.88219 -14.757
11.7451 -9.80622 -14.7536
11.867 -9.7164 -14.7525
12.0898 -9.64043 -14.749
12.2117 -9.55062 -14.748
12.3335 -9.4608 -14.7469
12.3544 -9.35714 -14.7483
12.4763 -9.26732 -14.7472
12.5982 -9.17751 -14.7462
12.6191 -9.07385 -14.7475
12.741 -8.98403 -14.7465
12.8628 -8.89422 -14.7454
12.9847 -8.8044 -14.7444
13.1066 -8.71458 -14.7433
13.3294 -8.63861 -14.7398
13.4513 -8.5488 -14.7388
13.5731 -8.45898 -14.7377
13.695 -8.36917 -14.7366
13.7159 -8.26551 -14.738
13.8378 -8.17569 -14.737
13.9596 -8.08587 -14.7359
14.0815 -7.99606 -14.7348
14.1024 -7.8924 -14.7362
14.2243 -7.80258 -14.7351
14.2452 -7.69892 -14.7365
14.3671 -7.6091 -14.7355
14.5899 -7.53313 -14.732
14.9137 -7.47101 -14.7261
15.0355 -7.38119 -14.725
15.0564 -7.27753 -14.7264
15.1783 -7.18771 -14.7253
15.3002 -7.0979 -14.7243
15.3211 -6.99424 -14.7256
15.443 -6.90442 -14.7246
15.4639 -6.80076 -14.7259
15.4848 -6.6971 -14.7273
15.5057 -6.59344 -14.7287
15.5266 -6.48978 -14.73
15.5475 -6.38612 -14.7314
15.4675 -6.26862 -14.7352
15.3875 -6.15111 -14.739
15.3074 -6.03361 -14.7428
15.2274 -5.9161 -14.7466
15.2483 -5.81244 -14.7479
15.2692 -5.70878 -14.7493
15.2901 -5.60512 -14.7507
15.2101 -5.48762 -14.7544
15.231 -5.38396 -14.7558
15.151 -5.26645 -14.7596
15.1719 -5.16279 -14.761
15.0918 -5.04529 -14.7648
15.0118 -4.92779 -14.7685
15.0327 -4.82413 -14.7699
14.9527 -4.70662 -14.7737
14.8727 -4.58912 -14.7775
14.7926 -4.47161 -14.7813
14.7126 -4.35411 -14.7851
14.6325 -4.2366 -14.7889
14.5525 -4.1191 -14.7926
14.4725 -4.00159 -14.7964
14.3924 -3.88409 -14.8002
14.2114 -3.75274 -14.8064
14.0305 -3.62139 -14.8127
13.9504 -3.50389 -14.8164
13.5675 -3.34485 -14.8275
13.4875 -3.22734 -14.8313
13.5084 -3.12368 -14.8327
13.5293 -3.02002 -14.834
13.4493 -2.90252 -14.8378
13.3692 -2.78502 -14.8416
13.3902 -2.68136 -14.843
13.3101 -2.56385 -14.8468
13.2301 -2.44635 -14.8505
13.1501 -2.32884 -14.8543
13.07 -2.21134 -14.8581
12.99 -2.09383 -14.8619
12.9099 -1.97633 -14.8657
12.9309 -1.87267 -14.8671
12.8508 -1.75516 -14.8708
12.7708 -1.63766 -14.8746
12.7917 -1.534 -14.876
12.7117 -1.4165 -14.8798
12.7326 -1.31284 -14.8812
12.6525 -1.19533 -14.8849
12.6735 -1.09167 -14.8863
12.6944 -0.98801 -14.8877
12.6143 -0.870505 -14.8915
12.5343 -0.752999 -14.8953
12.4543 -0.635498 -14.899
12.3742 -0.517991 -14.9028
12.2942 -0.400487 -14.9066
12.3151 -0.296827 -14.908
12.2351 -0.179322 -14.9118
12.256 -0.0756629 -14.9131
12.2769 0.0279968 -14.9145
12.2978 0.131656 -14.9159
12.2178 0.249161 -14.9197
12.2387 0.352823 -14.921
12.2596 0.456483 -14.9224
12.2805 0.560144 -14.9238
12.2005 0.677646 -14.9276
12.2214 0.781306 -14.9289
12.2423 0.884968 -14.9303
12.2632 0.988628 -14.9317
12.2841 1.09229 -14.933
12.2041 1.20979 -14.9368
12.225 1.31345 -14.9382
12.2459 1.41711 -14.9395
12.1659 1.53462 -14.9433
12.1868 1.63828 -14.9447
12.2077 1.74194 -14.9461
12.1277 1.85944 -14.9499
12.1486 1.9631 -14.9512
11.9676 2.09445 -14.9574
11.9885 2.19811 -14.9588
12.0094 2.30177 -14.9602
11.9294 2.41928 -14.964
11.9503 2.52294 -14.9653
11.9712 2.6266 -14.9667
11.8912 2.7441 -14.9705
11.9121 2.84776 -14.9718
11.8321 2.96526 -14.9756
11.853 3.06893 -14.977
11.8739 3.17259 -14.9784
11.7939 3.29009 -14.9821
11.8148 3.39375 -14.9835
11.8357 3.49741 -14.9849
11.8566 3.60107 -14.9863
11.7766 3.71857 -14.99
11.7975 3.82224 -14.9914
11.8184 3.9259 -14.9928
11.8393 4.02956 -14.9941
11.7593 4.14706 -14.9979
11.7802 4.25072 -14.9993
11.8011 4.35438 -15.0007
11.822 4.45804 -15.002
11.742 4.57555 -15.0058
11.7629 4.67921 -15.0072
11.7838 4.78287 -15.0085
11.7038 4.90037 -15.0123
11.7247 5.00403 -15.0137
11.7456 5.10769 -15.0151
11.7665 5.21135 -15.0164
11.6865 5.32885 -15.0202
11.7074 5.43252 -15.0216
11.7283 5.53617 -15.0229
11.7492 5.63983 -15.0243
11.6692 5.75734 -15.0281
11.6901 5.861 -15.0295
11.711 5.96466 -15.0308
11.631 6.08216 -15.0346
11.1472 6.25505 -15.0481
11.0671 6.37255 -15.0519
10.9871 6.49006 -15.0557
10.8061 6.6214 -15.0619
15.2912 -7.09092 -14.728
15.4461 -6.91371 -14.7245
15.6955 -6.69803 -14.7186
15.8505 -6.52082 -14.7151
15.9111 -6.38211 -14.7141
15.8774 -6.28188 -14.7154
15.8437 -6.18165 -14.7168
15.8099 -6.08142 -14.7182
15.7762 -5.98119 -14.7195
15.7425 -5.88096 -14.7209
15.7088 -5.78073 -14.7223
15.6751 -5.6805 -14.7236
15.6414 -5.58027 -14.725
15.6076 -5.48004 -14.7264
15.5739 -5.37981 -14.7277
15.6346 -5.24109 -14.7267
15.6008 -5.14086 -14.728
15.5671 -5.04063 -14.7294
15.6278 -4.90192 -14.7283
15.594 -4.80168 -14.7297
15.5603 -4.70146 -14.7311
15.5266 -4.60123 -14.7325
15.4929 -4.501 -14.7338
15.4592 -4.40077 -14.7352
15.4255 -4.30054 -14.7365
15.2974 -4.23879 -14.7403
15.1693 -4.17705 -14.7441
15.1356 -4.07682 -14.7455
15.0075 -4.01508 -14.7493
14.9738 -3.91485 -14.7506
14.9401 -3.81462 -14.752
14.812 -3.75287 -14.7558
14.684 -3.69113 -14.7596
14.6503 -3.5909 -14.761
14.5222 -3.52916 -14.7647
14.4885 -3.42893 -14.7661
14.3604 -3.36718 -14.7699
14.3267 -3.26695 -14.7713
14.1986 -3.20521 -14.7751
14.1649 -3.10498 -14.7764
14.1312 -3.00475 -14.7778
14.0975 -2.90452 -14.7792
14.0637 -2.80429 -14.7805
14.03 -2.70406 -14.7819
13.902 -2.64231 -14.7857
13.8682 -2.54208 -14.787
13.8345 -2.44186 -14.7884
13.8008 -2.34162 -14.7898
13.7671 -2.24139 -14.7911
13.639 -2.17965 -14.7949
13.6053 -2.07942 -14.7963
13.5716 -1.97919 -14.7977
13.5379 -1.87896 -14.799
13.5042 -1.77873 -14.8004
13.4705 -1.6785 -14.8018
13.4367 -1.57827 -14.8031
13.403 -1.47804 -14.8045
13.3693 -1.37781 -14.8058
13.3356 -1.27758 -14.8072
13.3019 -1.17735 -14.8086
13.2681 -1.07712 -14.81
13.2344 -0.976892 -14.8113
13.2007 -0.876663 -14.8127
13.167 -0.776433 -14.8141
13.1333 -0.676203 -14.8154
13.0996 -0.575974 -14.8168
13.0658 -0.475743 -14.8181
13.0321 -0.375513 -14.8195
13.0928 -0.236797 -14.8185
13.059 -0.136567 -14.8198
13.0253 -0.0363369 -14.8212
12.9916 0.0638933 -14.8226
12.8635 0.125637 -14.8263
12.8298 0.225867 -14.8277
12.7961 0.326095 -14.8291
12.7624 0.426326 -14.8304
12.7287 0.526556 -14.8318
12.695 0.626786 -14.8332
12.6612 0.727016 -14.8345
12.6275 0.827245 -14.8359
12.5938 0.927476 -14.8373
12.6544 1.06619 -14.8362
12.6207 1.16642 -14.8376
12.587 1.26665 -14.8389
12.5533 1.36688 -14.8403
12.5196 1.46711 -14.8417
12.4859 1.56734 -14.843
12.4521 1.66757 -14.8444
12.4184 1.7678 -14.8458
12.3847 1.86803 -14.8471
12.351 1.96826 -14.8485
12.3173 2.06849 -14.8499
12.2836 2.16872 -14.8512
12.3442 2.30744 -14.8502
12.3105 2.40767 -14.8515
12.2767 2.5079 -14.8529
12.243 2.60813 -14.8543
12.2093 2.70836 -14.8557
12.2699 2.84707 -14.8546
12.2362 2.9473 -14.856
12.2025 3.04753 -14.8573
12.1688 3.14776 -14.8587
12.1351 3.24799 -14.8601
12.1014 3.34822 -14.8614
12.162 3.48694 -14.8604
12.1283 3.58717 -14.8617
12.0946 3.6874 -14.8631
12.0608 3.78763 -14.8645
12.0271 3.88786 -14.8658
12.0878 4.02658 -14.8648
12.054 4.12681 -14.8661
12.0203 4.22704 -14.8675
11.9866 4.32727 -14.8689
11.9529 4.4275 -14.8702
11.9192 4.52773 -14.8716
11.9798 4.66644 -14.8705
11.9461 4.76667 -14.8719
11.9124 4.8669 -14.8733
11.8787 4.96713 -14.8746
11.8449 5.06736 -14.876
11.9056 5.20608 -14.875
11.8719 5.30631 -14.8763
11.8381 5.40654 -14.8777
11.8044 5.50676 -14.879
11.7707 5.607 -14.8804
11.8313 5.74571 -14.8794
11.7976 5.84594 -14.8807
11.7639 5.94617 -14.8821
11.7302 6.0464 -14.8835
11.6965 6.14663 -14.8848
11.6628 6.24686 -14.8862
11.629 6.34709 -14.8876
11.5953 6.44732 -14.8889
11.5616 6.54755 -14.8903
11.5279 6.64778 -14.8916
11.4942 6.74801 -14.893
11.3661 6.80975 -14.8968
11.238 6.8715 -14.9006
11.2043 6.97173 -14.902
11.0763 7.03347 -14.9057
11.0425 7.1337 -14.9071
10.9145 7.19545 -14.9109
10.8807 7.29567 -14.9123
10.7527 7.35742 -14.9161
10.719 7.45765 -14.9174
10.6852 7.55788 -14.9188
10.5572 7.61962 -14.9226
10.3348 7.64288 -14.9288
10.2067 7.70462 -14.9326
9.98429 7.72788 -14.9388
9.95057 7.82811 -14.9402
9.8225 7.88985 -14.944
9.69444 7.9516 -14.9477
9.66072 8.05183 -14.9491
9.53265 8.11357 -14.9529
9.49893 8.2138 -14.9543
9.37087 8.27555 -14.9581
9.33715 8.37577 -14.9594
9.20909 8.43752 -14.9632
9.08102 8.49926 -14.967
8.57556 8.40706 -14.9805
8.35314 8.43032 -14.9867
8.22508 8.49206 -14.9905
8.09701 8.5538 -14.9943
7.96894 8.61555 -14.9981
7.84088 8.67729 -15.0018
7.71281 8.73903 -15.0056
7.3017 8.68532 -15.0167
7.17364 8.74706 -15.0205
15.6357 -4.80099 -14.8206
15.6188 -4.65054 -14.8195
15.602 -4.5001 -14.8185
15.5851 -4.34965 -14.8174
15.6307 -4.11869 -14.8139
15.5514 -4.04875 -14.8153
15.5346 -3.89831 -14.8143
15.4553 -3.82836 -14.8156
15.4384 -3.67792 -14.8146
15.3591 -3.60797 -14.8159
15.3423 -3.45752 -14.8149
15.2629 -3.38758 -14.8162
15.1836 -3.31764 -14.8176
15.1043 -3.24769 -14.819
15.025 -3.17775 -14.8203
14.9457 -3.10781 -14.8217
14.8664 -3.03786 -14.8231
14.8495 -2.88742 -14.822
14.7702 -2.81748 -14.8234
14.6909 -2.74753 -14.8247
14.6116 -2.67759 -14.8261
14.5323 -2.60765 -14.8275
14.3905 -2.6182 -14.8313
14.3112 -2.54826 -14.8326
14.2318 -2.47832 -14.834
14.1525 -2.40837 -14.8354
14.1357 -2.25793 -14.8343
14.0564 -2.18799 -14.8357
13.9771 -2.11804 -14.837
13.8977 -2.0481 -14.8384
13.8184 -1.97816 -14.8398
13.7391 -1.90822 -14.8411
13.6598 -1.83827 -14.8425
13.6429 -1.68782 -14.8414
13.6261 -1.53737 -14.8404
13.6092 -1.38693 -14.8393
13.5924 -1.23648 -14.8383
13.5131 -1.16653 -14.8396
13.4338 -1.09659 -14.841
13.4169 -0.946142 -14.8399
13.3376 -0.876202 -14.8413
13.2583 -0.806258 -14.8427
13.2414 -0.655807 -14.8416
13.1621 -0.585863 -14.843
13.1453 -0.435417 -14.8419
13.1284 -0.284972 -14.8409
13.0491 -0.215028 -14.8422
12.9698 -0.145084 -14.8436
12.8905 -0.0751405 -14.845
12.8112 -0.00519705 -14.8463
12.6694 -0.0157599 -14.8501
12.8062 0.677101 -14.8397
12.7894 0.827546 -14.8386
12.7101 0.89749 -14.84
12.6932 1.04794 -14.8389
12.6139 1.11788 -14.8403
12.5346 1.18783 -14.8417
12.4553 1.25777 -14.843
12.4384 1.40822 -14.842
12.609 1.80018 -14.8336
12.5921 1.95063 -14.8326
12.5753 2.10108 -14.8315
12.5584 2.25152 -14.8305
12.5416 2.40197 -14.8294
12.5247 2.55242 -14.8284
12.4454 2.62236 -14.8297
12.4286 2.77281 -14.8287
12.4117 2.92326 -14.8276
12.3324 2.9932 -14.829
12.3156 3.14365 -14.8279
12.2987 3.2941 -14.8269
12.2194 3.36404 -14.8282
12.2025 3.51449 -14.8272
12.1857 3.66493 -14.8261
12.1688 3.81538 -14.8251
12.152 3.96583 -14.824
12.1351 4.11628 -14.823
12.1183 4.26673 -14.8219
12.1014 4.41717 -14.8208
12.0221 4.48712 -14.8222
11.9428 4.55706 -14.8236
11.926 4.70751 -14.8225
11.8467 4.77745 -14.8239
11.8298 4.9279 -14.8228
11.813 5.07835 -14.8218
11.8586 5.3093 -14.8183
11.8417 5.45975 -14.8172
11.8873 5.6907 -14.8137
11.8705 5.84115 -14.8127
11.7912 5.91109 -14.8141
11.7743 6.06154 -14.813
11.7575 6.21199 -14.8119
11.7406 6.36244 -14.8109
11.6613 6.43238 -14.8122
11.6445 6.58283 -14.8112
11.6276 6.73328 -14.8101
11.5483 6.80322 -14.8115
11.5314 6.95367 -14.8104
11.5146 7.10411 -14.8094
11.4977 7.25457 -14.8083
11.4809 7.40501 -14.8073
11.464 7.55546 -14.8062
11.3847 7.6254 -14.8076
11.3054 7.69535 -14.8089
11.2886 7.84579 -14.8079
11.2093 7.91574 -14.8092
11.1299 7.98568 -14.8106
11.0506 8.05562 -14.812
10.9713 8.12557 -14.8134
10.892 8.19551 -14.8147
10.8127 8.26545 -14.8161
10.6709 8.25489 -14.8199
10.5916 8.32483 -14.8212
10.5123 8.39478 -14.8226
10.3705 8.38421 -14.8264
10.2287 8.37365 -14.8302
10.0869 8.36309 -14.834
10.0076 8.43303 -14.8353
9.9283 8.50298 -14.8367
9.78652 8.49241 -14.8405
9.7072 8.56236 -14.8419
9.62789 8.6323 -14.8432
9.54858 8.70224 -14.8446
9.46926 8.77219 -14.846
9.38995 8.84213 -14.8473
9.31063 8.91207 -14.8487
9.23132 8.98202 -14.8501
9.08954 8.97146 -14.8538
9.01023 9.0414 -14.8552
8.86844 9.03084 -14.859
8.78913 9.10078 -14.8604
8.64735 9.09022 -14.8642
8.56803 9.16016 -14.8655
8.48872 9.23011 -14.8669
8.4094 9.30005 -14.8683
8.33009 9.36999 -14.8696
8.18831 9.35943 -14.8734
8.04653 9.34887 -14.8772
7.96721 9.41881 -14.8786
7.82543 9.40825 -14.8824
7.68365 9.39769 -14.8861
7.54187 9.38713 -14.8899
7.46256 9.45707 -14.8913
7.25831 9.366 -14.8975
7.11653 9.35544 -14.9013
7.03722 9.42539 -14.9027
6.89543 9.41483 -14.9064
6.81612 9.48477 -14.9078
6.7368 9.55471 -14.9092
6.59503 9.54415 -14.913
6.45324 9.53359 -14.9168
6.31146 9.52303 -14.9205
6.16968 9.51246 -14.9243
5.90297 9.34089 -14.933
5.76119 9.33033 -14.9368
5.68188 9.40027 -14.9381
5.5401 9.38972 -14.9419
5.39831 9.37915 -14.9457
5.19407 9.28808 -14.9519
11.3256 7.28873 -14.8232
11.222 7.30965 -14.8245
11.1322 7.43151 -14.8235
11.0285 7.45243 -14.8248
10.9664 7.7762 -14.8189
10.8904 7.99902 -14.8154
10.8144 8.22184 -14.812
10.7108 8.24275 -14.8133
10.621 8.36462 -14.8123
10.5173 8.38554 -14.8136
10.4275 8.50741 -14.8126
10.3238 8.52832 -14.8139
10.2202 8.54923 -14.8153
10.1165 8.57015 -14.8167
10.0267 8.69202 -14.8156
9.92303 8.71293 -14.817
9.83322 8.8348 -14.8159
9.7434 8.95667 -14.8149
9.65359 9.07853 -14.8138
9.54993 9.09945 -14.8152
9.44627 9.12036 -14.8166
9.34261 9.14128 -14.8179
9.25279 9.26315 -14.8169
9.14913 9.28406 -14.8182
9.04547 9.30498 -14.8196
8.94181 9.32589 -14.821
8.83815 9.34681 -14.8223
8.73449 9.36772 -14.8237
8.63083 9.38864 -14.8251
8.52717 9.40956 -14.8264
8.43735 9.53142 -14.8254
8.33369 9.55233 -14.8267
8.23003 9.57325 -14.8281
8.12637 9.59417 -14.8295
8.02271 9.61508 -14.8308
7.91905 9.63599 -14.8322
7.81539 9.65691 -14.8336
7.71173 9.67783 -14.8349
7.60807 9.69874 -14.8363
7.50441 9.71966 -14.8377
7.41459 9.84152 -14.8366
7.31093 9.86243 -14.838
7.20728 9.88335 -14.8393
7.10361 9.90427 -14.8407
6.99995 9.92518 -14.8421
6.89629 9.94609 -14.8434
6.79263 9.96701 -14.8448
6.68897 9.98793 -14.8462
6.57147 9.90789 -14.85
6.46781 9.92881 -14.8513
6.36415 9.94972 -14.8527
6.26049 9.97064 -14.854
6.15683 9.99155 -14.8554
6.05317 10.0125 -14.8568
5.94951 10.0334 -14.8582
5.84585 10.0543 -14.8595
5.72834 9.97426 -14.8633
5.62468 9.99518 -14.8647
5.52102 10.0161 -14.866
5.41736 10.037 -14.8674
5.29986 9.95697 -14.8712
5.1962 9.97788 -14.8726
5.09254 9.9988 -14.8739
4.97503 9.91876 -14.8777
4.87138 9.93968 -14.8791
4.76771 9.9606 -14.8804
4.65021 9.88056 -14.8842
4.54655 9.90147 -14.8856
4.44289 9.92238 -14.887
4.32539 9.84235 -14.8908
4.20788 9.76231 -14.8945
4.10422 9.78323 -14.8959
3.98672 9.70319 -14.8997
3.88305 9.7241 -14.9011
3.76555 9.64407 -14.9049
3.66189 9.66498 -14.9062
3.54439 9.58495 -14.91
3.42688 9.50491 -14.9138
3.30938 9.42487 -14.9176
3.19187 9.34484 -14.9214
3.08821 9.36575 -14.9227
2.97071 9.28572 -14.9265
2.86705 9.30663 -14.9279
2.74955 9.22659 -14.9317
2.64588 9.24751 -14.9331
2.54222 9.26843 -14.9344
2.43856 9.28934 -14.9358
2.32106 9.2093 -14.9396
2.20356 9.12926 -14.9434
2.08605 9.04923 -14.9472
8.66 9.48855 -14.8805
8.52129 9.54918 -14.8795
8.38257 9.60981 -14.8784
8.24386 9.67045 -14.8773
8.10514 9.73108 -14.8763
7.96642 9.79171 -14.8752
7.82771 9.85234 -14.8742
7.68899 9.91297 -14.8731
7.55027 9.97361 -14.8721
7.41156 10.0342 -14.871
7.27284 10.0949 -14.8699
7.13413 10.1555 -14.8689
7.0339 10.1218 -14.8703
6.89518 10.1824 -14.8692
6.79495 10.1487 -14.8706
6.65623 10.2093 -14.8695
6.556 10.1756 -14.8709
6.41729 10.2362 -14.8698
6.31706 10.2025 -14.8712
6.21683 10.1688 -14.8725
6.1166 10.1351 -14.8739
6.01637 10.1014 -14.8753
5.91614 10.0677 -14.8766
5.81591 10.0339 -14.878
5.67719 10.0946 -14.877
5.57696 10.0609 -14.8783
5.47673 10.0271 -14.8797
5.33801 10.0878 -14.8786
5.23778 10.0541 -14.88
5.09907 10.1147 -14.8789
4.99884 10.081 -14.8803
4.89861 10.0473 -14.8817
4.75989 10.1079 -14.8806
4.65966 10.0742 -14.882
4.55943 10.0405 -14.8833
4.42072 10.1011 -14.8823
4.32049 10.0674 -14.8837
4.22026 10.0337 -14.885
4.12003 9.99994 -14.8864
4.0198 9.96622 -14.8878
3.88108 10.0269 -14.8867
3.78085 9.99314 -14.8881
3.68062 9.95942 -14.8894
3.58039 9.9257 -14.8908
3.48016 9.89199 -14.8922
3.37993 9.85827 -14.8935
3.2797 9.82455 -14.8949
3.17947 9.79084 -14.8963
3.07924 9.75712 -14.8976
2.97901 9.7234 -14.899
2.8403 9.78403 -14.8979
2.74006 9.75031 -14.8993
2.63983 9.7166 -14.9007
2.53961 9.68288 -14.902
2.43937 9.64916 -14.9034
2.33915 9.61545 -14.9048
2.23892 9.58173 -14.9061
2.13869 9.54801 -14.9075
2.03846 9.51429 -14.9089
1.93823 9.48058 -14.9102
1.87648 9.35252 -14.914
1.77625 9.3188 -14.9154
1.67602 9.28508 -14.9167
1.57579 9.25136 -14.9181
1.51405 9.12329 -14.9219
1.41382 9.08958 -14.9233
1.31359 9.05586 -14.9246
1.21336 9.02214 -14.926
1.11313 8.98843 -14.9274
1.05138 8.86036 -14.9312
0.951155 8.82664 -14.9325
0.850926 8.79293 -14.9339
0.750696 8.75921 -14.9353
0.650465 8.72549 -14.9366
0.550236 8.69178 -14.938
0.450005 8.65806 -14.9393
0.349777 8.62434 -14.9407
0.249547 8.59062 -14.9421
0.149316 8.55691 -14.9435
0.0490856 8.52319 -14.9448
-0.0126581 8.39513 -14.9486
-0.112886 8.36141 -14.95
-0.213117 8.32769 -14.9513
-0.27486 8.19963 -14.9551
-0.37509 8.16591 -14.9565
-0.436836 8.03784 -14.9603
-0.537064 8.00412 -14.9617
-0.598807 7.87605 -14.9654
-0.699037 7.84234 -14.9668
-0.760781 7.71428 -14.9706
-0.822525 7.58621 -14.9744
-0.884266 7.45814 -14.9782
3.37584 10.3294 -14.9443
3.22539 10.3125 -14.9433
3.07494 10.2957 -14.9422
2.9245 10.2788 -14.9411
2.85455 10.1995 -14.9425
2.70411 10.1827 -14.9415
2.31214 10.3532 -14.9331
2.16169 10.3364 -14.9321
2.01125 10.3195 -14.931
1.94131 10.2402 -14.9324
1.79086 10.2234 -14.9313
1.72091 10.144 -14.9327
1.65097 10.0647 -14.9341
1.50052 10.0479 -14.933
1.43058 9.96857 -14.9344
1.28013 9.95172 -14.9333
1.12968 9.93487 -14.9323
1.05974 9.85555 -14.9336
0.989797 9.77624 -14.935
0.839349 9.75939 -14.9339
0.769405 9.68008 -14.9353
0.699465 9.60076 -14.9367
0.629521 9.52145 -14.938
0.398568 9.56706 -14.9345
0.24812 9.55021 -14.9335
0.097671 9.53336 -14.9324
0.0277281 9.45405 -14.9338
-0.0422158 9.37474 -14.9352
-0.192661 9.35788 -14.9341
-0.262605 9.27857 -14.9355
-0.332546 9.19925 -14.9368
-0.402489 9.11994 -14.9382
-0.472433 9.04063 -14.9396
-0.542377 8.96131 -14.9409
-0.612321 8.882 -14.9423
-0.682261 8.80268 -14.9437
-0.752205 8.72337 -14.945
-0.822149 8.64405 -14.9464
-0.892093 8.56474 -14.9478
-0.962037 8.48542 -14.9491
-1.03198 8.40611 -14.9505
-1.18243 8.38926 -14.9494
-1.25237 8.30995 -14.9508
-1.32232 8.23063 -14.9522
-1.39226 8.15132 -14.9535
-1.54271 8.13447 -14.9525
-1.61265 8.05515 -14.9538
-1.68259 7.97584 -14.9552
-1.75254 7.89652 -14.9566
-1.82248 7.81721 -14.9579
-1.89242 7.73789 -14.9593
-1.96236 7.65858 -14.9607
-2.03231 7.57926 -14.962
-2.10225 7.49995 -14.9634
-2.17219 7.42063 -14.9648
-2.24214 7.34132 -14.9661
-2.31208 7.26201 -14.9675
-2.38202 7.18269 -14.9689
-2.45197 7.10338 -14.9702
-2.52191 7.02406 -14.9716
-2.59185 6.94475 -14.973
-2.6618 6.86543 -14.9743
-2.73174 6.78612 -14.9757
-2.80168 6.7068 -14.9771
-2.79112 6.56502 -14.9809
-2.86106 6.48571 -14.9822
-2.93101 6.40639 -14.9836
-3.00095 6.32708 -14.985
-3.07089 6.24776 -14.9863
-3.14084 6.16845 -14.9877
-3.21078 6.08914 -14.989
-3.20022 5.94735 -14.9928
-3.27016 5.86804 -14.9942
-3.3401 5.78872 -14.9956
-3.41005 5.70941 -14.9969
-3.39949 5.56763 -15.0007
-3.46943 5.48832 -15.0021
-3.45887 5.34654 -15.0059
-3.52881 5.26722 -15.0072
-3.59875 5.1879 -15.0086
-3.6687 5.10859 -15.01
-3.73864 5.02928 -15.0114
-3.72808 4.8875 -15.0151
-3.79802 4.80818 -15.0165
-3.86796 4.72887 -15.0179
-3.93791 4.64955 -15.0192
-4.00785 4.57024 -15.0206
-3.99729 4.42845 -15.0244
-4.06723 4.34914 -15.0258
-4.13718 4.26983 -15.0271
-4.20712 4.19051 -15.0285
-4.27706 4.1112 -15.0298
-4.347 4.03188 -15.0312
-4.41695 3.95257 -15.0326
-4.48689 3.87325 -15.034
-4.55683 3.79394 -15.0353
-4.62678 3.71462 -15.0367
-4.61622 3.57284 -15.0405
-4.68616 3.49353 -15.0418
-4.6756 3.35175 -15.0456
-4.66504 3.20997 -15.0494
-2.32201 7.66173 -14.9947
-2.44387 7.57191 -14.9936
-2.56573 7.48209 -14.9926
-2.58665 7.37843 -14.9939
-2.80947 7.30246 -14.9904
-3.03229 7.22649 -14.987
-3.15416 7.13667 -14.9859
-3.17507 7.03301 -14.9873
-3.29694 6.9432 -14.9862
-3.31785 6.83954 -14.9876
-3.43972 6.74972 -14.9865
-3.56159 6.65991 -14.9855
-3.5825 6.55625 -14.9868
-3.60342 6.45259 -14.9882
-3.72529 6.36277 -14.9872
-3.7462 6.25911 -14.9885
-3.76711 6.15545 -14.9899
-3.78803 6.05179 -14.9912
-3.9099 5.96197 -14.9902
-3.93081 5.85831 -14.9916
-4.05268 5.7685 -14.9905
-4.0736 5.66484 -14.9919
-4.09451 5.56118 -14.9932
-4.21638 5.47136 -14.9922
-4.2373 5.3677 -14.9935
-4.25821 5.26404 -14.9949
-4.27912 5.16038 -14.9963
-4.30004 5.05672 -14.9976
-4.4219 4.96691 -14.9966
-4.44282 4.86325 -14.9979
-4.46374 4.75959 -14.9993
-4.5856 4.66977 -14.9983
-4.60652 4.56611 -14.9996
-4.72839 4.47629 -14.9986
-4.7493 4.37263 -14.9999
-4.77021 4.26897 -15.0013
-4.89208 4.17916 -15.0002
-4.913 4.0755 -15.0016
-4.93391 3.97184 -15.003
-5.05578 3.88202 -15.0019
-5.07669 3.77836 -15.0033
-5.09761 3.6747 -15.0047
-5.11853 3.57104 -15.006
-5.13944 3.46738 -15.0074
-5.05941 3.34988 -15.0112
-5.08032 3.24622 -15.0125
-5.40409 3.18409 -15.0066
-5.52596 3.09427 -15.0056
-5.54687 2.99061 -15.0069
-5.66874 2.9008 -15.0059
-5.68965 2.79714 -15.0072
-5.71057 2.69348 -15.0086
-5.73148 2.58982 -15.01
-5.7524 2.48616 -15.0114
-5.77331 2.3825 -15.0127
-5.89518 2.29268 -15.0117
-5.9161 2.18902 -15.013
-5.93701 2.08536 -15.0144
-5.95793 1.9817 -15.0157
-5.97884 1.87804 -15.0171
-5.99976 1.77438 -15.0185
-6.02067 1.67072 -15.0199
-6.04159 1.56706 -15.0212
-5.96155 1.44955 -15.025
-5.98246 1.34589 -15.0264
-5.90243 1.22839 -15.0302
-5.92334 1.12473 -15.0315
-5.94426 1.02107 -15.0329
-5.96517 0.91741 -15.0343
-5.98609 0.81375 -15.0356
-6.007 0.71009 -15.037
-6.02792 0.606429 -15.0384
-6.04883 0.502769 -15.0397
-5.9688 0.385265 -15.0435
-5.98971 0.281605 -15.0449
-6.01063 0.177945 -15.0462
-6.03154 0.0742837 -15.0476
-6.05246 -0.0293759 -15.049
-6.07337 -0.133038 -15.0503
-5.99334 -0.250539 -15.0541
-6.01425 -0.354201 -15.0555
-6.03517 -0.45786 -15.0569
-6.05608 -0.56152 -15.0582
-5.97604 -0.679026 -15.062
-5.99696 -0.782685 -15.0634
-6.01788 -0.886345 -15.0648
-5.93784 -1.00385 -15.0685
-5.95876 -1.10751 -15.0699
-5.77776 -1.23886 -15.0761
-5.69773 -1.35636 -15.0799
-5.71864 -1.46003 -15.0813
-5.73956 -1.56368 -15.0826
-5.65953 -1.68119 -15.0864
-5.68044 -1.78485 -15.0878
-5.6004 -1.90235 -15.0916
-5.52036 -2.01986 -15.0954
-5.33938 -2.15121 -15.1016
-5.36029 -2.25487 -15.103
-5.28025 -2.37237 -15.1067
-5.30117 -2.47603 -15.1081
-5.32208 -2.57969 -15.1095
-5.24205 -2.6972 -15.1133
-5.26296 -2.80086 -15.1146
-5.28388 -2.90452 -15.116
-5.30479 -3.00817 -15.1174
-5.22476 -3.12568 -15.1212
-4.43806 -3.3401 -15.1419
-4.35802 -3.4576 -15.1457
-4.37893 -3.56126 -15.147
-4.39985 -3.66492 -15.1484
-4.31981 -3.78242 -15.1522
-4.34073 -3.88608 -15.1536
-4.36164 -3.98974 -15.1549
-3.97875 -4.14878 -15.166
-3.99967 -4.25244 -15.1674
-3.91963 -4.36995 -15.1712
-3.94054 -4.47361 -15.1725
-3.8605 -4.59111 -15.1763
-3.88142 -4.69477 -15.1777
-3.80139 -4.81228 -15.1815
-6.11744 1.82831 -15.0031
-6.17806 1.6896 -15.002
-6.6161 1.39694 -14.9913
-6.67673 1.25822 -14.9902
-6.64301 1.15799 -14.9916
-6.60929 1.05776 -14.993
-6.57558 0.95753 -14.9943
-6.63621 0.818814 -14.9933
-6.60249 0.718584 -14.9946
-6.56877 0.618355 -14.996
-6.53506 0.518125 -14.9974
-6.59569 0.379409 -14.9963
-6.56197 0.279179 -14.9977
-6.52826 0.178948 -14.9991
-6.49454 0.0787191 -15.0004
-6.46082 -0.0215116 -15.0018
-6.4271 -0.121741 -15.0031
-6.48774 -0.260459 -15.0021
-6.45402 -0.36069 -15.0035
-6.4203 -0.460918 -15.0048
-6.38659 -0.56115 -15.0062
-6.35287 -0.661379 -15.0076
-6.31915 -0.76161 -15.0089
-6.28544 -0.86184 -15.0103
-6.34606 -1.00055 -15.0092
-6.31235 -1.10078 -15.0106
-6.27863 -1.20101 -15.012
-6.24492 -1.30124 -15.0133
-6.2112 -1.40147 -15.0147
-6.17748 -1.5017 -15.0161
-6.14376 -1.60193 -15.0174
-6.11005 -1.70216 -15.0188
-6.07633 -1.80239 -15.0202
-6.04261 -1.90262 -15.0215
-6.00889 -2.00285 -15.0229
-5.97518 -2.10308 -15.0243
-5.94146 -2.20331 -15.0256
-5.8134 -2.26506 -15.0294
-5.77968 -2.36529 -15.0308
-5.74596 -2.46552 -15.0322
-5.71225 -2.56575 -15.0335
-5.67853 -2.66598 -15.0349
-5.64482 -2.76621 -15.0362
-5.6111 -2.86644 -15.0376
-5.57738 -2.96667 -15.039
-5.54366 -3.0669 -15.0403
-5.50995 -3.16713 -15.0417
-5.38187 -3.22887 -15.0455
-5.34816 -3.3291 -15.0469
-5.31444 -3.42933 -15.0482
-5.28073 -3.52956 -15.0496
-5.24701 -3.62979 -15.051
-5.21329 -3.73002 -15.0523
-5.17957 -3.83025 -15.0537
-5.05151 -3.89199 -15.0575
-5.01779 -3.99222 -15.0589
-4.98408 -4.09245 -15.0602
-4.95036 -4.19268 -15.0616
-4.91664 -4.29291 -15.0629
-4.88292 -4.39314 -15.0643
-4.84921 -4.49337 -15.0657
-4.72114 -4.55511 -15.0695
-4.68742 -4.65534 -15.0708
-4.55936 -4.71709 -15.0746
-4.43129 -4.77883 -15.0784
-4.39758 -4.87906 -15.0798
-4.36386 -4.97929 -15.0811
-4.33014 -5.07952 -15.0825
-4.20208 -5.14127 -15.0863
-4.16836 -5.2415 -15.0877
-4.13464 -5.34173 -15.089
-4.00657 -5.40347 -15.0928
-3.97286 -5.5037 -15.0942
-3.93914 -5.60393 -15.0956
-3.81108 -5.66567 -15.0993
-3.77736 -5.7659 -15.1007
-3.74364 -5.86613 -15.1021
-3.70992 -5.96636 -15.1034
-3.67621 -6.06659 -15.1048
-3.54814 -6.12834 -15.1086
-3.51442 -6.22857 -15.11
-3.38636 -6.29031 -15.1138
-3.35264 -6.39054 -15.1151
-3.31893 -6.49077 -15.1165
-3.28521 -6.591 -15.1178
-3.25149 -6.69123 -15.1192
-3.21777 -6.79146 -15.1206
-3.18406 -6.89169 -15.1219
-3.05599 -6.95343 -15.1257
-3.02228 -7.05366 -15.1271
-2.98856 -7.15389 -15.1285
-2.95484 -7.25412 -15.1298
-2.82677 -7.31586 -15.1336
-2.79306 -7.41609 -15.135
-2.75934 -7.51633 -15.1364
-2.72562 -7.61655 -15.1377
-2.59755 -7.6783 -15.1415
-2.56384 -7.77853 -15.1429
-2.53012 -7.87876 -15.1442
-2.40206 -7.9405 -15.148
-2.36834 -8.04073 -15.1494
-2.24027 -8.10248 -15.1532
-2.11221 -8.16422 -15.157
-1.98414 -8.22596 -15.1608
-1.95042 -8.32619 -15.1621
-1.72801 -8.34945 -15.1683
-1.50559 -8.37271 -15.1746
-1.47188 -8.47294 -15.1759
-1.43816 -8.57317 -15.1773
-1.40444 -8.6734 -15.1786
-1.37073 -8.77363 -15.18
-1.33701 -8.87386 -15.1814
-1.30329 -8.97409 -15.1828
-1.26958 -9.07432 -15.1841
-1.1415 -9.13606 -15.1879
-1.10779 -9.23629 -15.1893
-0.979723 -9.29803 -15.1931
-0.851662 -9.35978 -15.1969
