ply
format ascii 1.0
comment VCGLIB generated
element vertex 1127
property float x
property float y
property float z
element face 0
property list uchar int vertex_indices
end_header
3.37459 -12.3612 -13.8244
3.60554 -12.4068 -13.821
4.23902 -12.7647 -13.8054
4.46997 -12.8103 -13.8019
4.70093 -12.856 -13.7984
4.85137 -12.8391 -13.7973
5.08232 -12.8847 -13.7939
5.23277 -12.8679 -13.7928
5.70524 -13.1009 -13.7821
5.85569 -13.084 -13.781
6.00613 -13.0672 -13.78
6.15658 -13.0503 -13.7789
6.30703 -13.0335 -13.7778
6.37697 -12.9542 -13.7792
6.44692 -12.8749 -13.7806
6.59736 -12.858 -13.7795
6.74781 -12.8412 -13.7785
6.81776 -12.7618 -13.7798
6.9682 -12.745 -13.7788
7.03815 -12.6657 -13.7801
7.10809 -12.5864 -13.7815
7.25854 -12.5695 -13.7804
7.32848 -12.4902 -13.7818
7.39842 -12.4109 -13.7832
7.54887 -12.394 -13.7821
7.69932 -12.3772 -13.7811
7.84977 -12.3603 -13.78
7.91971 -12.281 -13.7814
8.07016 -12.2642 -13.7803
8.1401 -12.1849 -13.7817
8.21004 -12.1055 -13.783
8.36049 -12.0887 -13.782
8.43043 -12.0094 -13.7833
8.50038 -11.9301 -13.7847
8.57032 -11.8508 -13.7861
8.64026 -11.7714 -13.7874
8.79071 -11.7546 -13.7864
8.86066 -11.6753 -13.7878
8.9306 -11.596 -13.7891
9.00054 -11.5166 -13.7905
9.07049 -11.4373 -13.7919
9.14043 -11.358 -13.7932
9.21037 -11.2787 -13.7946
9.28032 -11.1994 -13.7959
9.35026 -11.1201 -13.7973
9.4202 -11.0408 -13.7987
9.49014 -10.9614 -13.8
9.56009 -10.8821 -13.8014
9.63003 -10.8028 -13.8028
9.69997 -10.7235 -13.8041
9.85042 -10.7067 -13.8031
9.92037 -10.6273 -13.8045
10.0708 -10.6105 -13.8034
10.1408 -10.5312 -13.8048
10.2107 -10.4519 -13.8061
10.2806 -10.3725 -13.8075
10.4311 -10.3557 -13.8064
10.501 -10.2764 -13.8078
10.6515 -10.2595 -13.8067
10.8019 -10.2427 -13.8057
10.8719 -10.1634 -13.8071
11.0223 -10.1465 -13.806
11.0923 -10.0672 -13.8074
11.2427 -10.0504 -13.8063
11.3127 -9.97104 -13.8077
11.4631 -9.95419 -13.8066
11.533 -9.87488 -13.808
11.6835 -9.85803 -13.8069
11.7534 -9.77871 -13.8083
11.8234 -9.6994 -13.8097
11.8933 -9.62008 -13.811
11.9633 -9.54077 -13.8124
12.1137 -9.52392 -13.8113
12.1837 -9.4446 -13.8127
12.2536 -9.36529 -13.8141
12.404 -9.34844 -13.813
12.474 -9.26913 -13.8144
12.6244 -9.25228 -13.8133
12.6944 -9.17296 -13.8147
12.7643 -9.09365 -13.8161
12.9148 -9.0768 -13.815
12.9847 -8.99748 -13.8164
13.0547 -8.91817 -13.8177
13.0441 -8.77639 -13.8215
13.114 -8.69707 -13.8229
13.184 -8.61776 -13.8242
13.2539 -8.53845 -13.8256
13.4044 -8.52159 -13.8246
13.4743 -8.44228 -13.8259
13.5443 -8.36297 -13.8273
13.6142 -8.28365 -13.8286
13.6841 -8.20434 -13.83
13.8346 -8.18749 -13.829
13.9045 -8.10817 -13.8303
13.9745 -8.02886 -13.8317
14.0444 -7.94955 -13.8331
14.1949 -7.9327 -13.832
14.2648 -7.85338 -13.8334
14.4153 -7.83653 -13.8323
14.4852 -7.75721 -13.8337
14.5552 -7.6779 -13.835
14.7056 -7.66105 -13.834
14.7755 -7.58174 -13.8354
14.8455 -7.50242 -13.8367
14.9154 -7.42311 -13.8381
14.9854 -7.34379 -13.8394
15.0553 -7.26448 -13.8408
15.1253 -7.18516 -13.8422
15.1147 -7.04338 -13.846
15.1846 -6.96407 -13.8473
15.0936 -6.75982 -13.8535
14.922 -6.49311 -13.8622
14.9114 -6.35133 -13.866
14.9009 -6.20955 -13.8698
14.9708 -6.13024 -13.8711
14.9603 -5.98846 -13.8749
14.9497 -5.84668 -13.8787
14.4561 -5.3301 -13.897
6.99592 -12.7769 -13.804
7.21874 -12.7009 -13.8006
7.23966 -12.5973 -13.8019
7.36152 -12.5074 -13.8009
7.48339 -12.4176 -13.7998
7.60526 -12.3278 -13.7988
7.72712 -12.238 -13.7977
8.05089 -12.1759 -13.7918
8.17276 -12.0861 -13.7907
8.29463 -11.9962 -13.7897
8.31555 -11.8926 -13.791
8.33646 -11.7889 -13.7924
8.45833 -11.6991 -13.7914
8.5802 -11.6093 -13.7903
8.70206 -11.5195 -13.7892
8.82393 -11.4297 -13.7882
8.9458 -11.3398 -13.7871
9.06766 -11.25 -13.7861
9.08858 -11.1464 -13.7874
9.21045 -11.0565 -13.7864
9.23136 -10.9529 -13.7877
9.65608 -10.9046 -13.7794
9.77795 -10.8148 -13.7784
9.89982 -10.725 -13.7773
10.0217 -10.6352 -13.7762
10.1435 -10.5453 -13.7752
10.2654 -10.4555 -13.7741
10.3873 -10.3657 -13.7731
10.5092 -10.2759 -13.772
10.631 -10.1861 -13.771
10.7529 -10.0963 -13.7699
10.8748 -10.0064 -13.7688
11.0976 -9.93047 -13.7654
11.2194 -9.84066 -13.7643
11.6442 -9.79237 -13.756
11.766 -9.70256 -13.7549
11.8879 -9.61274 -13.7539
12.0098 -9.52293 -13.7528
12.1316 -9.43311 -13.7518
12.2535 -9.34329 -13.7507
12.2744 -9.23964 -13.7521
12.3963 -9.14982 -13.751
12.6191 -9.07385 -13.7475
12.741 -8.98403 -13.7465
12.9638 -8.90806 -13.743
13.0857 -8.81824 -13.7419
13.2075 -8.72843 -13.7409
13.2284 -8.62477 -13.7422
13.3503 -8.53495 -13.7412
13.3712 -8.43129 -13.7425
13.4931 -8.34148 -13.7415
13.514 -8.23782 -13.7429
13.6359 -8.148 -13.7418
13.7577 -8.05819 -13.7407
13.7786 -7.95452 -13.7421
13.9005 -7.86471 -13.741
14.0224 -7.77489 -13.74
14.0433 -7.67123 -13.7414
14.0642 -7.56757 -13.7427
14.1861 -7.47776 -13.7417
14.7118 -7.44332 -13.7309
14.8336 -7.3535 -13.7299
14.9555 -7.26369 -13.7288
14.9764 -7.16003 -13.7302
15.0983 -7.07021 -13.7291
15.1192 -6.96655 -13.7305
15.1401 -6.86289 -13.7318
15.161 -6.75923 -13.7332
15.081 -6.64173 -13.737
15.1019 -6.53806 -13.7384
15.1228 -6.4344 -13.7397
15.1437 -6.33075 -13.7411
15.1646 -6.22709 -13.7425
15.0846 -6.10958 -13.7462
15.1055 -6.00592 -13.7476
15.0255 -5.88842 -13.7514
15.0464 -5.78475 -13.7528
14.9664 -5.66725 -13.7566
14.9873 -5.56359 -13.7579
14.9072 -5.44609 -13.7617
14.9282 -5.34243 -13.7631
14.7472 -5.21108 -13.7693
14.6671 -5.09357 -13.7731
14.5871 -4.97607 -13.7769
14.5071 -4.85856 -13.7807
14.528 -4.7549 -13.782
14.4479 -4.6374 -13.7858
14.4688 -4.53374 -13.7872
14.3888 -4.41623 -13.791
14.3088 -4.29873 -13.7948
14.2287 -4.18123 -13.7986
14.1487 -4.06372 -13.8023
14.0687 -3.94622 -13.8061
13.8877 -3.81487 -13.8123
13.8076 -3.69736 -13.8161
13.7276 -3.57986 -13.8199
13.7485 -3.4762 -13.8213
13.6685 -3.35869 -13.8251
13.4875 -3.22734 -13.8313
13.4075 -3.10984 -13.8351
13.4284 -3.00618 -13.8364
13.3483 -2.88868 -13.8402
13.3692 -2.78502 -13.8416
13.2892 -2.66751 -13.8454
13.3101 -2.56385 -13.8468
13.2301 -2.44635 -13.8505
13.1501 -2.32884 -13.8543
13.07 -2.21134 -13.8581
12.99 -2.09383 -13.8619
12.9099 -1.97633 -13.8657
12.8299 -1.85882 -13.8695
12.7499 -1.74132 -13.8733
12.7708 -1.63766 -13.8746
12.6907 -1.52015 -13.8784
12.7117 -1.4165 -13.8798
12.6316 -1.29899 -13.8836
12.6525 -1.19533 -13.8849
12.5725 -1.07783 -13.8887
12.4925 -0.960321 -13.8925
12.5134 -0.856661 -13.8939
12.4333 -0.739156 -13.8977
12.3533 -0.621652 -13.9015
12.3742 -0.517991 -13.9028
12.2942 -0.400487 -13.9066
12.3151 -0.296827 -13.908
12.2351 -0.179322 -13.9118
12.256 -0.0756629 -13.9131
12.1759 0.0418422 -13.9169
12.1969 0.145502 -13.9183
12.2178 0.249161 -13.9197
12.1377 0.366668 -13.9235
12.1586 0.470327 -13.9248
12.1796 0.573989 -13.9262
12.2005 0.677646 -13.9276
12.2214 0.781306 -13.9289
12.2423 0.884968 -13.9303
12.1623 1.00247 -13.9341
12.1832 1.10613 -13.9354
12.2041 1.20979 -13.9368
12.1241 1.3273 -13.9406
12.145 1.43096 -13.942
12.0649 1.54846 -13.9458
11.884 1.67981 -13.952
11.9049 1.78347 -13.9533
11.8248 1.90097 -13.9571
11.8458 2.00464 -13.9585
11.8667 2.10829 -13.9599
11.8876 2.21196 -13.9612
11.8075 2.32946 -13.965
11.8285 2.43312 -13.9664
11.8494 2.53678 -13.9677
11.8703 2.64044 -13.9691
11.7903 2.75795 -13.9729
11.8112 2.8616 -13.9743
11.7311 2.97911 -13.9781
11.752 3.08277 -13.9794
11.773 3.18643 -13.9808
11.7939 3.29009 -13.9821
11.8148 3.39375 -13.9835
11.8357 3.49741 -13.9849
11.7557 3.61491 -13.9887
11.7766 3.71857 -13.99
11.6966 3.83608 -13.9938
11.7175 3.93974 -13.9952
11.7384 4.0434 -13.9966
11.6583 4.1609 -14.0004
11.6793 4.26456 -14.0017
11.5992 4.38207 -14.0055
11.6201 4.48573 -14.0069
11.641 4.58939 -14.0082
11.561 4.70689 -14.012
11.5819 4.81055 -14.0134
11.6028 4.91421 -14.0148
11.6238 5.01787 -14.0161
11.6447 5.12153 -14.0175
11.5646 5.23904 -14.0213
11.5856 5.3427 -14.0226
11.6065 5.44636 -14.024
11.5264 5.56386 -14.0278
11.5473 5.66752 -14.0292
11.4673 5.78503 -14.033
11.3873 5.90253 -14.0367
11.3072 6.02004 -14.0405
11.1262 6.15139 -14.0468
10.5415 6.33811 -14.0627
10.3605 6.46946 -14.0689
10.2804 6.58697 -14.0726
15.3518 -6.9522 -13.7269
15.4124 -6.81348 -13.7259
15.4731 -6.67477 -13.7248
15.4393 -6.57454 -13.7262
15.783 -6.32036 -13.7179
15.7493 -6.22013 -13.7192
15.7156 -6.11991 -13.7206
15.6819 -6.01967 -13.722
15.6482 -5.91944 -13.7233
15.5201 -5.8577 -13.7271
15.4864 -5.75747 -13.7285
15.4527 -5.65724 -13.7298
15.5133 -5.51853 -13.7288
15.4796 -5.4183 -13.7301
15.4459 -5.31807 -13.7315
15.4121 -5.21783 -13.7329
15.3784 -5.11761 -13.7343
15.3447 -5.01738 -13.7356
15.2166 -4.95563 -13.7394
15.1829 -4.8554 -13.7408
15.1492 -4.75517 -13.7421
15.1155 -4.65494 -13.7435
15.0818 -4.55471 -13.7449
15.0481 -4.45448 -13.7462
15.0143 -4.35425 -13.7476
14.9806 -4.25402 -13.749
14.8526 -4.19228 -13.7528
14.8188 -4.09205 -13.7541
14.6908 -4.0303 -13.7579
14.6571 -3.93007 -13.7593
14.529 -3.86833 -13.7631
14.4953 -3.7681 -13.7644
14.4616 -3.66787 -13.7658
14.3335 -3.60613 -13.7696
14.2998 -3.5059 -13.771
14.1717 -3.44415 -13.7747
14.138 -3.34392 -13.7761
14.0099 -3.28218 -13.7799
13.9762 -3.18195 -13.7813
13.9425 -3.08172 -13.7826
13.9088 -2.98149 -13.784
13.8751 -2.88126 -13.7854
13.8413 -2.78103 -13.7867
13.8076 -2.6808 -13.7881
13.7739 -2.58057 -13.7895
13.6458 -2.51883 -13.7933
13.6121 -2.4186 -13.7946
13.5784 -2.31837 -13.796
13.5447 -2.21814 -13.7973
13.511 -2.11791 -13.7987
13.4772 -2.01768 -13.8001
13.4435 -1.91745 -13.8015
13.4098 -1.81722 -13.8028
13.3761 -1.71699 -13.8042
13.3424 -1.61676 -13.8055
13.3087 -1.51653 -13.8069
13.2749 -1.4163 -13.8083
13.2412 -1.31607 -13.8096
13.2075 -1.21584 -13.811
13.1738 -1.11561 -13.8124
13.1401 -1.01538 -13.8137
13.1064 -0.915151 -13.8151
13.0726 -0.814919 -13.8165
13.0389 -0.714691 -13.8178
13.0052 -0.61446 -13.8192
12.9715 -0.51423 -13.8206
12.9378 -0.414001 -13.8219
12.9041 -0.31377 -13.8233
12.8703 -0.213542 -13.8247
12.7423 -0.151795 -13.8285
12.7086 -0.0515656 -13.8298
12.6748 0.0486641 -13.8312
12.6411 0.148894 -13.8326
12.6074 0.249122 -13.8339
12.5737 0.349354 -13.8353
12.54 0.449584 -13.8367
12.5063 0.549814 -13.838
12.4725 0.650043 -13.8394
12.4388 0.750273 -13.8408
12.4051 0.850503 -13.8421
12.3714 0.950733 -13.8435
12.3377 1.05096 -13.8448
12.304 1.15119 -13.8462
12.2702 1.25142 -13.8476
12.3309 1.39014 -13.8465
12.2972 1.49037 -13.8479
12.2634 1.5906 -13.8493
12.3241 1.72931 -13.8482
12.2904 1.82954 -13.8496
12.2566 1.92977 -13.8509
12.2229 2.03 -13.8523
12.1892 2.13024 -13.8537
12.1555 2.23046 -13.855
12.2161 2.36918 -13.854
12.1824 2.46941 -13.8553
12.1487 2.56964 -13.8567
12.2093 2.70836 -13.8557
12.1756 2.80859 -13.857
12.1419 2.90882 -13.8584
12.1082 3.00905 -13.8597
12.0744 3.10928 -13.8611
12.0407 3.20951 -13.8625
12.007 3.30974 -13.8638
11.9733 3.40997 -13.8652
11.9396 3.5102 -13.8666
11.9059 3.61043 -13.868
11.8721 3.71066 -13.8693
11.9328 3.84937 -13.8683
11.8991 3.9496 -13.8696
11.9597 4.08832 -13.8686
11.926 4.18855 -13.8699
11.8923 4.28878 -13.8713
11.9529 4.4275 -13.8702
11.9192 4.52773 -13.8716
11.8855 4.62795 -13.873
11.8517 4.72819 -13.8743
11.818 4.82841 -13.8757
11.7843 4.92865 -13.8771
11.7506 5.02888 -13.8784
11.7169 5.12911 -13.8798
11.6832 5.22934 -13.8812
11.6494 5.32956 -13.8825
11.6157 5.42979 -13.8839
11.6764 5.56851 -13.8828
11.6426 5.66874 -13.8842
11.6089 5.76897 -13.8856
11.5752 5.8692 -13.8869
11.5415 5.96943 -13.8883
11.5078 6.06966 -13.8897
11.4741 6.16989 -13.891
11.4403 6.27012 -13.8924
11.4066 6.37035 -13.8938
11.3729 6.47058 -13.8951
11.3392 6.57081 -13.8965
11.3055 6.67104 -13.8979
11.1774 6.73278 -13.9017
11.0493 6.79453 -13.9054
10.9213 6.85627 -13.9092
10.7932 6.91801 -13.913
10.7595 7.01824 -13.9144
10.6314 7.07999 -13.9182
10.5034 7.14173 -13.922
10.4696 7.24196 -13.9233
10.4359 7.34219 -13.9247
10.3078 7.40393 -13.9285
10.2741 7.50416 -13.9299
10.1461 7.56591 -13.9336
10.018 7.62765 -13.9374
9.88994 7.68939 -13.9412
9.76187 7.75114 -13.945
9.6338 7.81288 -13.9488
9.60009 7.91311 -13.9502
9.47202 7.97486 -13.9539
9.34396 8.0366 -13.9577
9.21589 8.09834 -13.9615
9.08782 8.16009 -13.9653
8.95975 8.22183 -13.9691
8.73734 8.24509 -13.9753
8.51493 8.26834 -13.9815
8.48121 8.36857 -13.9829
8.35314 8.43032 -13.9867
8.22508 8.49206 -13.9905
8.09701 8.5538 -13.9943
7.87459 8.57706 -14.0005
7.74653 8.6388 -14.0043
7.61846 8.70055 -14.0081
7.01865 8.56986 -14.024
15.3065 -5.05307 -13.8316
15.2897 -4.90262 -13.8306
15.2103 -4.83268 -13.832
15.1935 -4.68223 -13.8309
15.1766 -4.53178 -13.8298
15.1598 -4.38133 -13.8288
15.1429 -4.23089 -13.8277
15.0012 -4.24145 -13.8315
14.9218 -4.1715 -13.8329
15.2173 -3.61853 -13.8197
15.138 -3.54859 -13.8211
15.1212 -3.39814 -13.82
15.0418 -3.3282 -13.8214
14.9625 -3.25826 -13.8228
14.8832 -3.18831 -13.8241
14.8664 -3.03786 -13.8231
14.7871 -2.96792 -13.8244
14.7077 -2.89798 -13.8258
14.6284 -2.82803 -13.8272
14.5491 -2.75809 -13.8285
14.4698 -2.68815 -13.8299
14.3905 -2.6182 -13.8313
14.3112 -2.54826 -13.8326
14.2318 -2.47832 -13.834
14.1525 -2.40837 -13.8354
14.0732 -2.33843 -13.8367
13.9939 -2.26849 -13.8381
13.9771 -2.11804 -13.837
13.8977 -2.0481 -13.8384
13.8184 -1.97816 -13.8398
13.8016 -1.82771 -13.8387
13.7223 -1.75776 -13.8401
13.7054 -1.60732 -13.839
13.6261 -1.53737 -13.8404
13.5468 -1.46743 -13.8418
13.4675 -1.39749 -13.8431
13.4506 -1.24704 -13.8421
13.3713 -1.1771 -13.8434
13.292 -1.10715 -13.8448
13.2127 -1.03721 -13.8462
13.1334 -0.967266 -13.8475
13.1165 -0.816818 -13.8465
13.0372 -0.746874 -13.8478
13.0203 -0.596426 -13.8468
13.0035 -0.445978 -13.8457
12.9866 -0.295533 -13.8447
12.9073 -0.225589 -13.846
12.8905 -0.0751405 -13.845
12.8736 0.0753107 -13.8439
12.7943 0.145252 -13.8453
12.7775 0.295697 -13.8442
12.7606 0.446148 -13.8432
12.7438 0.596596 -13.8421
12.6645 0.666537 -13.8435
12.6476 0.816986 -13.8424
12.5683 0.88693 -13.8438
12.5514 1.03738 -13.8427
12.5346 1.18783 -13.8417
12.5177 1.33827 -13.8406
12.5009 1.48872 -13.8396
12.484 1.63917 -13.8385
12.4047 1.70911 -13.8399
12.3879 1.85956 -13.8388
12.3086 1.9295 -13.8402
12.2293 1.99945 -13.8415
12.1499 2.06939 -13.8429
12.1331 2.21984 -13.8418
12.0538 2.28978 -13.8432
12.0369 2.44023 -13.8421
11.9576 2.51017 -13.8435
12.1906 2.98264 -13.8328
12.2362 3.21359 -13.8293
12.1569 3.28353 -13.8307
12.1401 3.43398 -13.8296
12.1232 3.58443 -13.8285
12.0439 3.65438 -13.8299
12.0271 3.80482 -13.8289
12.0102 3.95527 -13.8278
11.9934 4.10572 -13.8267
11.9765 4.25616 -13.8257
11.9597 4.40661 -13.8246
11.8804 4.47656 -13.826
11.8635 4.627 -13.8249
11.9091 4.85796 -13.8215
11.8923 5.0084 -13.8204
11.8754 5.15886 -13.8193
11.7961 5.2288 -13.8207
11.7793 5.37924 -13.8196
11.7624 5.52969 -13.8186
11.7456 5.68014 -13.8175
11.7287 5.83059 -13.8165
11.7119 5.98104 -13.8154
11.6325 6.05098 -13.8168
11.6157 6.20143 -13.8157
11.5988 6.35188 -13.8147
11.5195 6.42182 -13.816
11.5027 6.57226 -13.815
11.4234 6.64221 -13.8163
11.344 6.71215 -13.8177
11.3272 6.8626 -13.8167
11.2479 6.93254 -13.818
11.231 7.08299 -13.817
11.1517 7.15294 -13.8183
11.0724 7.22288 -13.8197
11.0556 7.37332 -13.8186
11.0387 7.52377 -13.8176
10.9594 7.59371 -13.8189
10.9425 7.74417 -13.8179
10.8632 7.81411 -13.8193
10.7839 7.88405 -13.8206
10.7046 7.95399 -13.822
10.6253 8.02394 -13.8233
10.4835 8.01337 -13.8271
10.3417 8.00281 -13.8309
10.2624 8.07276 -13.8323
10.1831 8.1427 -13.8337
10.1038 8.21264 -13.835
10.0245 8.28259 -13.8364
9.88269 8.27203 -13.8402
9.80337 8.34197 -13.8416
9.72406 8.41191 -13.8429
9.64474 8.48186 -13.8443
9.56543 8.5518 -13.8456
9.42365 8.54124 -13.8494
9.34433 8.61118 -13.8508
9.26501 8.68112 -13.8522
9.12323 8.67056 -13.856
9.04392 8.7405 -13.8573
8.90214 8.72994 -13.8611
8.82283 8.79989 -13.8625
8.74351 8.86983 -13.8638
8.60173 8.85927 -13.8676
8.52242 8.92921 -13.869
8.4431 8.99916 -13.8704
8.30132 8.98859 -13.8742
8.22201 9.05853 -13.8755
8.14269 9.12848 -13.8769
8.06338 9.19842 -13.8783
7.92159 9.18786 -13.882
7.77982 9.1773 -13.8858
7.63804 9.16674 -13.8896
7.49625 9.15617 -13.8934
7.41694 9.22612 -13.8948
7.33763 9.29606 -13.8961
7.19585 9.2855 -13.8999
7.11653 9.35544 -13.9013
6.97475 9.34488 -13.9051
6.89543 9.41483 -13.9064
6.75366 9.40426 -13.9102
6.61187 9.3937 -13.914
6.47009 9.38314 -13.9178
6.32831 9.37258 -13.9216
6.18653 9.36201 -13.9254
6.04475 9.35145 -13.9292
5.96544 9.4214 -13.9306
5.82366 9.41084 -13.9343
5.68188 9.40027 -13.9381
5.5401 9.38972 -13.9419
5.39831 9.37915 -13.9457
5.19407 9.28808 -13.9519
4.92736 9.11651 -13.9606
4.72312 9.02545 -13.9668
4.58133 9.01488 -13.9706
11.3462 6.66211 -13.8363
11.2564 6.78398 -13.8353
11.1805 7.0068 -13.8318
11.1183 7.33056 -13.8259
11.0285 7.45243 -13.8248
10.9249 7.47335 -13.8262
10.835 7.59522 -13.8251
10.7314 7.61613 -13.8265
10.6554 7.83894 -13.823
10.5794 8.06177 -13.8195
10.4896 8.18363 -13.8185
10.3998 8.3055 -13.8174
10.2961 8.32642 -13.8188
10.1925 8.34733 -13.8202
10.0888 8.36825 -13.8215
9.999 8.49011 -13.8205
9.89535 8.51103 -13.8218
9.79169 8.53194 -13.8232
9.70187 8.65381 -13.8221
9.59821 8.67473 -13.8235
9.52224 8.89754 -13.82
9.41858 8.91846 -13.8214
9.32876 9.04033 -13.8203
9.2251 9.06124 -13.8217
9.12144 9.08216 -13.8231
9.01778 9.10308 -13.8244
8.91412 9.12399 -13.8258
8.81046 9.1449 -13.8272
8.7068 9.16582 -13.8285
8.60314 9.18674 -13.8299
8.51332 9.3086 -13.8289
8.40966 9.32951 -13.8302
8.306 9.35043 -13.8316
8.20234 9.37134 -13.8329
8.09868 9.39226 -13.8343
8.00887 9.51413 -13.8333
7.90521 9.53504 -13.8346
7.80155 9.55596 -13.836
7.69789 9.57687 -13.8374
7.59423 9.59779 -13.8387
7.49057 9.61871 -13.8401
7.40075 9.74057 -13.839
7.29709 9.76149 -13.8404
7.19343 9.7824 -13.8418
7.08977 9.80332 -13.8431
6.98611 9.82423 -13.8445
6.88245 9.84515 -13.8459
6.77879 9.86606 -13.8472
6.67513 9.88698 -13.8486
6.57147 9.90789 -13.85
6.45397 9.82785 -13.8537
6.3503 9.84877 -13.8551
6.24664 9.86969 -13.8565
6.14298 9.8906 -13.8578
6.03933 9.91152 -13.8592
5.92182 9.83148 -13.863
5.81816 9.85239 -13.8644
5.70066 9.77236 -13.8681
5.597 9.79327 -13.8695
5.49334 9.81419 -13.8709
5.38968 9.8351 -13.8723
5.28602 9.85602 -13.8736
5.16851 9.77598 -13.8774
5.06485 9.7969 -13.8788
4.96119 9.81781 -13.8801
4.84369 9.73777 -13.8839
4.74003 9.75869 -13.8853
4.63637 9.7796 -13.8867
4.53271 9.80052 -13.888
4.4152 9.72048 -13.8918
4.31154 9.7414 -13.8932
4.20788 9.76231 -13.8945
4.09038 9.68228 -13.8983
3.98672 9.70319 -13.8997
3.86921 9.62315 -13.9035
3.75171 9.54312 -13.9073
3.64805 9.56403 -13.9086
3.53054 9.484 -13.9124
3.41304 9.40396 -13.9162
3.30938 9.42487 -13.9176
3.19187 9.34484 -13.9214
3.08821 9.36575 -13.9227
2.97071 9.28572 -13.9265
2.8532 9.20568 -13.9303
2.74955 9.22659 -13.9317
2.63204 9.14656 -13.9355
2.52838 9.16747 -13.9368
2.41087 9.08744 -13.9406
2.30721 9.10835 -13.942
2.18971 9.02831 -13.9458
2.08605 9.04923 -13.9472
1.96855 8.96919 -13.9509
1.85104 8.88916 -13.9547
1.73354 8.80912 -13.9585
1.61603 8.72908 -13.9623
1.48468 8.54809 -13.9685
1.33949 8.26615 -13.9772
1.22199 8.18612 -13.981
1.10448 8.10608 -13.9847
1.00082 8.12699 -13.9861
0.883315 8.04696 -13.9899
0.779656 8.06787 -13.9913
0.675996 8.08879 -13.9926
0.558492 8.00875 -13.9964
0.454833 8.02967 -13.9978
0.337326 7.94963 -14.0016
0.219823 7.8696 -14.0054
0.0884712 7.6886 -14.0116
8.18211 9.54238 -13.8811
8.00491 9.69736 -13.8777
7.86619 9.75799 -13.8766
7.68899 9.91297 -13.8731
7.55027 9.97361 -13.8721
7.41156 10.0342 -13.871
7.31133 10.0005 -13.8724
7.17261 10.0612 -13.8713
7.07238 10.0274 -13.8727
6.97215 9.99372 -13.874
6.87192 9.96001 -13.8754
6.77169 9.92629 -13.8768
6.63298 9.98692 -13.8757
6.53275 9.9532 -13.8771
6.39403 10.0138 -13.876
6.25531 10.0745 -13.875
6.15508 10.0407 -13.8763
6.05485 10.007 -13.8777
5.95462 9.97332 -13.8791
5.81591 10.0339 -13.878
5.71568 10.0002 -13.8794
5.57696 10.0609 -13.8783
5.43824 10.1215 -13.8773
5.29953 10.1821 -13.8762
5.1993 10.1484 -13.8776
5.09907 10.1147 -13.8789
4.99884 10.081 -13.8803
4.89861 10.0473 -13.8817
4.79838 10.0135 -13.883
4.69815 9.97983 -13.8844
4.55943 10.0405 -13.8833
4.4592 10.0067 -13.8847
4.32049 10.0674 -13.8837
4.22026 10.0337 -13.885
4.12003 9.99994 -13.8864
4.0198 9.96622 -13.8878
3.91957 9.9325 -13.8891
3.81934 9.89879 -13.8905
3.71911 9.86507 -13.8918
3.58039 9.9257 -13.8908
3.48016 9.89199 -13.8922
3.37993 9.85827 -13.8935
3.2797 9.82455 -13.8949
3.17947 9.79084 -13.8963
3.07924 9.75712 -13.8976
2.97901 9.7234 -13.899
2.87878 9.68968 -13.9004
2.77855 9.65597 -13.9017
2.67832 9.62225 -13.9031
2.57809 9.58853 -13.9044
2.51635 9.46046 -13.9082
2.41612 9.42675 -13.9096
2.31589 9.39303 -13.911
2.21566 9.35931 -13.9123
2.11543 9.32559 -13.9137
2.0152 9.29188 -13.9151
1.91497 9.25816 -13.9164
1.81474 9.22445 -13.9178
1.71451 9.19073 -13.9192
1.61428 9.15701 -13.9205
1.55254 9.02894 -13.9243
1.4523 8.99523 -13.9257
1.35207 8.96151 -13.9271
1.25185 8.92779 -13.9284
1.15162 8.89408 -13.9298
1.05138 8.86036 -13.9312
0.989641 8.7323 -13.935
0.889411 8.69858 -13.9363
0.789182 8.66486 -13.9377
0.688951 8.63114 -13.939
0.588722 8.59743 -13.9404
0.488491 8.56371 -13.9418
0.426749 8.43564 -13.9456
0.32652 8.40193 -13.9469
0.226289 8.36821 -13.9483
0.126059 8.33449 -13.9497
0.0258286 8.30078 -13.951
-0.0743997 8.26706 -13.9524
-0.136145 8.13899 -13.9562
-0.197886 8.01092 -13.96
-0.298116 7.97721 -13.9613
-0.398347 7.94349 -13.9627
-0.498576 7.90977 -13.9641
-0.598807 7.87605 -13.9654
-0.699037 7.84234 -13.9668
-0.799267 7.80862 -13.9682
-0.861012 7.68056 -13.972
-0.96124 7.64684 -13.9733
-1.02298 7.51877 -13.9771
-1.08473 7.39071 -13.9809
-1.14647 7.26265 -13.9847
-1.16973 7.04023 -13.9909
-1.23147 6.91216 -13.9947
-1.3317 6.87844 -13.9961
-1.39345 6.75038 -13.9998
-1.49368 6.71666 -14.0012
-1.59391 6.68294 -14.0026
-1.69413 6.64923 -14.004
-1.75588 6.52116 -14.0077
-1.85611 6.48745 -14.0091
-1.91785 6.35938 -14.0129
-1.9796 6.23131 -14.0167
-2.04134 6.10325 -14.0205
-2.0646 5.88083 -14.0267
-0.101595 9.15364 -13.9403
-0.171536 9.07432 -13.9417
-0.321988 9.05748 -13.9406
-0.391932 8.97816 -13.942
-0.461876 8.89885 -13.9434
-0.531819 8.81953 -13.9447
-0.682261 8.80268 -13.9437
-0.752205 8.72337 -13.945
-0.822149 8.64405 -13.9464
-0.892093 8.56474 -13.9478
-0.962037 8.48542 -13.9491
-1.03198 8.40611 -13.9505
-1.10192 8.32679 -13.9519
-1.17186 8.24748 -13.9532
-1.24181 8.16817 -13.9546
-1.31175 8.08885 -13.956
-1.4622 8.072 -13.9549
-1.53214 7.99269 -13.9563
-1.60209 7.91337 -13.9576
-1.67203 7.83406 -13.959
-1.74197 7.75474 -13.9604
-1.81192 7.67543 -13.9617
-1.88186 7.59611 -13.9631
-1.9518 7.5168 -13.9645
-2.02175 7.43749 -13.9658
-2.09169 7.35817 -13.9672
-2.16163 7.27886 -13.9686
-2.23158 7.19954 -13.9699
-2.30152 7.12023 -13.9713
-2.37146 7.04091 -13.9727
-2.4414 6.9616 -13.974
-2.51135 6.88228 -13.9754
-2.50078 6.7405 -13.9792
-2.57073 6.66119 -13.9805
-2.64067 6.58187 -13.9819
-2.71061 6.50256 -13.9833
-2.78056 6.42324 -13.9846
-2.8505 6.34393 -13.986
-2.92044 6.26461 -13.9874
-2.99039 6.1853 -13.9887
-3.06033 6.10598 -13.9901
-3.13027 6.02667 -13.9915
-3.20022 5.94735 -13.9928
-3.27016 5.86804 -13.9942
-3.2596 5.72626 -13.998
-3.32954 5.64694 -13.9994
-3.39949 5.56763 -14.0007
-3.38892 5.42585 -14.0045
-3.45887 5.34654 -14.0059
-3.52881 5.26722 -14.0072
-3.59875 5.1879 -14.0086
-3.6687 5.10859 -14.01
-3.73864 5.02928 -14.0114
-3.80858 4.94996 -14.0127
-3.87852 4.87065 -14.0141
-3.86796 4.72887 -14.0179
-3.93791 4.64955 -14.0192
-4.00785 4.57024 -14.0206
-3.99729 4.42845 -14.0244
-4.06723 4.34914 -14.0258
-4.13718 4.26983 -14.0271
-4.20712 4.19051 -14.0285
-4.19656 4.04873 -14.0323
-4.2665 3.96942 -14.0336
-4.33644 3.8901 -14.035
-4.32588 3.74832 -14.0388
-4.39583 3.66901 -14.0402
-4.46577 3.58969 -14.0415
-4.45521 3.44791 -14.0453
-2.70852 7.28862 -13.9929
-2.72944 7.18496 -13.9942
-2.8513 7.09514 -13.9932
-2.87221 6.99148 -13.9946
-2.99408 6.90167 -13.9935
-3.015 6.79801 -13.9949
-3.13687 6.70819 -13.9938
-3.25873 6.61837 -13.9927
-3.27965 6.51471 -13.9941
-3.40151 6.4249 -13.9931
-3.42243 6.32124 -13.9944
-3.5443 6.23142 -13.9934
-3.56521 6.12776 -13.9947
-3.58613 6.0241 -13.9961
-3.60704 5.92044 -13.9975
-3.62796 5.81678 -13.9988
-3.64887 5.71312 -14.0002
-3.77074 5.62331 -13.9991
-3.79165 5.51964 -14.0005
-3.91352 5.42983 -13.9995
-3.93444 5.32617 -14.0008
-3.95535 5.22251 -14.0022
-4.07722 5.13269 -14.0011
-4.09813 5.02903 -14.0025
-4.11905 4.92537 -14.0038
-4.13996 4.82171 -14.0052
-4.26184 4.7319 -14.0042
-4.28275 4.62824 -14.0055
-4.30366 4.52458 -14.0069
-4.42553 4.43476 -14.0058
-4.44645 4.3311 -14.0072
-4.46736 4.22744 -14.0086
-4.58922 4.13763 -14.0075
-4.71109 4.04781 -14.0065
-4.73201 3.94415 -14.0078
-4.75293 3.84049 -14.0092
-4.77384 3.73683 -14.0105
-4.79475 3.63317 -14.0119
-4.51282 3.48798 -14.0206
-4.53373 3.38432 -14.0219
-4.6556 3.2945 -14.0209
-4.77746 3.20468 -14.0198
-4.89933 3.11487 -14.0188
-4.92025 3.01121 -14.0201
-4.94116 2.90755 -14.0215
-4.96208 2.80389 -14.0228
-5.08394 2.71407 -14.0218
-5.20581 2.62425 -14.0207
-5.32768 2.53444 -14.0197
-5.34859 2.43078 -14.021
-5.47046 2.34096 -14.02
-5.59232 2.25115 -14.0189
-5.61324 2.14749 -14.0203
-5.73511 2.05767 -14.0192
-5.75602 1.95401 -14.0206
-5.77694 1.85035 -14.022
-5.79785 1.74669 -14.0233
-5.81877 1.64303 -14.0247
-5.83968 1.53937 -14.0261
-5.75965 1.42187 -14.0298
-5.57866 1.29052 -14.0361
-5.59957 1.18686 -14.0374
-5.62049 1.0832 -14.0388
-5.6414 0.979538 -14.0402
-5.66232 0.875877 -14.0415
-5.68323 0.772217 -14.0429
-5.8051 0.682402 -14.0418
-5.72506 0.564896 -14.0456
-5.74598 0.461236 -14.047
-5.7669 0.357578 -14.0484
-5.78781 0.253917 -14.0497
-5.80872 0.150258 -14.0511
-5.82964 0.0465963 -14.0525
-5.85056 -0.0570632 -14.0538
-5.77052 -0.174571 -14.0576
-5.79143 -0.278228 -14.059
-5.81235 -0.38189 -14.0603
-5.83326 -0.48555 -14.0617
-5.75323 -0.603053 -14.0655
-5.77414 -0.706715 -14.0669
-5.69411 -0.824218 -14.0706
-5.71502 -0.927878 -14.072
-5.73594 -1.03154 -14.0734
-5.6559 -1.14904 -14.0772
-5.67681 -1.25271 -14.0785
-5.69773 -1.35636 -14.0799
-5.61769 -1.47387 -14.0837
-5.63861 -1.57753 -14.0851
-5.55857 -1.69503 -14.0889
-5.57949 -1.79869 -14.0902
-5.49945 -1.9162 -14.094
-5.52036 -2.01986 -14.0954
-5.13747 -2.1789 -14.1064
-5.15838 -2.28256 -14.1078
-5.07835 -2.40006 -14.1116
-5.09926 -2.50372 -14.113
-5.01923 -2.62123 -14.1167
-5.04014 -2.72488 -14.1181
-6.19818 1.11148 -14.004
-6.25881 0.972759 -14.003
-6.2251 0.872529 -14.0043
-6.28573 0.733814 -14.0033
-6.25201 0.633583 -14.0047
-6.21829 0.533354 -14.006
-6.27893 0.394638 -14.005
-6.33956 0.255919 -14.0039
-6.40019 0.117205 -14.0028
-6.46082 -0.0215116 -14.0018
-6.4271 -0.121741 -14.0031
-6.48774 -0.260459 -14.0021
-6.45402 -0.36069 -14.0035
-6.4203 -0.460918 -14.0048
-6.38659 -0.56115 -14.0062
-6.35287 -0.661379 -14.0076
-6.31915 -0.76161 -14.0089
-6.28544 -0.86184 -14.0103
-6.25172 -0.962067 -14.0117
-6.218 -1.0623 -14.013
-6.18429 -1.16253 -14.0144
-6.15057 -1.26276 -14.0157
-6.11685 -1.36299 -14.0171
-6.08313 -1.46322 -14.0185
-6.04942 -1.56345 -14.0199
-6.0157 -1.66368 -14.0212
-5.98199 -1.76391 -14.0226
-5.94827 -1.86414 -14.024
-5.91455 -1.96437 -14.0253
-5.88083 -2.0646 -14.0267
-5.84712 -2.16483 -14.028
-5.8134 -2.26506 -14.0294
-5.77968 -2.36529 -14.0308
-5.74596 -2.46552 -14.0322
-5.71225 -2.56575 -14.0335
-5.67853 -2.66598 -14.0349
-5.64482 -2.76621 -14.0362
-5.6111 -2.86644 -14.0376
-5.48303 -2.92818 -14.0414
-5.44931 -3.02841 -14.0428
-5.41559 -3.12864 -14.0441
-5.38187 -3.22887 -14.0455
-5.34816 -3.3291 -14.0469
-5.31444 -3.42933 -14.0482
-5.28073 -3.52956 -14.0496
-5.24701 -3.62979 -14.051
-5.11894 -3.69153 -14.0547
-5.08523 -3.79176 -14.0561
-5.05151 -3.89199 -14.0575
-5.01779 -3.99222 -14.0589
-4.98408 -4.09245 -14.0602
-4.95036 -4.19268 -14.0616
-4.91664 -4.29291 -14.0629
-4.78857 -4.35466 -14.0667
-4.75486 -4.45489 -14.0681
-4.72114 -4.55511 -14.0695
-4.68742 -4.65534 -14.0708
-4.65371 -4.75558 -14.0722
-4.61999 -4.85581 -14.0736
-4.49193 -4.91755 -14.0774
-4.45821 -5.01778 -14.0787
-4.33014 -5.07952 -14.0825
-4.29642 -5.17975 -14.0839
-4.16836 -5.2415 -14.0877
-4.13464 -5.34173 -14.089
-4.10092 -5.44196 -14.0904
-4.06721 -5.54219 -14.0918
-4.03349 -5.64242 -14.0931
-3.90543 -5.70416 -14.0969
-3.87171 -5.80439 -14.0983
-3.83799 -5.90462 -14.0997
-3.70992 -5.96636 -14.1034
-3.67621 -6.06659 -14.1048
-3.54814 -6.12834 -14.1086
-3.51442 -6.22857 -14.11
-3.4807 -6.32879 -14.1113
-3.44699 -6.42903 -14.1127
-3.41327 -6.52925 -14.1141
-3.28521 -6.591 -14.1178
-3.25149 -6.69123 -14.1192
-3.21777 -6.79146 -14.1206
-3.18406 -6.89169 -14.1219
-3.05599 -6.95343 -14.1257
-3.02228 -7.05366 -14.1271
-2.8942 -7.11541 -14.1309
-2.86049 -7.21564 -14.1323
-2.73242 -7.27738 -14.136
-2.60436 -7.33912 -14.1398
-2.47629 -7.40087 -14.1436
-2.44257 -7.5011 -14.145
-2.40886 -7.60133 -14.1464
-2.28079 -7.66307 -14.1501
-2.24707 -7.7633 -14.1515
-2.21336 -7.86353 -14.1529
-2.08529 -7.92527 -14.1567
-2.05157 -8.0255 -14.158
-1.92351 -8.08725 -14.1618
-1.88979 -8.18748 -14.1632
-1.76173 -8.24922 -14.167
-1.72801 -8.34945 -14.1683
-1.59994 -8.41119 -14.1721
-1.56622 -8.51142 -14.1735
-1.43816 -8.57317 -14.1773
-1.40444 -8.6734 -14.1786
-1.37073 -8.77363 -14.18
-1.33701 -8.87386 -14.1814
-1.20894 -8.9356 -14.1852
-1.17522 -9.03583 -14.1865
-1.04716 -9.09757 -14.1903
-0.919094 -9.15932 -14.1941
-0.791025 -9.22106 -14.1979
-0.568612 -9.24432 -14.2041
-0.440547 -9.30606 -14.2079
