ply
format ascii 1.0
comment VCGLIB generated
element vertex 1192
property float x
property float y
property float z
element face 0
property list uchar int vertex_indices
end_header
3.9975 -12.5773 -12.8126
4.14795 -12.5605 -12.8116
4.2984 -12.5436 -12.8105
4.44885 -12.5268 -12.8095
4.6798 -12.5724 -12.806
5.07176 -12.7429 -12.7977
5.30272 -12.7886 -12.7942
5.53367 -12.8342 -12.7907
5.68412 -12.8173 -12.7896
5.83456 -12.8005 -12.7886
5.98501 -12.7836 -12.7875
6.13546 -12.7668 -12.7865
6.36641 -12.8124 -12.783
6.43636 -12.7331 -12.7844
6.5868 -12.7162 -12.7833
6.65675 -12.6369 -12.7847
6.72669 -12.5576 -12.786
6.87714 -12.5408 -12.785
6.94708 -12.4614 -12.7863
7.09753 -12.4446 -12.7853
7.16747 -12.3653 -12.7867
7.23742 -12.286 -12.788
7.38786 -12.2691 -12.787
7.4578 -12.1898 -12.7883
7.60825 -12.1729 -12.7873
7.6782 -12.0936 -12.7886
7.82864 -12.0768 -12.7876
7.89859 -11.9975 -12.7889
7.96853 -11.9182 -12.7903
8.11898 -11.9013 -12.7892
8.18892 -11.822 -12.7906
8.33937 -11.8051 -12.7896
8.40932 -11.7258 -12.7909
8.47926 -11.6465 -12.7923
8.6297 -11.6297 -12.7912
8.69965 -11.5503 -12.7926
8.76959 -11.471 -12.794
8.75903 -11.3293 -12.7978
8.82897 -11.2499 -12.7991
8.89892 -11.1706 -12.8005
8.96886 -11.0913 -12.8018
9.0388 -11.012 -12.8032
9.18925 -10.9951 -12.8022
9.25919 -10.9158 -12.8035
9.40964 -10.899 -12.8025
9.47958 -10.8197 -12.8038
9.54953 -10.7404 -12.8052
9.61947 -10.661 -12.8066
9.68941 -10.5817 -12.8079
9.75935 -10.5024 -12.8093
9.8293 -10.4231 -12.8107
9.89924 -10.3438 -12.812
10.0497 -10.3269 -12.811
10.1196 -10.2476 -12.8123
10.2701 -10.2308 -12.8113
10.34 -10.1515 -12.8127
10.41 -10.0721 -12.814
10.5604 -10.0553 -12.813
10.7109 -10.0384 -12.8119
10.7808 -9.95912 -12.8133
10.9313 -9.94227 -12.8122
11.0817 -9.92542 -12.8112
11.2321 -9.90857 -12.8101
11.3826 -9.89173 -12.809
11.4525 -9.81241 -12.8104
11.603 -9.79556 -12.8093
11.6729 -9.71624 -12.8107
11.7429 -9.63693 -12.8121
11.8933 -9.62008 -12.811
11.9633 -9.54077 -12.8124
12.0332 -9.46145 -12.8138
12.1031 -9.38214 -12.8151
12.1731 -9.30282 -12.8165
12.243 -9.22351 -12.8179
12.313 -9.14419 -12.8192
12.4634 -9.12735 -12.8182
12.5334 -9.04803 -12.8195
12.6033 -8.96872 -12.8209
12.7538 -8.95187 -12.8198
12.8237 -8.87255 -12.8212
12.8937 -8.79324 -12.8226
13.0441 -8.77639 -12.8215
13.114 -8.69707 -12.8229
13.184 -8.61776 -12.8242
13.2539 -8.53845 -12.8256
13.3239 -8.45913 -12.827
13.3133 -8.31735 -12.8308
13.3833 -8.23804 -12.8321
13.4532 -8.15872 -12.8335
13.5231 -8.07941 -12.8349
13.6736 -8.06256 -12.8338
13.7435 -7.98324 -12.8352
13.8135 -7.90393 -12.8365
13.9639 -7.88708 -12.8355
14.0339 -7.80777 -12.8369
14.1038 -7.72845 -12.8382
14.1737 -7.64913 -12.8396
14.2437 -7.56982 -12.8409
14.3136 -7.49051 -12.8423
14.4641 -7.47365 -12.8412
14.534 -7.39434 -12.8426
14.6845 -7.37749 -12.8416
14.7544 -7.29818 -12.8429
14.8244 -7.21886 -12.8443
14.8138 -7.07708 -12.8481
14.8032 -6.9353 -12.8519
14.7122 -6.73106 -12.8581
14.7016 -6.58928 -12.8619
14.691 -6.4475 -12.8657
14.6805 -6.30571 -12.8694
14.5894 -6.10147 -12.8757
14.5789 -5.95969 -12.8795
14.5683 -5.81791 -12.8832
14.3967 -5.5512 -12.8919
14.0641 -5.15955 -12.9054
13.9731 -4.95531 -12.9116
13.6405 -4.56367 -12.925
13.5494 -4.35942 -12.9313
13.4584 -4.15517 -12.9375
7.21874 -12.7009 -12.8006
7.34061 -12.6111 -12.7995
7.36152 -12.5074 -12.8009
7.48339 -12.4176 -12.7998
7.5043 -12.314 -12.8012
7.62617 -12.2242 -12.8001
7.94994 -12.162 -12.7942
7.97086 -12.0584 -12.7956
8.09273 -11.9685 -12.7945
8.11364 -11.8649 -12.7959
8.13455 -11.7612 -12.7973
8.25642 -11.6714 -12.7962
8.27734 -11.5678 -12.7976
8.39921 -11.4779 -12.7965
8.42012 -11.3743 -12.7979
8.54199 -11.2845 -12.7968
8.5629 -11.1808 -12.7982
8.68477 -11.091 -12.7971
8.70569 -10.9873 -12.7985
8.9285 -10.9114 -12.795
9.05037 -10.8215 -12.7939
9.27319 -10.7456 -12.7905
9.79887 -10.7111 -12.7797
9.81978 -10.6075 -12.7811
9.94164 -10.5176 -12.78
10.0635 -10.4278 -12.779
10.1854 -10.338 -12.7779
10.3072 -10.2482 -12.7769
10.4291 -10.1584 -12.7758
10.551 -10.0686 -12.7747
10.6728 -9.97876 -12.7737
10.7947 -9.88894 -12.7726
11.0175 -9.81297 -12.7691
11.3413 -9.75084 -12.7632
11.5641 -9.67487 -12.7598
11.7869 -9.5989 -12.7563
11.9088 -9.50908 -12.7552
12.0307 -9.41927 -12.7542
12.1525 -9.32945 -12.7531
12.2744 -9.23964 -12.7521
12.2953 -9.13597 -12.7534
12.4172 -9.04616 -12.7524
12.4381 -8.9425 -12.7537
12.6609 -8.86653 -12.7503
12.7828 -8.77671 -12.7492
12.9047 -8.6869 -12.7481
13.0265 -8.59708 -12.7471
13.1484 -8.50726 -12.746
13.3712 -8.43129 -12.7425
13.3921 -8.32763 -12.7439
13.514 -8.23782 -12.7429
13.5349 -8.13416 -12.7442
13.5558 -8.0305 -12.7456
13.6777 -7.94068 -12.7445
13.7996 -7.85086 -12.7435
13.9214 -7.76105 -12.7424
13.9423 -7.65739 -12.7438
14.0642 -7.56757 -12.7427
14.0851 -7.46391 -12.7441
14.207 -7.3741 -12.743
14.5308 -7.31197 -12.7371
14.6526 -7.22215 -12.7361
14.7745 -7.13234 -12.735
14.7954 -7.02868 -12.7364
14.9173 -6.93886 -12.7353
14.9382 -6.8352 -12.7367
14.9591 -6.73154 -12.7381
14.8791 -6.61404 -12.7419
14.9 -6.51038 -12.7432
14.9209 -6.40672 -12.7446
14.9418 -6.30306 -12.7459
14.9627 -6.1994 -12.7473
14.9836 -6.09574 -12.7487
14.9036 -5.97823 -12.7525
14.9245 -5.87457 -12.7538
14.8445 -5.75707 -12.7576
14.8654 -5.65341 -12.759
14.7854 -5.5359 -12.7628
14.7053 -5.4184 -12.7666
14.6253 -5.30089 -12.7704
14.5453 -5.18339 -12.7741
14.5662 -5.07973 -12.7755
14.4861 -4.96222 -12.7793
14.4061 -4.84472 -12.7831
14.3261 -4.72722 -12.7869
14.347 -4.62355 -12.7882
14.2669 -4.50605 -12.792
14.1869 -4.38855 -12.7958
14.1069 -4.27104 -12.7996
14.0268 -4.15354 -12.8034
14.0477 -4.04988 -12.8048
13.9677 -3.93237 -12.8085
13.8877 -3.81487 -12.8123
13.8076 -3.69736 -12.8161
13.7276 -3.57986 -12.8199
13.6476 -3.46235 -12.8237
13.5675 -3.34485 -12.8275
13.4875 -3.22734 -12.8313
13.4075 -3.10984 -12.8351
13.4284 -3.00618 -12.8364
13.3483 -2.88868 -12.8402
13.2683 -2.77117 -12.844
13.1883 -2.65367 -12.8478
13.1082 -2.53616 -12.8516
13.0282 -2.41866 -12.8554
12.9481 -2.30115 -12.8592
12.8681 -2.18365 -12.863
12.7881 -2.06614 -12.8668
12.708 -1.94864 -12.8705
12.628 -1.83114 -12.8743
12.6489 -1.72748 -12.8757
12.5689 -1.60997 -12.8795
12.4888 -1.49247 -12.8833
12.5098 -1.38881 -12.8846
12.5307 -1.28515 -12.886
12.4506 -1.16764 -12.8898
12.4715 -1.06398 -12.8912
12.3915 -0.946477 -12.895
12.4124 -0.842818 -12.8963
12.4333 -0.739156 -12.8977
12.3533 -0.621652 -12.9015
12.3742 -0.517991 -12.9028
12.2942 -0.400487 -12.9066
12.2142 -0.282985 -12.9104
12.2351 -0.179322 -12.9118
12.155 -0.0618174 -12.9156
12.1759 0.0418422 -12.9169
12.1969 0.145502 -12.9183
12.2178 0.249161 -12.9197
12.1377 0.366668 -12.9235
12.1586 0.470327 -12.9248
12.1796 0.573989 -12.9262
12.2005 0.677646 -12.9276
12.1204 0.795149 -12.9314
12.1414 0.898811 -12.9327
12.1623 1.00247 -12.9341
12.0822 1.11998 -12.9379
12.1032 1.22364 -12.9392
12.1241 1.3273 -12.9406
12.044 1.4448 -12.9444
12.0649 1.54846 -12.9458
11.9849 1.66597 -12.9496
11.9049 1.78347 -12.9533
11.9258 1.88713 -12.9547
11.8458 2.00464 -12.9585
11.8667 2.10829 -12.9599
11.7866 2.2258 -12.9637
11.8075 2.32946 -12.965
11.8285 2.43312 -12.9664
11.8494 2.53678 -12.9677
11.7693 2.65429 -12.9715
11.7903 2.75795 -12.9729
11.8112 2.8616 -12.9743
11.7311 2.97911 -12.9781
11.752 3.08277 -12.9794
11.672 3.20027 -12.9832
11.6929 3.30393 -12.9846
11.7138 3.4076 -12.9859
11.7348 3.51125 -12.9873
11.6547 3.62876 -12.9911
11.6756 3.73242 -12.9925
11.6966 3.83608 -12.9938
11.6165 3.95358 -12.9976
11.6374 4.05725 -12.999
11.6583 4.1609 -13.0004
11.6793 4.26456 -13.0017
11.5992 4.38207 -13.0055
11.6201 4.48573 -13.0069
11.641 4.58939 -13.0082
11.561 4.70689 -13.012
11.5819 4.81055 -13.0134
11.6028 4.91421 -13.0148
11.6238 5.01787 -13.0161
11.6447 5.12153 -13.0175
11.5646 5.23904 -13.0213
11.5856 5.3427 -13.0226
11.6065 5.44636 -13.024
11.5264 5.56386 -13.0278
11.5473 5.66752 -13.0292
11.0635 5.84041 -13.0426
10.9835 5.95791 -13.0464
10.9034 6.07542 -13.0502
10.8234 6.19292 -13.054
10.7434 6.31042 -13.0578
10.3605 6.46946 -13.0689
10.2804 6.58697 -13.0726
10.2004 6.70447 -13.0764
15.19 -6.79023 -12.7321
15.2506 -6.65151 -12.731
15.2169 -6.55128 -12.7324
15.2776 -6.41257 -12.7313
15.2438 -6.31234 -12.7327
15.2101 -6.21211 -12.7341
15.1764 -6.11187 -12.7354
15.237 -5.97316 -12.7344
15.2033 -5.87293 -12.7357
15.1696 -5.7727 -12.7371
15.2302 -5.63398 -12.7361
15.1965 -5.53375 -12.7374
15.1628 -5.43352 -12.7388
15.1291 -5.33329 -12.7402
15.0954 -5.23306 -12.7415
15.0617 -5.13283 -12.7429
15.0279 -5.0326 -12.7442
14.9942 -4.93237 -12.7456
15.0549 -4.79366 -12.7446
15.0211 -4.69343 -12.7459
14.9874 -4.5932 -12.7473
14.9537 -4.49297 -12.7487
14.92 -4.39274 -12.75
14.8863 -4.29251 -12.7514
14.7582 -4.23076 -12.7552
14.6301 -4.16902 -12.759
14.5021 -4.10728 -12.7628
14.4684 -4.00705 -12.7641
14.3403 -3.9453 -12.7679
14.3066 -3.84507 -12.7693
14.2729 -3.74484 -12.7706
14.2391 -3.64461 -12.772
14.2054 -3.54438 -12.7734
14.0774 -3.48264 -12.7772
14.0436 -3.38241 -12.7785
14.0099 -3.28218 -12.7799
13.9762 -3.18195 -12.7813
13.9425 -3.08172 -12.7826
13.8144 -3.01998 -12.7864
13.7807 -2.91975 -12.7878
13.747 -2.81952 -12.7892
13.7133 -2.71929 -12.7905
13.6795 -2.61906 -12.7919
13.6458 -2.51883 -12.7933
13.6121 -2.4186 -12.7946
13.4841 -2.35685 -12.7984
13.4503 -2.25662 -12.7998
13.4166 -2.15639 -12.8011
13.3829 -2.05616 -12.8025
13.3492 -1.95593 -12.8039
13.3155 -1.8557 -12.8052
13.2818 -1.75547 -12.8066
13.248 -1.65524 -12.808
13.2143 -1.55502 -12.8093
13.1806 -1.45478 -12.8107
13.2412 -1.31607 -12.8096
13.2075 -1.21584 -12.811
13.1738 -1.11561 -12.8124
13.1401 -1.01538 -12.8137
13.012 -0.953636 -12.8175
12.9783 -0.853405 -12.8189
12.9446 -0.753176 -12.8203
12.9109 -0.652946 -12.8216
12.9715 -0.51423 -12.8206
12.9378 -0.414001 -12.8219
12.9041 -0.31377 -12.8233
12.8703 -0.213542 -12.8247
12.8366 -0.113311 -12.826
12.8029 -0.0130806 -12.8274
12.7692 0.0871496 -12.8288
12.7355 0.187379 -12.8301
12.7018 0.287608 -12.8315
12.668 0.387838 -12.8329
12.54 0.449584 -12.8367
12.5063 0.549814 -12.838
12.4725 0.650043 -12.8394
12.4388 0.750273 -12.8408
12.4051 0.850503 -12.8421
12.3714 0.950733 -12.8435
12.3377 1.05096 -12.8448
12.304 1.15119 -12.8462
12.3646 1.28991 -12.8452
12.3309 1.39014 -12.8465
12.2972 1.49037 -12.8479
12.2634 1.5906 -12.8493
12.2297 1.69083 -12.8506
12.196 1.79106 -12.852
12.2566 1.92977 -12.8509
12.2229 2.03 -12.8523
12.1892 2.13024 -12.8537
12.1555 2.23046 -12.855
12.2161 2.36918 -12.854
12.1824 2.46941 -12.8553
12.1487 2.56964 -12.8567
12.115 2.66987 -12.8581
12.0812 2.7701 -12.8594
12.1419 2.90882 -12.8584
12.1082 3.00905 -12.8597
12.0744 3.10928 -12.8611
12.0407 3.20951 -12.8625
12.007 3.30974 -12.8638
12.0676 3.44845 -12.8628
12.0339 3.54868 -12.8642
12.0002 3.64891 -12.8655
11.9665 3.74914 -12.8669
11.9328 3.84937 -12.8683
11.8991 3.9496 -12.8696
11.8653 4.04983 -12.871
11.926 4.18855 -12.8699
11.8923 4.28878 -12.8713
11.9529 4.4275 -12.8702
11.9192 4.52773 -12.8716
11.8855 4.62795 -12.873
11.8517 4.72819 -12.8743
11.818 4.82841 -12.8757
11.7843 4.92865 -12.8771
11.7506 5.02888 -12.8784
11.7169 5.12911 -12.8798
11.6832 5.22934 -12.8812
11.6494 5.32956 -12.8825
11.6157 5.42979 -12.8839
11.582 5.53003 -12.8853
11.5483 5.63026 -12.8866
11.6089 5.76897 -12.8856
11.5752 5.8692 -12.8869
11.5415 5.96943 -12.8883
11.5078 6.06966 -12.8897
11.4741 6.16989 -12.891
11.4403 6.27012 -12.8924
11.3123 6.33186 -12.8962
11.2786 6.43209 -12.8976
11.2448 6.53232 -12.8989
11.2111 6.63255 -12.9003
11.083 6.6943 -12.9041
11.0493 6.79453 -12.9054
10.9213 6.85627 -12.9092
10.8876 6.9565 -12.9106
10.7595 7.01824 -12.9144
10.7258 7.11847 -12.9158
10.5977 7.18022 -12.9195
10.564 7.28045 -12.9209
10.4359 7.34219 -12.9247
10.3078 7.40393 -12.9285
10.2741 7.50416 -12.9299
10.0517 7.52742 -12.9361
9.82931 7.55068 -12.9423
9.79559 7.65091 -12.9436
9.66752 7.71265 -12.9474
9.6338 7.81288 -12.9488
9.50574 7.87462 -12.9526
9.37767 7.93637 -12.9564
9.24961 7.99811 -12.9602
9.12154 8.05985 -12.964
8.99347 8.1216 -12.9677
8.77106 8.14486 -12.974
8.64299 8.2066 -12.9778
8.51493 8.26834 -12.9815
8.38686 8.33009 -12.9853
8.25879 8.39183 -12.9891
8.22508 8.49206 -12.9905
8.09701 8.5538 -12.9943
7.4972 8.42311 -13.0102
7.36913 8.48486 -13.014
7.05237 8.46963 -13.0226
12.7606 0.446148 -12.8432
12.7438 0.596596 -12.8421
12.7269 0.747042 -12.841
12.7101 0.89749 -12.84
12.6308 0.967433 -12.8414
12.6139 1.11788 -12.8403
12.5346 1.18783 -12.8417
12.4553 1.25777 -12.843
12.4384 1.40822 -12.842
12.3591 1.47816 -12.8433
12.2798 1.5481 -12.8447
12.263 1.69855 -12.8436
12.2461 1.849 -12.8426
12.2917 2.07995 -12.8391
12.2749 2.2304 -12.8381
12.1956 2.30034 -12.8394
12.1787 2.45079 -12.8384
12.1619 2.60124 -12.8373
12.0825 2.67118 -12.8387
12.0032 2.74113 -12.84
11.9239 2.81107 -12.8414
11.8446 2.88101 -12.8428
11.7653 2.95095 -12.8441
11.8734 3.26241 -12.8382
11.8565 3.41286 -12.8372
11.8397 3.56331 -12.8361
11.9477 3.87476 -12.8302
11.9309 4.02521 -12.8292
11.914 4.17566 -12.8281
11.8972 4.32611 -12.827
11.8179 4.39605 -12.8284
11.801 4.5465 -12.8273
11.7217 4.61644 -12.8287
11.8298 4.9279 -12.8228
11.813 5.07835 -12.8218
11.7961 5.2288 -12.8207
11.7168 5.29874 -12.8221
11.6999 5.44919 -12.821
11.6206 5.51913 -12.8224
11.6038 5.66958 -12.8213
11.5869 5.82003 -12.8203
11.5701 5.97047 -12.8192
11.4908 6.04042 -12.8206
11.4739 6.19087 -12.8195
11.4571 6.34131 -12.8185
11.3777 6.41126 -12.8198
11.3609 6.5617 -12.8188
11.2816 6.63165 -12.8201
11.2647 6.7821 -12.8191
11.2479 6.93254 -12.818
11.1686 7.00248 -12.8194
11.1517 7.15294 -12.8183
11.1349 7.30338 -12.8173
11.0556 7.37332 -12.8186
11.0387 7.52377 -12.8176
10.9594 7.59371 -12.8189
10.9425 7.74417 -12.8179
10.8632 7.81411 -12.8193
10.7839 7.88405 -12.8206
10.6421 7.87349 -12.8244
10.5628 7.94343 -12.8258
10.421 7.93287 -12.8296
10.3417 8.00281 -12.8309
10.1999 7.99226 -12.8347
10.1206 8.0622 -12.8361
9.97885 8.05163 -12.8399
9.89953 8.12158 -12.8412
9.82022 8.19152 -12.8426
9.7409 8.26146 -12.844
9.66159 8.3314 -12.8453
9.58227 8.40135 -12.8467
9.44049 8.39079 -12.8505
9.36118 8.46073 -12.8519
9.28187 8.53068 -12.8532
9.14008 8.52011 -12.857
9.06077 8.59006 -12.8584
8.98146 8.66 -12.8597
8.83967 8.64944 -12.8635
8.76036 8.71938 -12.8649
8.68105 8.78932 -12.8663
8.53926 8.77876 -12.8701
8.45995 8.84871 -12.8714
8.38064 8.91865 -12.8728
8.30132 8.98859 -12.8742
8.15954 8.97803 -12.8779
8.08022 9.04797 -12.8793
7.93845 9.03741 -12.8831
7.85913 9.10736 -12.8845
7.71735 9.09679 -12.8883
7.45064 8.92522 -12.8969
7.30886 8.91466 -12.9007
7.22954 8.9846 -12.902
7.15023 9.05455 -12.9034
7.07091 9.12449 -12.9048
6.92913 9.11393 -12.9086
6.84982 9.18387 -12.9099
6.7705 9.25382 -12.9113
6.62872 9.24325 -12.9151
6.54941 9.3132 -12.9165
6.47009 9.38314 -12.9178
6.32831 9.37258 -12.9216
6.18653 9.36201 -12.9254
6.04475 9.35145 -12.9292
5.90297 9.34089 -12.933
5.76119 9.33033 -12.9368
5.61941 9.31977 -12.9406
5.41517 9.2287 -12.9468
5.27339 9.21814 -12.9506
5.1316 9.20758 -12.9543
4.98983 9.19702 -12.9581
4.84805 9.18646 -12.9619
4.6438 9.09539 -12.9681
4.37709 8.92382 -12.9768
4.23531 8.91326 -12.9806
4.09353 8.9027 -12.9843
3.95175 8.89213 -12.9881
3.43518 8.39855 -13.0065
3.35586 8.46849 -13.0078
3.21408 8.45792 -13.0116
3.0723 8.44736 -13.0154
10.9731 7.04862 -12.8345
10.911 7.37239 -12.8286
10.835 7.59522 -12.8251
10.7591 7.81803 -12.8217
10.6692 7.9399 -12.8206
10.5794 8.06177 -12.8195
10.4758 8.08268 -12.8209
10.3721 8.1036 -12.8223
10.2685 8.12451 -12.8237
10.1786 8.24638 -12.8226
10.075 8.26729 -12.824
9.98516 8.38916 -12.8229
9.8815 8.41008 -12.8243
9.77784 8.43099 -12.8256
9.68803 8.55286 -12.8246
9.58436 8.57377 -12.8259
9.49455 8.69564 -12.8249
9.39089 8.71656 -12.8262
9.30107 8.83842 -12.8252
9.19741 8.85934 -12.8266
9.09375 8.88025 -12.8279
8.99009 8.90117 -12.8293
8.88643 8.92208 -12.8307
8.78277 8.943 -12.832
8.69296 9.06487 -12.831
8.5893 9.08578 -12.8323
8.49948 9.20765 -12.8313
8.39582 9.22856 -12.8326
8.306 9.35043 -12.8316
8.20234 9.37134 -12.8329
8.09868 9.39226 -12.8343
7.99502 9.41318 -12.8357
7.90521 9.53504 -12.8346
7.80155 9.55596 -12.836
7.69789 9.57687 -12.8374
7.59423 9.59779 -12.8387
7.49057 9.61871 -12.8401
7.38691 9.63962 -12.8414
7.28325 9.66053 -12.8428
7.17959 9.68145 -12.8442
7.07593 9.70237 -12.8456
6.95842 9.62232 -12.8493
6.85476 9.64324 -12.8507
6.7511 9.66416 -12.8521
6.64744 9.68507 -12.8534
6.55763 9.80694 -12.8524
6.45397 9.82785 -12.8537
6.3503 9.84877 -12.8551
6.2328 9.76873 -12.8589
6.12914 9.78965 -12.8603
6.02548 9.81056 -12.8616
5.92182 9.83148 -12.863
5.81816 9.85239 -12.8644
5.7145 9.87331 -12.8657
5.597 9.79327 -12.8695
5.49334 9.81419 -12.8709
5.37583 9.73415 -12.8747
5.27217 9.75506 -12.876
5.15467 9.67503 -12.8798
5.05101 9.69594 -12.8812
4.94735 9.71686 -12.8826
4.84369 9.73777 -12.8839
4.74003 9.75869 -12.8853
4.63637 9.7796 -12.8867
4.51886 9.69957 -12.8905
4.4152 9.72048 -12.8918
4.31154 9.7414 -12.8932
4.19404 9.66136 -12.897
4.09038 9.68228 -12.8983
3.97287 9.60224 -12.9021
3.86921 9.62315 -12.9035
3.75171 9.54312 -12.9073
3.64805 9.56403 -12.9086
3.53054 9.484 -12.9124
3.38535 9.20205 -12.9211
3.28169 9.22297 -12.9224
3.17803 9.24388 -12.9238
3.07437 9.2648 -12.9252
2.95686 9.18477 -12.929
2.8532 9.20568 -12.9303
2.7357 9.12564 -12.9341
2.63204 9.14656 -12.9355
2.51453 9.06652 -12.9393
2.41087 9.08744 -12.9406
2.29337 9.0074 -12.9444
2.18971 9.02831 -12.9458
2.07221 8.94828 -12.9496
1.9547 8.86824 -12.9534
1.8372 8.78821 -12.9572
1.71969 8.70817 -12.961
1.60219 8.62813 -12.9647
1.48468 8.54809 -12.9685
1.38102 8.56901 -12.9699
1.26352 8.48897 -12.9737
1.14601 8.40893 -12.9775
0.973132 7.92509 -12.991
0.869471 7.94601 -12.9923
0.751966 7.86597 -12.9961
0.648307 7.88689 -12.9975
0.544647 7.9078 -12.9988
0.440987 7.92871 -13.0002
0.323482 7.84868 -13.004
8.82918 8.79439 -12.8988
8.53652 9.23242 -12.8881
8.3978 9.29305 -12.887
8.29757 9.25933 -12.8884
8.19734 9.22561 -12.8898
8.05862 9.28625 -12.8887
7.95839 9.25253 -12.8901
7.78119 9.40751 -12.8866
7.64248 9.46815 -12.8855
7.50376 9.52877 -12.8845
7.17261 10.0612 -12.8713
7.07238 10.0274 -12.8727
6.93367 10.0881 -12.8716
6.83344 10.0544 -12.873
6.69472 10.115 -12.8719
6.59449 10.0813 -12.8733
6.49426 10.0475 -12.8747
6.35554 10.1082 -12.8736
6.25531 10.0745 -12.875
6.15508 10.0407 -12.8763
6.05485 10.007 -12.8777
5.91614 10.0677 -12.8766
5.81591 10.0339 -12.878
5.67719 10.0946 -12.877
5.57696 10.0609 -12.8783
5.47673 10.0271 -12.8797
5.3765 9.99343 -12.8811
5.23778 10.0541 -12.88
5.13756 10.0203 -12.8814
5.03733 9.98663 -12.8827
4.93709 9.95291 -12.8841
4.83686 9.91919 -12.8855
4.73663 9.88548 -12.8868
4.63641 9.85176 -12.8882
4.53618 9.81804 -12.8896
4.43595 9.78432 -12.8909
4.33572 9.75061 -12.8923
4.197 9.81124 -12.8912
4.09677 9.77752 -12.8926
3.95805 9.83815 -12.8915
3.85782 9.80444 -12.8929
3.75759 9.77072 -12.8943
3.65736 9.737 -12.8956
3.55713 9.70328 -12.897
3.4569 9.66957 -12.8984
3.35667 9.63585 -12.8997
3.25644 9.60214 -12.9011
3.15621 9.56842 -12.9025
3.05598 9.5347 -12.9038
2.95575 9.50098 -12.9052
2.85552 9.46727 -12.9066
2.75529 9.43355 -12.9079
2.65506 9.39983 -12.9093
2.55483 9.36611 -12.9107
2.4546 9.3324 -12.912
2.35437 9.29868 -12.9134
2.25414 9.26496 -12.9148
2.15391 9.23125 -12.9161
2.05368 9.19753 -12.9175
1.95345 9.16381 -12.9189
1.85322 9.1301 -12.9202
1.753 9.09638 -12.9216
1.65276 9.06266 -12.923
1.55254 9.02894 -12.9243
1.4523 8.99523 -12.9257
1.35207 8.96151 -12.9271
1.25185 8.92779 -12.9284
1.1901 8.79973 -12.9322
1.08987 8.76601 -12.9336
0.989641 8.7323 -12.935
0.889411 8.69858 -12.9363
0.789182 8.66486 -12.9377
0.727438 8.53679 -12.9415
0.627208 8.50308 -12.9428
0.526978 8.46936 -12.9442
0.426749 8.43564 -12.9456
0.32652 8.40193 -12.9469
0.264775 8.27386 -12.9507
0.164544 8.24014 -12.9521
0.0643146 8.20643 -12.9534
0.00257349 8.07836 -12.9572
-0.0976562 8.04464 -12.9586
-0.159401 7.91658 -12.9624
-0.221144 7.78851 -12.9662
-0.282889 7.66044 -12.97
-0.383117 7.62673 -12.9713
3.4669 10.1251 -12.9505
3.31646 10.1083 -12.9495
3.16601 10.0914 -12.9484
3.01556 10.0746 -12.9474
2.94562 9.99528 -12.9487
2.79517 9.97843 -12.9477
2.72523 9.89911 -12.949
2.57478 9.88227 -12.948
2.50484 9.80295 -12.9493
2.35439 9.7861 -12.9483
2.20394 9.76925 -12.9472
1.89248 9.87733 -12.9413
1.74204 9.86049 -12.9403
1.59159 9.84363 -12.9392
1.52165 9.76432 -12.9406
1.45171 9.685 -12.9419
1.38176 9.60569 -12.9433
1.23131 9.58884 -12.9422
1.16137 9.50953 -12.9436
1.09142 9.43021 -12.945
0.940978 9.41336 -12.9439
0.871034 9.33405 -12.9453
0.720586 9.3172 -12.9442
0.650642 9.23789 -12.9456
0.500196 9.22104 -12.9445
0.18874 9.32912 -12.9386
0.118796 9.2498 -12.94
-0.0316525 9.23295 -12.9389
-0.101595 9.15364 -12.9403
-0.171536 9.07432 -12.9417
-0.321988 9.05748 -12.9406
-0.391932 8.97816 -12.942
-0.461876 8.89885 -12.9434
-0.531819 8.81953 -12.9447
-0.60176 8.74022 -12.9461
-0.671704 8.6609 -12.9474
-0.741648 8.58159 -12.9488
-0.892093 8.56474 -12.9478
-0.962037 8.48542 -12.9491
-1.03198 8.40611 -12.9505
-1.10192 8.32679 -12.9519
-1.17186 8.24748 -12.9532
-1.24181 8.16817 -12.9546
-1.31175 8.08885 -12.956
-1.38169 8.00953 -12.9573
-1.45164 7.93022 -12.9587
-1.52158 7.85091 -12.9601
-1.67203 7.83406 -12.959
-1.74197 7.75474 -12.9604
-1.81192 7.67543 -12.9617
-1.88186 7.59611 -12.9631
-1.9518 7.5168 -12.9645
-2.02175 7.43749 -12.9658
-2.09169 7.35817 -12.9672
-2.16163 7.27886 -12.9686
-2.23158 7.19954 -12.9699
-2.30152 7.12023 -12.9713
-2.37146 7.04091 -12.9727
-2.4414 6.9616 -12.974
-2.51135 6.88228 -12.9754
-2.58129 6.80297 -12.9768
-2.57073 6.66119 -12.9805
-2.64067 6.58187 -12.9819
-2.71061 6.50256 -12.9833
-2.78056 6.42324 -12.9846
-2.8505 6.34393 -12.986
-2.92044 6.26461 -12.9874
-2.99039 6.1853 -12.9887
-3.06033 6.10598 -12.9901
-3.13027 6.02667 -12.9915
-3.20022 5.94735 -12.9928
-3.18966 5.80558 -12.9966
-3.2596 5.72626 -12.998
-3.32954 5.64694 -12.9994
-3.39949 5.56763 -13.0007
-3.38892 5.42585 -13.0045
-3.45887 5.34654 -13.0059
-3.52881 5.26722 -13.0072
-3.59875 5.1879 -13.0086
-3.58819 5.04612 -13.0124
-3.65814 4.96681 -13.0138
-3.72808 4.8875 -13.0151
-3.71752 4.74571 -13.0189
-3.78746 4.6664 -13.0203
-3.8574 4.58709 -13.0217
-3.84684 4.44531 -13.0255
-3.91678 4.36599 -13.0268
-3.98673 4.28668 -13.0282
-4.05667 4.20736 -13.0295
-4.04611 4.06558 -13.0333
-4.11605 3.98627 -13.0347
-4.186 3.90695 -13.0361
-4.17543 3.76517 -13.0399
-4.24538 3.68586 -13.0412
-4.31532 3.60654 -13.0426
-3.44335 6.21758 -12.9958
-3.46426 6.11392 -12.9971
-3.58613 6.0241 -12.9961
-3.60704 5.92044 -12.9975
-3.62796 5.81678 -12.9988
-3.64887 5.71312 -13.0002
-3.77074 5.62331 -12.9991
-3.79165 5.51964 -13.0005
-3.91352 5.42983 -12.9995
-3.93444 5.32617 -13.0008
-3.95535 5.22251 -13.0022
-3.97626 5.11885 -13.0035
-3.99718 5.01519 -13.0049
-4.0181 4.91153 -13.0063
-4.03901 4.80787 -13.0076
-4.16088 4.71805 -13.0066
-4.18179 4.61439 -13.0079
-4.20271 4.51073 -13.0093
-4.32458 4.42092 -13.0083
-4.44645 4.3311 -13.0072
-4.46736 4.22744 -13.0086
-4.58922 4.13763 -13.0075
-4.61014 4.03396 -13.0089
-4.63105 3.9303 -13.0102
-4.65197 3.82664 -13.0116
-4.77384 3.73683 -13.0105
-4.79475 3.63317 -13.0119
-4.81567 3.52951 -13.0133
-4.93754 3.43969 -13.0122
-4.95845 3.33603 -13.0136
-4.97937 3.23237 -13.015
-5.00028 3.12871 -13.0163
-5.0212 3.02505 -13.0177
-5.04211 2.92139 -13.0191
-5.16398 2.83158 -13.018
-5.18489 2.72792 -13.0194
-5.20581 2.62425 -13.0207
-5.32768 2.53444 -13.0197
-5.34859 2.43078 -13.021
-5.47046 2.34096 -13.02
-5.49137 2.2373 -13.0213
-5.51229 2.13364 -13.0227
-5.5332 2.02998 -13.0241
-5.55412 1.92632 -13.0255
-5.57503 1.82266 -13.0268
-5.495 1.70516 -13.0306
-5.41496 1.58765 -13.0344
-5.43588 1.48399 -13.0358
-5.45679 1.38033 -13.0371
-5.4777 1.27667 -13.0385
-5.39767 1.15917 -13.0423
-5.41858 1.05551 -13.0436
-5.4395 0.95185 -13.045
-5.56137 0.862032 -13.0439
-5.58228 0.758372 -13.0453
-5.6032 0.654713 -13.0467
-5.72506 0.564896 -13.0456
-5.74598 0.461236 -13.047
-5.66594 0.343732 -13.0508
-5.68686 0.240072 -13.0522
-5.70777 0.136412 -13.0535
-5.72869 0.0327508 -13.0549
-5.7496 -0.0709087 -13.0562
-5.66956 -0.188415 -13.06
-5.69048 -0.292072 -13.0614
-5.7114 -0.395734 -13.0628
-5.63136 -0.513237 -13.0666
-5.65228 -0.616896 -13.0679
-5.57223 -0.734405 -13.0717
-5.4922 -0.851907 -13.0755
-5.51312 -0.955567 -13.0769
-5.53403 -1.05923 -13.0782
-5.55495 -1.16289 -13.0796
-5.57586 -1.26655 -13.081
-5.59678 -1.37021 -13.0823
-5.51674 -1.48771 -13.0861
-5.53766 -1.59137 -13.0875
-5.45762 -1.70888 -13.0913
-5.37758 -1.82638 -13.0951
-5.29754 -1.94389 -13.0988
-5.31846 -2.04755 -13.1002
-5.23842 -2.16505 -13.104
-5.25934 -2.26871 -13.1054
-5.1793 -2.38621 -13.1092
-5.20022 -2.48987 -13.1105
-5.12018 -2.60738 -13.1143
-5.1411 -2.71104 -13.1157
-5.16201 -2.8147 -13.1171
-5.08197 -2.93221 -13.1208
-5.10289 -3.03586 -13.1222
-6.50134 0.417895 -12.9987
-6.46762 0.317665 -13.0001
-6.52826 0.178948 -12.9991
-6.49454 0.0787191 -13.0004
-6.46082 -0.0215116 -13.0018
-6.4271 -0.121741 -13.0031
-6.39339 -0.221971 -13.0045
-6.35967 -0.322202 -13.0059
-6.32595 -0.42243 -13.0072
-6.29223 -0.522662 -13.0086
-6.25852 -0.62289 -13.01
-6.2248 -0.723122 -13.0114
-6.28544 -0.86184 -13.0103
-6.25172 -0.962067 -13.0117
-6.218 -1.0623 -13.013
-6.18429 -1.16253 -13.0144
-6.15057 -1.26276 -13.0157
-6.11685 -1.36299 -13.0171
-6.08313 -1.46322 -13.0185
-6.04942 -1.56345 -13.0199
-6.0157 -1.66368 -13.0212
-5.98199 -1.76391 -13.0226
-5.94827 -1.86414 -13.024
-5.91455 -1.96437 -13.0253
-5.88083 -2.0646 -13.0267
-5.84712 -2.16483 -13.028
-5.8134 -2.26506 -13.0294
-5.77968 -2.36529 -13.0308
-5.74596 -2.46552 -13.0322
-5.71225 -2.56575 -13.0335
-5.67853 -2.66598 -13.0349
-5.64482 -2.76621 -13.0362
-5.6111 -2.86644 -13.0376
-5.48303 -2.92818 -13.0414
-5.44931 -3.02841 -13.0428
-5.41559 -3.12864 -13.0441
-5.38187 -3.22887 -13.0455
-5.34816 -3.3291 -13.0469
-5.31444 -3.42933 -13.0482
-5.28073 -3.52956 -13.0496
-5.24701 -3.62979 -13.051
-5.21329 -3.73002 -13.0523
-5.17957 -3.83025 -13.0537
-5.14586 -3.93048 -13.0551
-5.11214 -4.03071 -13.0564
-4.98408 -4.09245 -13.0602
-4.95036 -4.19268 -13.0616
-4.91664 -4.29291 -13.0629
-4.88292 -4.39314 -13.0643
-4.84921 -4.49337 -13.0657
-4.81549 -4.5936 -13.067
-4.78177 -4.69383 -13.0684
-4.74806 -4.79406 -13.0698
-4.71434 -4.89429 -13.0711
-4.68062 -4.99452 -13.0725
-4.55255 -5.05626 -13.0763
-4.51884 -5.15649 -13.0777
-4.39077 -5.21824 -13.0815
-4.26271 -5.27998 -13.0852
-4.13464 -5.34173 -13.089
-4.10092 -5.44196 -13.0904
-3.97286 -5.5037 -13.0942
-3.93914 -5.60393 -13.0956
-3.81108 -5.66567 -13.0993
-3.77736 -5.7659 -13.1007
-3.74364 -5.86613 -13.1021
-3.61557 -5.92788 -13.1059
-3.58186 -6.02811 -13.1072
-3.54814 -6.12834 -13.1086
-3.42008 -6.19008 -13.1124
-3.38636 -6.29031 -13.1138
-3.25829 -6.35205 -13.1175
-3.22458 -6.45228 -13.1189
-3.19086 -6.55251 -13.1203
-3.15714 -6.65274 -13.1216
-3.12343 -6.75297 -13.123
-3.08971 -6.8532 -13.1244
-2.96164 -6.91495 -13.1282
-2.92792 -7.01518 -13.1295
-2.8942 -7.11541 -13.1309
-2.76614 -7.17715 -13.1347
-2.73242 -7.27738 -13.136
-2.69871 -7.37761 -13.1374
-2.57064 -7.43935 -13.1412
-2.53692 -7.53958 -13.1426
-2.5032 -7.63981 -13.1439
-2.37514 -7.70156 -13.1477
-2.34142 -7.80179 -13.1491
-2.21336 -7.86353 -13.1529
-6.099 -1.84619 -13.0023
-6.20708 -2.15764 -12.9964
-6.19023 -2.30809 -12.9954
-6.11091 -2.37803 -12.9968
-6.09407 -2.52848 -12.9957
-6.01475 -2.59843 -12.9971
-5.9979 -2.74887 -12.996
-5.91859 -2.81882 -12.9974
-5.90174 -2.96926 -12.9963
-5.88489 -3.11971 -12.9953
-5.93051 -3.35067 -12.9918
-5.91365 -3.50111 -12.9907
-5.8968 -3.65156 -12.9897
-5.81749 -3.7215 -12.991
-5.73818 -3.79145 -12.9924
-5.65886 -3.86139 -12.9938
-5.64201 -4.01184 -12.9927
-5.5627 -4.08178 -12.9941
-5.48338 -4.15172 -12.9954
-5.46653 -4.30217 -12.9944
-5.38722 -4.37212 -12.9958
-5.30791 -4.44206 -12.9971
-5.22859 -4.512 -12.9985
-5.14928 -4.58195 -12.9998
-5.06996 -4.65189 -13.0012
-4.99064 -4.72183 -13.0026
-4.9738 -4.87228 -13.0015
-4.89448 -4.94222 -13.0029
-4.81517 -5.01217 -13.0043
-4.73585 -5.08211 -13.0056
-4.65654 -5.15205 -13.007
-4.57722 -5.22199 -13.0083
-4.56038 -5.37244 -13.0073
-4.48106 -5.44239 -13.0087
-4.40175 -5.51233 -13.01
-4.32243 -5.58227 -13.0114
-4.24312 -5.65221 -13.0128
-4.1638 -5.72216 -13.0141
-4.14695 -5.87261 -13.0131
-4.06764 -5.94255 -13.0144
-3.98832 -6.01249 -13.0158
-3.90901 -6.08243 -13.0172
-3.89216 -6.23289 -13.0161
-3.81285 -6.30283 -13.0175
-3.73353 -6.37277 -13.0188
-3.71668 -6.52322 -13.0178
-3.63736 -6.59316 -13.0191
-3.55805 -6.6631 -13.0205
-3.47874 -6.73305 -13.0219
-3.39942 -6.80299 -13.0233
-3.32011 -6.87293 -13.0246
-3.24079 -6.94288 -13.026
-3.16148 -7.01282 -13.0273
-3.14463 -7.16327 -13.0263
-3.06531 -7.23321 -13.0276
-3.04846 -7.38366 -13.0266
-2.96915 -7.45361 -13.028
-2.88984 -7.52355 -13.0293
-2.81052 -7.59349 -13.0307
-2.79367 -7.74393 -13.0296
-2.71436 -7.81388 -13.031
-2.63504 -7.88382 -13.0324
-2.55573 -7.95376 -13.0337
-2.47641 -8.02371 -13.0351
-2.3971 -8.09365 -13.0365
-2.31778 -8.16359 -13.0378
-2.23847 -8.23354 -13.0392
-2.22162 -8.38399 -13.0381
-2.1423 -8.45393 -13.0395
-2.06299 -8.52387 -13.0409
-1.98368 -8.59382 -13.0422
-1.90436 -8.66376 -13.0436
-1.82505 -8.7337 -13.045
-1.74573 -8.80364 -13.0463
-1.66642 -8.87359 -13.0477
-1.5871 -8.94353 -13.0491
-1.50779 -9.01348 -13.0504
-1.42847 -9.08342 -13.0518
-1.34916 -9.15336 -13.0532
-1.33231 -9.30381 -13.0521
-1.25299 -9.37375 -13.0535
-1.17368 -9.4437 -13.0548
-1.09436 -9.51364 -13.0562
-1.01505 -9.58358 -13.0576
-0.935735 -9.65352 -13.0589
-0.856421 -9.72347 -13.0603
-0.777106 -9.79341 -13.0617
-0.69779 -9.86335 -13.063
-0.618474 -9.9333 -13.0644
-0.539162 -10.0032 -13.0658
-0.459848 -10.0732 -13.0671
-0.380533 -10.1431 -13.0685
-0.301217 -10.2131 -13.0699
-0.221902 -10.283 -13.0712
-0.142588 -10.353 -13.0726
-0.0632739 -10.4229 -13.074
0.0160398 -10.4928 -13.0753
0.0328898 -10.6433 -13.0743
0.112205 -10.7132 -13.0757
0.191519 -10.7832 -13.077
0.270833 -10.8531 -13.0784
0.350151 -10.9231 -13.0797
0.49193 -10.9125 -13.0835
0.571245 -10.9824 -13.0849
0.650558 -11.0524 -13.0863
0.729872 -11.1223 -13.0876
0.80919 -11.1923 -13.089
0.888504 -11.2622 -13.0904
0.967817 -11.3322 -13.0917
1.04713 -11.4021 -13.0931
1.12645 -11.472 -13.0945
1.20576 -11.542 -13.0958
1.34754 -11.5314 -13.0996
1.42686 -11.6014 -13.101
1.50617 -11.6713 -13.1023
1.58548 -11.7413 -13.1037
1.6648 -11.8112 -13.1051
1.80658 -11.8006 -13.1089
1.8859 -11.8706 -13.1102
2.02767 -11.86 -13.114
2.10699 -11.93 -13.1154
2.1863 -11.9999 -13.1168
2.32809 -11.9893 -13.1205
2.4074 -12.0593 -13.1219
2.48671 -12.1292 -13.1233
2.56603 -12.1992 -13.1246
2.70781 -12.1886 -13.1284
2.78712 -12.2586 -13.1298
2.9289 -12.248 -13.1336
3.07068 -12.2374 -13.1374
3.21247 -12.2269 -13.1412
3.35425 -12.2163 -13.145
3.49603 -12.2057 -13.1487
3.76273 -12.0342 -13.1574
3.84205 -12.1041 -13.1588
3.8589 -12.2546 -13.1577
4.00068 -12.244 -13.1615
4.07999 -12.314 -13.1628
4.22177 -12.3034 -13.1666
4.42602 -12.2123 -13.1729
