ply
format ascii 1.0
comment VCGLIB generated
element vertex 1192
property float x
property float y
property float z
element face 0
property list uchar int vertex_indices
end_header
3.44454 -12.2818 -11.8258
3.59498 -12.265 -11.8248
4.14795 -12.5605 -11.8116
4.37891 -12.6061 -11.8081
4.69036 -12.7142 -11.8022
4.92131 -12.7598 -11.7987
5.07176 -12.7429 -11.7977
5.30272 -12.7886 -11.7942
5.45316 -12.7717 -11.7931
5.60361 -12.7549 -11.7921
5.75406 -12.738 -11.791
5.98501 -12.7836 -11.7875
6.13546 -12.7668 -11.7865
6.2054 -12.6875 -11.7878
6.35585 -12.6706 -11.7868
6.5063 -12.6538 -11.7857
6.57624 -12.5745 -11.7871
6.72669 -12.5576 -11.786
6.79663 -12.4783 -11.7874
6.86657 -12.399 -11.7888
7.01702 -12.3821 -11.7877
7.08696 -12.3028 -11.7891
7.23742 -12.286 -11.788
7.30736 -12.2066 -11.7894
7.3773 -12.1273 -11.7907
7.44724 -12.048 -11.7921
7.51719 -11.9687 -11.7935
7.66764 -11.9519 -11.7924
7.73758 -11.8725 -11.7938
7.88802 -11.8557 -11.7927
7.95797 -11.7764 -11.7941
8.02791 -11.6971 -11.7955
8.09786 -11.6177 -11.7968
8.1678 -11.5384 -11.7982
8.23774 -11.4591 -11.7996
8.30768 -11.3798 -11.8009
8.37763 -11.3005 -11.8023
8.52808 -11.2836 -11.8012
8.59802 -11.2043 -11.8026
8.74846 -11.1875 -11.8015
8.81841 -11.1082 -11.8029
8.88835 -11.0288 -11.8043
8.9583 -10.9495 -11.8056
9.10874 -10.9327 -11.8046
9.17869 -10.8534 -11.806
9.24863 -10.7741 -11.8073
9.31858 -10.6947 -11.8087
9.38852 -10.6154 -11.81
9.45846 -10.5361 -11.8114
9.60891 -10.5193 -11.8104
9.67885 -10.4399 -11.8117
9.74879 -10.3606 -11.8131
9.89924 -10.3438 -11.812
9.96918 -10.2645 -11.8134
10.1196 -10.2476 -11.8123
10.1896 -10.1683 -11.8137
10.2595 -10.089 -11.8151
10.3295 -10.0097 -11.8164
10.4799 -9.99282 -11.8154
10.5499 -9.91351 -11.8167
10.7003 -9.89666 -11.8157
10.7702 -9.81734 -11.8171
10.9207 -9.80049 -11.816
11.0711 -9.78364 -11.8149
11.1411 -9.70433 -11.8163
11.2915 -9.68748 -11.8152
11.3615 -9.60817 -11.8166
11.4314 -9.52885 -11.818
11.5819 -9.512 -11.8169
11.6518 -9.43269 -11.8183
11.7218 -9.35337 -11.8197
11.8722 -9.33652 -11.8186
11.9421 -9.25721 -11.82
12.0121 -9.17789 -11.8213
12.1625 -9.16104 -11.8203
12.2325 -9.08173 -11.8216
12.3024 -9.00242 -11.823
12.4529 -8.98556 -11.8219
12.5228 -8.90625 -11.8233
12.5928 -8.82694 -11.8247
12.7432 -8.81009 -11.8236
12.8131 -8.73077 -11.825
12.8831 -8.65146 -11.8264
12.953 -8.57215 -11.8277
13.023 -8.49283 -11.8291
13.0929 -8.41352 -11.8305
13.1629 -8.3342 -11.8318
13.2328 -8.25488 -11.8332
13.3027 -8.17557 -11.8345
13.3727 -8.09626 -11.8359
13.4426 -8.01694 -11.8373
13.5126 -7.93763 -11.8387
13.5825 -7.85831 -11.84
13.6525 -7.779 -11.8414
13.7224 -7.69969 -11.8428
13.7924 -7.62037 -11.8441
13.8623 -7.54105 -11.8455
13.9322 -7.46174 -11.8468
14.0022 -7.38242 -11.8482
14.1526 -7.36557 -11.8472
14.2226 -7.28626 -11.8485
14.2925 -7.20695 -11.8499
14.3625 -7.12763 -11.8513
14.4324 -7.04832 -11.8526
14.4218 -6.90654 -11.8564
14.4918 -6.82722 -11.8578
14.4812 -6.68544 -11.8616
14.4707 -6.54366 -11.8654
14.2186 -6.21448 -11.8764
14.208 -6.0727 -11.8802
14.1975 -5.93092 -11.884
14.1869 -5.78914 -11.8878
14.0958 -5.5849 -11.894
14.0853 -5.44312 -11.8978
13.8332 -5.11394 -11.9088
13.7421 -4.90969 -11.9151
13.2485 -4.39312 -11.9334
13.3185 -4.31381 -11.9348
13.3079 -4.17203 -11.9385
12.8948 -3.71791 -11.9544
6.65486 -12.4105 -11.8178
6.77673 -12.3207 -11.8168
7.30241 -12.2863 -11.806
7.42427 -12.1965 -11.805
7.64709 -12.1205 -11.8015
7.668 -12.0168 -11.8028
7.78987 -11.927 -11.8018
7.91174 -11.8372 -11.8007
8.0336 -11.7474 -11.7997
8.15547 -11.6576 -11.7986
8.27734 -11.5678 -11.7976
8.29825 -11.4641 -11.7989
8.42012 -11.3743 -11.7979
8.54199 -11.2845 -11.7968
8.66386 -11.1946 -11.7958
8.78572 -11.1048 -11.7947
8.90759 -11.015 -11.7936
9.02946 -10.9252 -11.7926
9.15132 -10.8354 -11.7915
9.27319 -10.7456 -11.7905
9.29411 -10.6419 -11.7918
9.31502 -10.5382 -11.7932
9.43689 -10.4484 -11.7921
9.86161 -10.4001 -11.7838
9.98348 -10.3103 -11.7828
10.1053 -10.2205 -11.7817
10.2272 -10.1307 -11.7807
10.3491 -10.0409 -11.7796
10.5719 -9.96491 -11.7761
10.6938 -9.8751 -11.7751
10.9166 -9.79912 -11.7716
11.0385 -9.70931 -11.7705
11.1603 -9.61949 -11.7695
11.3831 -9.54352 -11.766
11.505 -9.4537 -11.7649
11.7278 -9.37773 -11.7614
11.8497 -9.28792 -11.7604
11.9716 -9.1981 -11.7593
12.0934 -9.10829 -11.7583
12.3162 -9.03231 -11.7548
12.4381 -8.9425 -11.7537
12.56 -8.85268 -11.7527
12.7828 -8.77671 -11.7492
12.9047 -8.6869 -11.7481
12.9256 -8.58323 -11.7495
13.0474 -8.49342 -11.7484
13.1693 -8.4036 -11.7474
13.1902 -8.29994 -11.7488
13.3121 -8.21013 -11.7477
13.434 -8.12031 -11.7466
13.4549 -8.01665 -11.748
13.4758 -7.91299 -11.7494
13.4967 -7.80933 -11.7507
13.6186 -7.71952 -11.7497
13.6395 -7.61586 -11.7511
13.7614 -7.52604 -11.75
13.7823 -7.42238 -11.7514
13.9041 -7.33256 -11.7503
13.9251 -7.2289 -11.7517
13.946 -7.12524 -11.753
14.0678 -7.03543 -11.752
14.0887 -6.93177 -11.7533
14.2106 -6.84195 -11.7523
14.6353 -6.79367 -11.744
14.6563 -6.69001 -11.7453
14.5762 -6.5725 -11.7491
14.4962 -6.455 -11.7529
14.5171 -6.35134 -11.7543
14.538 -6.24768 -11.7556
14.458 -6.13018 -11.7594
14.4789 -6.02651 -11.7608
14.4998 -5.92285 -11.7622
14.5207 -5.81919 -11.7635
14.4407 -5.70169 -11.7673
14.4616 -5.59803 -11.7687
14.3816 -5.48053 -11.7725
14.4025 -5.37686 -11.7738
14.3224 -5.25936 -11.7776
14.2424 -5.14186 -11.7814
14.1624 -5.02435 -11.7852
14.0823 -4.90685 -11.789
14.0023 -4.78934 -11.7928
13.9223 -4.67184 -11.7966
13.8422 -4.55433 -11.8004
13.8631 -4.45067 -11.8017
13.7831 -4.33317 -11.8055
13.804 -4.22951 -11.8069
13.8249 -4.12585 -11.8082
13.7449 -4.00834 -11.812
13.6649 -3.89084 -11.8158
13.6858 -3.78718 -11.8172
13.6057 -3.66968 -11.821
13.5257 -3.55217 -11.8248
13.4457 -3.43467 -11.8286
13.4666 -3.33101 -11.8299
13.3865 -3.2135 -11.8337
13.3065 -3.096 -11.8375
13.2265 -2.97849 -11.8413
13.0455 -2.84714 -11.8475
12.9654 -2.72964 -11.8513
12.8854 -2.61213 -11.8551
12.8054 -2.49463 -11.8589
12.8263 -2.39097 -11.8602
12.7462 -2.27346 -11.864
12.7672 -2.1698 -11.8654
12.6871 -2.0523 -11.8692
12.6071 -1.9348 -11.873
12.628 -1.83114 -11.8743
12.548 -1.71363 -11.8781
12.5689 -1.60997 -11.8795
12.5898 -1.50631 -11.8809
12.6107 -1.40265 -11.8822
12.6316 -1.29899 -11.8836
12.5516 -1.18149 -11.8874
12.5725 -1.07783 -11.8887
12.4925 -0.960321 -11.8925
12.4124 -0.842818 -11.8963
12.4333 -0.739156 -11.8977
12.4543 -0.635498 -11.899
12.4752 -0.531836 -11.9004
12.3951 -0.414331 -11.9042
12.3151 -0.296827 -11.908
12.1341 -0.165477 -11.9142
12.0541 -0.0479732 -11.918
12.075 0.0556865 -11.9194
12.0959 0.159346 -11.9207
12.1168 0.263006 -11.9221
12.0368 0.380511 -11.9259
12.0577 0.48417 -11.9272
12.0786 0.587832 -11.9286
11.9986 0.705335 -11.9324
12.0195 0.808995 -11.9338
12.0404 0.912657 -11.9351
11.9604 1.03016 -11.9389
11.9813 1.13382 -11.9403
11.9013 1.25133 -11.9441
11.9222 1.35499 -11.9454
11.9431 1.45864 -11.9468
11.863 1.57615 -11.9506
11.884 1.67981 -11.952
11.8039 1.79731 -11.9558
11.7239 1.91482 -11.9595
11.7448 2.01848 -11.9609
11.6648 2.13598 -11.9647
11.6857 2.23964 -11.9661
11.7066 2.3433 -11.9674
11.6266 2.46081 -11.9712
11.6475 2.56447 -11.9726
11.6684 2.66813 -11.974
11.6893 2.77179 -11.9753
11.6093 2.88929 -11.9791
11.6302 2.99295 -11.9805
11.6511 3.09661 -11.9818
11.672 3.20027 -11.9832
11.6929 3.30393 -11.9846
11.6129 3.42144 -11.9884
11.6338 3.5251 -11.9897
11.6547 3.62876 -11.9911
11.5747 3.74626 -11.9949
11.5956 3.84992 -11.9962
11.6165 3.95358 -11.9976
11.6374 4.05725 -11.999
11.6583 4.1609 -12.0004
11.6793 4.26456 -12.0017
11.5992 4.38207 -12.0055
11.6201 4.48573 -12.0069
11.5401 4.60323 -12.0107
11.4601 4.72074 -12.0145
11.481 4.8244 -12.0158
11.5019 4.92806 -12.0172
11.4219 5.04556 -12.021
11.4428 5.14922 -12.0223
11.3627 5.26673 -12.0261
11.2827 5.38423 -12.0299
11.1017 5.51558 -12.0361
11.0217 5.63308 -12.0399
10.9416 5.75059 -12.0437
10.7606 5.88194 -12.0499
10.4787 6.02713 -12.0585
10.3987 6.14464 -12.0623
10.3186 6.26214 -12.0661
10.2386 6.37964 -12.0699
10.2595 6.4833 -12.0713
10.0785 6.61465 -12.0775
13.5053 -8.16133 -11.7724
13.566 -8.02262 -11.7713
13.6266 -7.8839 -11.7702
13.6872 -7.74519 -11.7692
13.9366 -7.5295 -11.7633
13.9972 -7.39078 -11.7622
14.0578 -7.25206 -11.7612
14.1185 -7.11335 -11.7601
14.1791 -6.97463 -11.759
14.2397 -6.83592 -11.758
14.489 -6.62023 -11.7521
14.8327 -6.36605 -11.7438
14.9877 -6.18885 -11.7403
14.954 -6.08862 -11.7417
15.0146 -5.9499 -11.7406
14.9809 -5.84967 -11.742
14.8528 -5.78793 -11.7457
14.8191 -5.6877 -11.7471
14.7854 -5.58747 -11.7485
14.7517 -5.48724 -11.7498
14.8123 -5.34852 -11.7488
14.7786 -5.24829 -11.7502
14.8392 -5.10958 -11.7491
14.8055 -5.00935 -11.7505
14.7718 -4.90912 -11.7518
14.7381 -4.80889 -11.7532
14.7044 -4.70866 -11.7546
14.6707 -4.60843 -11.7559
14.6369 -4.5082 -11.7573
14.6032 -4.40797 -11.7587
14.4752 -4.34622 -11.7625
14.4414 -4.24599 -11.7638
14.4077 -4.14576 -11.7652
14.374 -4.04553 -11.7666
14.2459 -3.98379 -11.7703
14.2122 -3.88356 -11.7717
14.1785 -3.78333 -11.7731
14.1448 -3.6831 -11.7744
14.1111 -3.58287 -11.7758
13.983 -3.52113 -11.7796
13.9493 -3.4209 -11.781
13.9156 -3.32067 -11.7823
13.8819 -3.22044 -11.7837
13.7538 -3.15869 -11.7875
13.7201 -3.05846 -11.7888
13.6864 -2.95823 -11.7902
13.6526 -2.858 -11.7916
13.6189 -2.75777 -11.7929
13.5852 -2.65754 -11.7943
13.5515 -2.55732 -11.7957
13.5178 -2.45708 -11.797
13.4841 -2.35685 -11.7984
13.4503 -2.25662 -11.7998
13.4166 -2.15639 -11.8011
13.2886 -2.09465 -11.8049
13.2548 -1.99442 -11.8063
13.2211 -1.89419 -11.8077
13.1874 -1.79396 -11.809
13.1537 -1.69373 -11.8104
13.12 -1.5935 -11.8118
13.0863 -1.49327 -11.8131
13.1469 -1.35455 -11.8121
13.1132 -1.25432 -11.8134
13.0794 -1.1541 -11.8148
13.0457 -1.05386 -11.8162
13.012 -0.953636 -11.8175
12.9783 -0.853405 -11.8189
12.9446 -0.753176 -11.8203
12.9109 -0.652946 -11.8216
12.8771 -0.552715 -11.823
12.8434 -0.452485 -11.8244
12.8097 -0.352255 -11.8257
12.776 -0.252027 -11.8271
12.7423 -0.151795 -11.8285
12.7086 -0.0515656 -11.8298
12.6748 0.0486641 -11.8312
12.5468 0.110408 -11.835
12.5131 0.210637 -11.8363
12.4793 0.310867 -11.8377
12.4456 0.411098 -11.8391
12.4119 0.511328 -11.8404
12.3782 0.611557 -11.8418
12.3445 0.711786 -11.8432
12.4051 0.850503 -11.8421
12.3714 0.950733 -11.8435
12.3377 1.05096 -11.8448
12.3983 1.18968 -11.8438
12.3646 1.28991 -11.8452
12.3309 1.39014 -11.8465
12.2972 1.49037 -11.8479
12.2634 1.5906 -11.8493
12.2297 1.69083 -11.8506
12.196 1.79106 -11.852
12.1623 1.89129 -11.8534
12.1286 1.99152 -11.8547
12.1892 2.13024 -11.8537
12.1555 2.23046 -11.855
12.1218 2.33069 -11.8564
12.0881 2.43092 -11.8578
12.0543 2.53115 -11.8591
12.0206 2.63138 -11.8605
11.9869 2.73161 -11.8619
11.9532 2.83185 -11.8632
11.9195 2.93207 -11.8646
11.8858 3.03231 -11.866
11.9464 3.17102 -11.8649
11.9127 3.27125 -11.8663
11.8789 3.37148 -11.8676
11.9396 3.5102 -11.8666
11.9059 3.61043 -11.868
11.8721 3.71066 -11.8693
11.8384 3.81088 -11.8707
11.8991 3.9496 -11.8696
11.8653 4.04983 -11.871
11.8316 4.15006 -11.8723
11.7979 4.25029 -11.8737
11.7642 4.35052 -11.8751
11.7305 4.45075 -11.8764
11.6968 4.55098 -11.8778
11.663 4.65121 -11.8792
11.6293 4.75144 -11.8805
11.5956 4.85167 -11.8819
11.5619 4.9519 -11.8833
11.5282 5.05213 -11.8846
11.4945 5.15236 -11.886
11.4607 5.25259 -11.8874
11.427 5.35282 -11.8887
11.3933 5.45305 -11.8901
11.4539 5.59177 -11.8891
11.4202 5.692 -11.8904
11.3865 5.79223 -11.8918
11.3528 5.89246 -11.8931
11.3191 5.99269 -11.8945
11.191 6.05443 -11.8983
11.1573 6.15466 -11.8997
11.1236 6.25489 -11.901
11.0899 6.35512 -11.9024
11.0561 6.45535 -11.9038
10.9281 6.51709 -11.9076
10.8944 6.61732 -11.9089
10.7663 6.67907 -11.9127
10.7326 6.7793 -11.9141
10.6045 6.84104 -11.9179
10.5708 6.94127 -11.9192
10.5371 7.0415 -11.9206
10.5034 7.14173 -11.922
10.4696 7.24196 -11.9233
10.3416 7.3037 -11.9271
10.3078 7.40393 -11.9285
10.1798 7.46568 -11.9323
9.95737 7.48893 -11.9385
9.73495 7.51219 -11.9447
9.60689 7.57394 -11.9485
9.57317 7.67416 -11.9499
9.44511 7.73591 -11.9536
9.31704 7.79765 -11.9574
9.18898 7.8594 -11.9612
9.06091 7.92114 -11.965
8.93284 7.98288 -11.9688
8.80478 8.04463 -11.9726
8.67671 8.10637 -11.9764
8.54865 8.16811 -11.9802
8.42058 8.22986 -11.984
8.29251 8.2916 -11.9877
8.16444 8.35334 -11.9915
8.03638 8.41509 -11.9953
7.90831 8.47683 -11.9991
7.40285 8.38463 -12.0126
7.27479 8.44637 -12.0164
14.8643 -4.93431 -11.842
14.8475 -4.78385 -11.8409
14.7681 -4.71391 -11.8423
14.6888 -4.64397 -11.8436
14.672 -4.49353 -11.8426
14.905 -4.02106 -11.8318
14.8881 -3.87061 -11.8308
14.8088 -3.80067 -11.8321
14.792 -3.65022 -11.8311
14.7127 -3.58028 -11.8324
14.6334 -3.51033 -11.8338
14.554 -3.44039 -11.8352
14.4747 -3.37045 -11.8365
14.3954 -3.3005 -11.8379
14.3161 -3.23056 -11.8393
14.2992 -3.08011 -11.8382
14.2199 -3.01017 -11.8396
14.2031 -2.85972 -11.8385
14.1238 -2.78977 -11.8399
14.1069 -2.63933 -11.8388
14.0276 -2.56939 -11.8402
13.9483 -2.49944 -11.8416
13.869 -2.4295 -11.8429
13.8521 -2.27905 -11.8419
13.7728 -2.20911 -11.8432
13.6935 -2.13917 -11.8446
13.5517 -2.14973 -11.8484
13.4724 -2.07978 -11.8498
13.4555 -1.92934 -11.8487
13.3762 -1.85939 -11.8501
13.3594 -1.70894 -11.849
13.3425 -1.5585 -11.848
13.2632 -1.48856 -11.8493
13.2464 -1.3381 -11.8483
13.1671 -1.26816 -11.8496
13.1502 -1.11771 -11.8486
13.0709 -1.04777 -11.8499
13.054 -0.897323 -11.8489
12.9747 -0.82738 -11.8503
12.9579 -0.67693 -11.8492
12.941 -0.526485 -11.8481
12.9242 -0.376034 -11.8471
12.9073 -0.225589 -11.846
12.8905 -0.0751405 -11.845
12.8112 -0.00519705 -11.8463
12.7319 0.064744 -11.8477
12.715 0.215196 -11.8466
12.5732 0.204632 -11.8504
12.4939 0.274575 -11.8518
12.602 0.586032 -11.8459
12.5851 0.736481 -11.8448
12.5683 0.88693 -11.8438
12.5514 1.03738 -11.8427
12.4721 1.10732 -11.8441
12.4553 1.25777 -11.843
12.376 1.32771 -11.8444
12.2966 1.39765 -11.8458
12.2173 1.4676 -11.8471
12.2005 1.61805 -11.8461
12.3086 1.9295 -11.8402
12.2293 1.99945 -11.8415
12.2124 2.14989 -11.8405
12.1331 2.21984 -11.8418
12.0538 2.28978 -11.8432
12.0369 2.44023 -11.8421
12.0201 2.59068 -11.8411
12.0032 2.74113 -11.84
11.9864 2.89157 -11.839
12.032 3.12252 -11.8355
11.9527 3.19247 -11.8369
11.9358 3.34292 -11.8358
11.8565 3.41286 -11.8372
11.8397 3.56331 -11.8361
11.8228 3.71375 -11.8351
11.8684 3.94471 -11.8316
11.8516 4.09516 -11.8305
11.7723 4.1651 -11.8319
11.7554 4.31555 -11.8308
11.7386 4.46599 -11.8298
11.7217 4.61644 -11.8287
11.6424 4.68639 -11.8301
11.6256 4.83683 -11.829
11.6087 4.98728 -11.828
11.5919 5.13773 -11.8269
11.5125 5.20767 -11.8283
11.4332 5.27762 -11.8297
11.3539 5.34756 -11.831
11.2746 5.4175 -11.8324
11.2577 5.56795 -11.8313
11.2409 5.7184 -11.8303
11.224 5.86884 -11.8292
11.3321 6.1803 -11.8233
11.3153 6.33075 -11.8223
11.236 6.40069 -11.8236
11.1567 6.47064 -11.825
11.1398 6.62109 -11.8239
11.0605 6.69103 -11.8253
11.0436 6.84148 -11.8242
10.9643 6.91142 -11.8256
10.9475 7.06187 -11.8245
10.9306 7.21232 -11.8235
10.8513 7.28226 -11.8248
10.772 7.3522 -11.8262
10.6927 7.42214 -11.8276
10.6134 7.49209 -11.8289
10.5341 7.56203 -11.8303
10.4547 7.63197 -11.8317
10.3754 7.70192 -11.833
10.2961 7.77186 -11.8344
10.1543 7.7613 -11.8382
10.075 7.83124 -11.8396
9.9957 7.90118 -11.8409
9.91638 7.97113 -11.8423
9.83707 8.04107 -11.8437
9.75776 8.11102 -11.845
9.67844 8.18096 -11.8464
9.59912 8.2509 -11.8478
9.45734 8.24034 -11.8515
9.37803 8.31028 -11.8529
9.29872 8.38023 -11.8543
9.15693 8.36967 -11.8581
9.07762 8.43961 -11.8594
8.9983 8.50955 -11.8608
8.91899 8.5795 -11.8622
8.83967 8.64944 -11.8635
8.6979 8.63888 -11.8673
8.61858 8.70882 -11.8687
8.53926 8.77876 -11.8701
8.39748 8.7682 -11.8738
8.31817 8.83814 -11.8752
8.23885 8.90808 -11.8766
8.15954 8.97803 -11.8779
8.01776 8.96747 -11.8817
7.87598 8.95691 -11.8855
7.7342 8.94635 -11.8893
7.65488 9.01629 -11.8907
7.51311 9.00573 -11.8945
7.37132 8.99516 -11.8983
7.29201 9.06511 -11.8996
7.15023 9.05455 -11.9034
7.07091 9.12449 -11.9048
6.92913 9.11393 -11.9086
6.78735 9.10337 -11.9124
6.64557 9.09281 -11.9161
6.50379 9.08224 -11.9199
6.42448 9.15218 -11.9213
6.2827 9.14163 -11.9251
6.14092 9.13107 -11.9289
6.0616 9.20101 -11.9302
5.91982 9.19044 -11.934
5.84051 9.26038 -11.9354
5.69873 9.24983 -11.9392
5.36955 8.99775 -11.9502
5.22777 8.98719 -11.954
11.2493 5.95544 -11.8533
11.1595 6.07731 -11.8522
11.1389 6.70394 -11.8391
11.0491 6.8258 -11.838
10.9593 6.94767 -11.8369
10.8695 7.06954 -11.8359
10.7658 7.09046 -11.8373
10.676 7.21232 -11.8362
10.6139 7.53609 -11.8303
10.5379 7.75891 -11.8268
10.4481 7.88078 -11.8258
10.3583 8.00265 -11.8247
10.2546 8.02356 -11.8261
10.1648 8.14543 -11.825
10.0611 8.16634 -11.8264
9.95747 8.18726 -11.8277
9.86766 8.30913 -11.8267
9.764 8.33004 -11.828
9.67418 8.45191 -11.827
9.57052 8.47282 -11.8284
9.46686 8.49374 -11.8297
9.3632 8.51465 -11.8311
9.27338 8.63652 -11.83
9.16972 8.65743 -11.8314
9.07991 8.7793 -11.8304
8.99009 8.90117 -11.8293
8.88643 8.92208 -11.8307
8.78277 8.943 -11.832
8.67911 8.96391 -11.8334
8.5893 9.08578 -11.8323
8.48564 9.1067 -11.8337
8.38197 9.12761 -11.8351
8.27831 9.14852 -11.8364
8.17465 9.16944 -11.8378
8.07099 9.19036 -11.8392
7.98118 9.31223 -11.8381
7.87752 9.33314 -11.8395
7.77386 9.35406 -11.8408
7.6702 9.37497 -11.8422
7.56654 9.39589 -11.8436
7.46288 9.4168 -11.8449
7.35922 9.43772 -11.8463
7.25556 9.45863 -11.8477
7.1519 9.47955 -11.849
7.04824 9.50046 -11.8504
6.94458 9.52138 -11.8518
6.84092 9.54229 -11.8531
6.73726 9.56321 -11.8545
6.6336 9.58412 -11.8559
6.52994 9.60504 -11.8572
6.42628 9.62595 -11.8586
6.32262 9.64687 -11.86
6.21896 9.66778 -11.8613
6.1153 9.6887 -11.8627
6.01164 9.70961 -11.8641
5.89413 9.62957 -11.8678
5.79047 9.65049 -11.8692
5.68681 9.6714 -11.8706
5.58315 9.69232 -11.8719
5.47949 9.71324 -11.8733
5.37583 9.73415 -11.8747
5.25833 9.65411 -11.8785
5.15467 9.67503 -11.8798
5.05101 9.69594 -11.8812
4.94735 9.71686 -11.8826
4.84369 9.73777 -11.8839
4.72618 9.65774 -11.8877
4.62252 9.67865 -11.8891
4.50502 9.59862 -11.8929
4.40136 9.61953 -11.8942
4.2977 9.64044 -11.8956
4.18019 9.56041 -11.8994
4.07653 9.58132 -11.9008
3.94518 9.40034 -11.907
3.82768 9.3203 -11.9108
3.72402 9.34121 -11.9121
3.62036 9.36213 -11.9135
3.50285 9.28209 -11.9173
3.39919 9.30301 -11.9187
3.28169 9.22297 -11.9224
3.15034 9.04198 -11.9286
3.01899 8.86099 -11.9349
2.91533 8.88191 -11.9362
2.81167 8.90283 -11.9376
2.70801 8.92374 -11.939
2.59051 8.8437 -11.9427
2.48685 8.86462 -11.9441
2.38318 8.88553 -11.9455
2.27952 8.90645 -11.9469
2.16202 8.82641 -11.9506
2.04452 8.74637 -11.9544
1.94086 8.76729 -11.9558
1.82335 8.68725 -11.9596
1.70585 8.60721 -11.9634
1.58834 8.52718 -11.9672
1.48468 8.54809 -11.9685
1.36718 8.46806 -11.9723
1.24967 8.38802 -11.9761
8.29757 9.25933 -11.8884
8.15885 9.31997 -11.8873
8.02014 9.38059 -11.8863
7.91991 9.34688 -11.8876
7.78119 9.40751 -11.8866
7.64248 9.46815 -11.8855
7.50376 9.52877 -11.8845
7.36504 9.58941 -11.8834
7.26481 9.55569 -11.8848
7.1261 9.61632 -11.8837
7.02587 9.58261 -11.8851
6.88715 9.64324 -11.884
6.74844 9.70387 -11.883
6.60972 9.7645 -11.8819
6.471 9.82514 -11.8809
6.37077 9.79142 -11.8822
6.23206 9.85205 -11.8812
6.13183 9.81833 -11.8826
6.0316 9.78461 -11.8839
5.89288 9.84525 -11.8829
5.71568 10.0002 -11.8794
5.61545 9.96651 -11.8807
5.47673 10.0271 -11.8797
5.3765 9.99343 -11.8811
5.27627 9.95971 -11.8824
5.13756 10.0203 -11.8814
5.03733 9.98663 -11.8827
4.93709 9.95291 -11.8841
4.83686 9.91919 -11.8855
4.69815 9.97983 -11.8844
4.59792 9.94611 -11.8858
4.49769 9.91239 -11.8871
4.39746 9.87867 -11.8885
4.29723 9.84496 -11.8899
4.197 9.81124 -11.8912
4.09677 9.77752 -11.8926
3.95805 9.83815 -11.8915
3.85782 9.80444 -11.8929
3.75759 9.77072 -11.8943
3.65736 9.737 -11.8956
3.55713 9.70328 -11.897
3.4569 9.66957 -11.8984
3.35667 9.63585 -11.8997
3.25644 9.60214 -11.9011
3.15621 9.56842 -11.9025
3.05598 9.5347 -11.9038
2.95575 9.50098 -11.9052
2.81704 9.56162 -11.9041
2.71681 9.5279 -11.9055
2.61658 9.49418 -11.9069
2.51635 9.46046 -11.9082
2.41612 9.42675 -11.9096
2.31589 9.39303 -11.911
2.25414 9.26496 -11.9148
2.15391 9.23125 -11.9161
2.05368 9.19753 -11.9175
1.95345 9.16381 -11.9189
1.85322 9.1301 -11.9202
1.753 9.09638 -11.9216
1.65276 9.06266 -11.923
1.55254 9.02894 -11.9243
1.4523 8.99523 -11.9257
1.35207 8.96151 -11.9271
1.25185 8.92779 -11.9284
1.15162 8.89408 -11.9298
1.08987 8.76601 -11.9336
0.989641 8.7323 -11.935
0.889411 8.69858 -11.9363
0.789182 8.66486 -11.9377
0.727438 8.53679 -11.9415
0.627208 8.50308 -11.9428
0.526978 8.46936 -11.9442
0.465235 8.34129 -11.948
0.365006 8.30758 -11.9494
0.303263 8.17951 -11.9531
0.203032 8.14579 -11.9545
0.102802 8.11208 -11.9559
0.00257349 8.07836 -11.9572
-0.0976562 8.04464 -11.9586
-0.197886 8.01092 -11.96
-0.298116 7.97721 -11.9613
-0.359863 7.84915 -11.9651
-0.460091 7.81543 -11.9665
-0.521834 7.68736 -11.9703
-0.583578 7.55929 -11.9741
-0.683808 7.52558 -11.9754
-0.745553 7.39751 -11.9792
-0.845782 7.3638 -11.9806
-0.907526 7.23573 -11.9844
0.951538 9.27158 -11.9477
0.801091 9.25474 -11.9467
0.650642 9.23789 -11.9456
0.580701 9.15857 -11.947
0.430254 9.14172 -11.9459
0.36031 9.06241 -11.9473
0.209861 9.04556 -11.9462
-0.0210915 9.09118 -11.9427
-0.171536 9.07432 -11.9417
-0.24148 8.99501 -11.943
-0.311424 8.9157 -11.9444
-0.381368 8.83638 -11.9458
-0.531819 8.81953 -11.9447
-0.60176 8.74022 -11.9461
-0.671704 8.6609 -11.9474
-0.741648 8.58159 -11.9488
-0.811592 8.50227 -11.9502
-0.881535 8.42296 -11.9516
-0.951476 8.34364 -11.9529
-1.02142 8.26433 -11.9543
-1.09136 8.18502 -11.9556
-1.16131 8.1057 -11.957
-1.23125 8.02638 -11.9584
-1.30119 7.94707 -11.9597
-1.45164 7.93022 -11.9587
-1.52158 7.85091 -11.9601
-1.59152 7.77159 -11.9614
-1.66147 7.69228 -11.9628
-1.73141 7.61296 -11.9642
-1.80135 7.53365 -11.9655
-1.8713 7.45433 -11.9669
-1.94124 7.37502 -11.9682
-2.01118 7.2957 -11.9696
-2.08113 7.21639 -11.971
-2.15107 7.13707 -11.9724
-2.22101 7.05776 -11.9737
-2.29096 6.97845 -11.9751
-2.3609 6.89913 -11.9764
-2.43084 6.81981 -11.9778
-2.50078 6.7405 -11.9792
-2.57073 6.66119 -11.9805
-2.64067 6.58187 -11.9819
-2.63011 6.44009 -11.9857
-2.70006 6.36078 -11.9871
-2.77 6.28146 -11.9884
-2.83994 6.20215 -11.9898
-2.90988 6.12283 -11.9912
-2.97983 6.04352 -11.9925
-3.04977 5.9642 -11.9939
-3.11971 5.88489 -11.9953
-3.18966 5.80558 -11.9966
-3.2596 5.72626 -11.998
-3.24904 5.58448 -12.0018
-3.31898 5.50516 -12.0031
-3.38892 5.42585 -12.0045
-3.37836 5.28407 -12.0083
-3.4483 5.20475 -12.0097
-3.51825 5.12544 -12.011
-3.50769 4.98366 -12.0148
-3.57763 4.90434 -12.0162
-3.64757 4.82503 -12.0176
-3.63701 4.68325 -12.0213
-3.70695 4.60393 -12.0227
-3.69639 4.46216 -12.0265
-3.76634 4.38284 -12.0279
-3.83628 4.30352 -12.0292
-3.82572 4.16175 -12.033
-3.89566 4.08243 -12.0344
-3.96561 4.00312 -12.0358
-3.95505 3.86134 -12.0396
-4.02499 3.78202 -12.0409
-4.01443 3.64024 -12.0447
-3.27965 6.51471 -11.9941
-3.30056 6.41105 -11.9955
-3.42243 6.32124 -11.9944
-3.44335 6.21758 -11.9958
-3.46426 6.11392 -11.9971
-3.58613 6.0241 -11.9961
-3.60704 5.92044 -11.9975
-3.62796 5.81678 -11.9988
-3.64887 5.71312 -12.0002
-3.66979 5.60946 -12.0016
-3.79165 5.51964 -12.0005
-3.81257 5.41599 -12.0019
-3.83349 5.31233 -12.0032
-3.8544 5.20867 -12.0046
-3.97626 5.11885 -12.0035
-3.99718 5.01519 -12.0049
-4.0181 4.91153 -12.0063
-4.03901 4.80787 -12.0076
-4.05993 4.70421 -12.009
-4.18179 4.61439 -12.0079
-4.30366 4.52458 -12.0069
-4.32458 4.42092 -12.0083
-4.3455 4.31726 -12.0096
-4.36641 4.2136 -12.011
-4.48828 4.12378 -12.0099
-4.50919 4.02012 -12.0113
-4.53011 3.91646 -12.0127
-4.55102 3.8128 -12.014
-4.67288 3.72298 -12.013
-4.6938 3.61932 -12.0143
-4.71472 3.51566 -12.0157
-4.83659 3.42585 -12.0146
-4.8575 3.32219 -12.016
-4.87841 3.21853 -12.0174
-4.89933 3.11487 -12.0188
-4.92025 3.01121 -12.0201
-5.04211 2.92139 -12.0191
-5.06303 2.81773 -12.0204
-5.08394 2.71407 -12.0218
-5.10486 2.61041 -12.0231
-5.12577 2.50675 -12.0245
-5.14669 2.40309 -12.0259
-5.26856 2.31328 -12.0248
-5.28947 2.20962 -12.0262
-5.31038 2.10595 -12.0276
-5.3313 2.00229 -12.0289
-5.35222 1.89863 -12.0303
-5.37313 1.79497 -12.0317
-5.39404 1.69132 -12.033
-5.41496 1.58765 -12.0344
-5.33493 1.47015 -12.0382
-5.35584 1.36649 -12.0396
-5.37675 1.26283 -12.0409
-5.39767 1.15917 -12.0423
-5.41858 1.05551 -12.0436
-5.4395 0.95185 -12.045
-5.46042 0.848189 -12.0464
-5.48133 0.744528 -12.0477
-5.50224 0.640869 -12.0491
-5.52316 0.537207 -12.0505
-5.54408 0.433548 -12.0518
-5.56499 0.329888 -12.0532
-5.5859 0.226228 -12.0546
-5.50587 0.108725 -12.0584
-5.52678 0.00506347 -12.0597
-5.5477 -0.098596 -12.0611
-5.56861 -0.202258 -12.0625
-5.58953 -0.305916 -12.0638
-5.50949 -0.423423 -12.0676
-5.53041 -0.527083 -12.069
-5.55132 -0.630743 -12.0703
-5.47129 -0.748248 -12.0741
-5.4922 -0.851907 -12.0755
-5.51312 -0.955567 -12.0769
-5.43308 -1.07307 -12.0807
-5.454 -1.17673 -12.082
-5.37395 -1.29424 -12.0858
-5.39487 -1.3979 -12.0872
-5.31484 -1.5154 -12.091
-5.33575 -1.61906 -12.0923
-5.35667 -1.72272 -12.0937
-5.37758 -1.82638 -12.0951
-5.29754 -1.94389 -12.0988
-5.31846 -2.04755 -12.1002
-5.23842 -2.16505 -12.104
-5.15838 -2.28256 -12.1078
-5.1793 -2.38621 -12.1092
-5.09926 -2.50372 -12.113
-5.01923 -2.62123 -12.1167
-4.93919 -2.73873 -12.1205
-4.7582 -2.87008 -12.1267
-4.67816 -2.98758 -12.1305
-5.70632 1.88203 -12.0142
-5.76695 1.74331 -12.0131
-5.82759 1.6046 -12.012
-5.88822 1.46588 -12.011
-5.8545 1.36565 -12.0124
-5.91513 1.22693 -12.0113
-5.97576 1.08822 -12.0102
-6.0364 0.949501 -12.0092
-6.09703 0.810787 -12.0081
-6.15766 0.672069 -12.0071
-6.21829 0.533354 -12.006
-6.27893 0.394638 -12.005
-6.24521 0.294406 -12.0063
-6.21149 0.194178 -12.0077
-6.27212 0.0554612 -12.0066
-6.23841 -0.0447685 -12.008
-6.29904 -0.183485 -12.0069
-6.26532 -0.283716 -12.0083
-6.32595 -0.42243 -12.0072
-6.29223 -0.522662 -12.0086
-6.25852 -0.62289 -12.01
-6.2248 -0.723122 -12.0114
-6.19109 -0.823352 -12.0127
-6.15737 -0.923579 -12.0141
-6.12365 -1.02381 -12.0154
-6.08993 -1.12404 -12.0168
-6.05622 -1.22427 -12.0182
-6.0225 -1.3245 -12.0195
-6.08313 -1.46322 -12.0185
-6.04942 -1.56345 -12.0199
-6.0157 -1.66368 -12.0212
-5.98199 -1.76391 -12.0226
-5.94827 -1.86414 -12.024
-5.91455 -1.96437 -12.0253
-5.88083 -2.0646 -12.0267
-5.84712 -2.16483 -12.028
-5.8134 -2.26506 -12.0294
-5.77968 -2.36529 -12.0308
-5.74596 -2.46552 -12.0322
-5.71225 -2.56575 -12.0335
-5.67853 -2.66598 -12.0349
-5.55046 -2.72772 -12.0387
-5.51674 -2.82795 -12.04
-5.48303 -2.92818 -12.0414
-5.44931 -3.02841 -12.0428
-5.41559 -3.12864 -12.0441
-5.38187 -3.22887 -12.0455
-5.34816 -3.3291 -12.0469
-5.31444 -3.42933 -12.0482
-5.28073 -3.52956 -12.0496
-5.24701 -3.62979 -12.051
-5.21329 -3.73002 -12.0523
-5.17957 -3.83025 -12.0537
-5.14586 -3.93048 -12.0551
-5.11214 -4.03071 -12.0564
-5.07843 -4.13094 -12.0578
-4.95036 -4.19268 -12.0616
-4.91664 -4.29291 -12.0629
-4.88292 -4.39314 -12.0643
-4.84921 -4.49337 -12.0657
-4.81549 -4.5936 -12.067
-4.78177 -4.69383 -12.0684
-4.74806 -4.79406 -12.0698
-4.71434 -4.89429 -12.0711
-4.58627 -4.95604 -12.0749
-4.55255 -5.05626 -12.0763
-4.51884 -5.15649 -12.0777
-4.39077 -5.21824 -12.0815
-4.26271 -5.27998 -12.0852
-4.13464 -5.34173 -12.089
-4.10092 -5.44196 -12.0904
-4.06721 -5.54219 -12.0918
-3.93914 -5.60393 -12.0956
-3.90543 -5.70416 -12.0969
-3.77736 -5.7659 -12.1007
-3.74364 -5.86613 -12.1021
-3.70992 -5.96636 -12.1034
-3.67621 -6.06659 -12.1048
-3.64249 -6.16682 -12.1062
-3.51442 -6.22857 -12.11
-3.4807 -6.32879 -12.1113
-6.16146 -1.92669 -11.9999
-6.20708 -2.15764 -11.9964
-6.19023 -2.30809 -11.9954
-6.11091 -2.37803 -11.9968
-6.09407 -2.52848 -11.9957
-6.07722 -2.67893 -11.9946
-5.9979 -2.74887 -11.996
-5.98105 -2.89932 -11.9949
-5.90174 -2.96926 -11.9963
-5.88489 -3.11971 -11.9953
-5.86804 -3.27016 -11.9942
-5.85119 -3.42061 -11.9931
-5.77188 -3.49055 -11.9945
-5.75503 -3.641 -11.9935
-5.73818 -3.79145 -11.9924
-5.65886 -3.86139 -11.9938
-5.57955 -3.93133 -11.9951
-5.50023 -4.00128 -11.9965
-5.48338 -4.15172 -11.9954
-5.40407 -4.22167 -11.9968
-5.38722 -4.37212 -11.9958
-5.30791 -4.44206 -11.9971
-5.22859 -4.512 -11.9985
-5.14928 -4.58195 -11.9998
-5.06996 -4.65189 -12.0012
-4.99064 -4.72183 -12.0026
-4.91133 -4.79177 -12.004
-4.89448 -4.94222 -12.0029
-4.81517 -5.01217 -12.0043
-4.73585 -5.08211 -12.0056
-4.719 -5.23256 -12.0046
-4.63969 -5.3025 -12.0059
-4.56038 -5.37244 -12.0073
-4.48106 -5.44239 -12.0087
-4.40175 -5.51233 -12.01
-4.32243 -5.58227 -12.0114
-4.30558 -5.73272 -12.0103
-4.22627 -5.80266 -12.0117
-4.14695 -5.87261 -12.0131
-4.13011 -6.02306 -12.012
-4.05079 -6.093 -12.0134
-3.97148 -6.16294 -12.0147
-3.89216 -6.23289 -12.0161
-3.81285 -6.30283 -12.0175
-3.79599 -6.45327 -12.0164
-3.71668 -6.52322 -12.0178
-3.63736 -6.59316 -12.0191
-3.55805 -6.6631 -12.0205
-3.47874 -6.73305 -12.0219
-3.39942 -6.80299 -12.0233
-3.32011 -6.87293 -12.0246
-3.30326 -7.02338 -12.0236
-3.22394 -7.09332 -12.0249
-3.14463 -7.16327 -12.0263
-3.12778 -7.31372 -12.0252
-3.04846 -7.38366 -12.0266
-2.96915 -7.45361 -12.028
-2.88984 -7.52355 -12.0293
-2.81052 -7.59349 -12.0307
-2.79367 -7.74393 -12.0296
-2.71436 -7.81388 -12.031
-2.63504 -7.88382 -12.0324
-2.55573 -7.95376 -12.0337
-2.47641 -8.02371 -12.0351
-2.3971 -8.09365 -12.0365
-2.38025 -8.2441 -12.0354
-2.30093 -8.31404 -12.0368
-2.22162 -8.38399 -12.0381
-2.1423 -8.45393 -12.0395
-2.06299 -8.52387 -12.0409
-1.98368 -8.59382 -12.0422
-1.90436 -8.66376 -12.0436
-1.82505 -8.7337 -12.045
-1.74573 -8.80364 -12.0463
-1.66642 -8.87359 -12.0477
-1.5871 -8.94353 -12.0491
-1.50779 -9.01348 -12.0504
-1.42847 -9.08342 -12.0518
-1.41162 -9.23386 -12.0508
-1.33231 -9.30381 -12.0521
-1.25299 -9.37375 -12.0535
-1.17368 -9.4437 -12.0548
-1.09436 -9.51364 -12.0562
-1.01505 -9.58358 -12.0576
-0.935735 -9.65352 -12.0589
-0.856421 -9.72347 -12.0603
-0.777106 -9.79341 -12.0617
-0.69779 -9.86335 -12.063
-0.618474 -9.9333 -12.0644
-0.539162 -10.0032 -12.0658
-0.459848 -10.0732 -12.0671
-0.380533 -10.1431 -12.0685
-0.301217 -10.2131 -12.0699
-0.221902 -10.283 -12.0712
-0.142588 -10.353 -12.0726
-0.0632739 -10.4229 -12.074
0.0160398 -10.4928 -12.0753
0.095356 -10.5628 -12.0767
0.174671 -10.6327 -12.0781
0.253985 -10.7027 -12.0794
0.333299 -10.7726 -12.0808
0.412617 -10.8426 -12.0822
0.49193 -10.9125 -12.0835
0.571245 -10.9824 -12.0849
0.713023 -10.9719 -12.0887
0.792337 -11.0418 -12.0901
0.871655 -11.1118 -12.0914
0.950969 -11.1817 -12.0928
1.03028 -11.2517 -12.0941
1.1096 -11.3216 -12.0955
1.18891 -11.3915 -12.0969
1.26823 -11.4615 -12.0983
1.34754 -11.5314 -12.0996
1.42686 -11.6014 -12.101
1.56864 -11.5908 -12.1048
1.64795 -11.6608 -12.1061
1.78973 -11.6502 -12.1099
1.86905 -11.7201 -12.1113
1.94836 -11.7901 -12.1127
2.09014 -11.7795 -12.1165
2.16946 -11.8495 -12.1178
2.24877 -11.9194 -12.1192
2.32809 -11.9893 -12.1205
2.4074 -12.0593 -12.1219
2.48671 -12.1292 -12.1233
2.56603 -12.1992 -12.1246
2.70781 -12.1886 -12.1284
2.84959 -12.1781 -12.1322
2.99137 -12.1675 -12.136
3.13315 -12.1569 -12.1398
3.27493 -12.1464 -12.1436
3.54165 -11.9748 -12.1522
3.68342 -11.9642 -12.156
3.8252 -11.9537 -12.1598
3.96698 -11.9431 -12.1636
4.10876 -11.9326 -12.1674
4.25054 -11.922 -12.1712
4.39232 -11.9114 -12.175
4.5341 -11.9009 -12.1787
