ply
format ascii 1.0
comment VCGLIB generated
element vertex 1105
property float x
property float y
property float z
element face 0
property list uchar int vertex_indices
end_header
3.59498 -12.265 -10.8248
3.90644 -12.3731 -10.8188
4.37891 -12.6061 -10.8081
4.52936 -12.5892 -10.807
4.76031 -12.6349 -10.8036
4.91076 -12.618 -10.8025
4.9807 -12.5387 -10.8039
5.13114 -12.5218 -10.8028
5.52311 -12.6924 -10.7945
5.67355 -12.6755 -10.7934
5.9045 -12.7212 -10.7899
6.05495 -12.7043 -10.7889
6.1249 -12.625 -10.7903
6.27535 -12.6082 -10.7892
6.42579 -12.5913 -10.7881
6.49573 -12.512 -10.7895
6.56568 -12.4327 -10.7909
6.71613 -12.4158 -10.7898
6.78607 -12.3365 -10.7912
6.85601 -12.2572 -10.7926
6.92596 -12.1779 -10.7939
7.07641 -12.161 -10.7929
7.14635 -12.0817 -10.7942
7.29679 -12.0649 -10.7932
7.36674 -11.9855 -10.7945
7.43668 -11.9062 -10.7959
7.58713 -11.8894 -10.7948
7.65707 -11.8101 -10.7962
7.72702 -11.7308 -10.7976
7.87746 -11.7139 -10.7965
7.94741 -11.6346 -10.7979
8.01735 -11.5553 -10.7993
8.08729 -11.476 -10.8006
8.23774 -11.4591 -10.7996
8.30768 -11.3798 -10.8009
8.37763 -11.3005 -10.8023
8.44757 -11.2212 -10.8037
8.51751 -11.1419 -10.805
8.66796 -11.125 -10.804
8.7379 -11.0457 -10.8053
8.80785 -10.9664 -10.8067
8.87779 -10.8871 -10.8081
8.94773 -10.8077 -10.8094
9.01768 -10.7284 -10.8108
9.08762 -10.6491 -10.8122
9.15756 -10.5698 -10.8135
9.22751 -10.4905 -10.8149
9.29745 -10.4112 -10.8163
9.4479 -10.3943 -10.8152
9.59835 -10.3775 -10.8141
9.66829 -10.2982 -10.8155
9.81874 -10.2813 -10.8145
9.88868 -10.202 -10.8158
9.95862 -10.1227 -10.8172
10.1091 -10.1058 -10.8161
10.179 -10.0265 -10.8175
10.3295 -10.0097 -10.8164
10.3994 -9.93036 -10.8178
10.5499 -9.91351 -10.8167
10.6198 -9.83419 -10.8181
10.7702 -9.81734 -10.8171
10.8402 -9.73803 -10.8184
10.9906 -9.72118 -10.8174
11.0606 -9.64186 -10.8187
11.1305 -9.56255 -10.8201
11.281 -9.5457 -10.819
11.3509 -9.46638 -10.8204
11.5014 -9.44953 -10.8194
11.5713 -9.37022 -10.8207
11.7218 -9.35337 -10.8197
11.7917 -9.27406 -10.821
11.8616 -9.19474 -10.8224
12.0121 -9.17789 -10.8213
12.082 -9.09858 -10.8227
12.152 -9.01927 -10.8241
12.2219 -8.93995 -10.8254
12.3724 -8.9231 -10.8244
12.4423 -8.84379 -10.8257
12.5122 -8.76447 -10.8271
12.5822 -8.68516 -10.8285
12.6521 -8.60584 -10.8298
12.8026 -8.58899 -10.8288
12.8725 -8.50968 -10.8302
12.9425 -8.43036 -10.8315
13.0929 -8.41352 -10.8305
13.1629 -8.3342 -10.8318
13.2328 -8.25488 -10.8332
13.2222 -8.1131 -10.837
13.2922 -8.03379 -10.8383
13.3621 -7.95448 -10.8397
13.4321 -7.87516 -10.8411
13.502 -7.79584 -10.8424
13.572 -7.71653 -10.8438
13.6419 -7.63722 -10.8452
13.7118 -7.5579 -10.8465
13.7818 -7.47859 -10.8479
13.9322 -7.46174 -10.8468
14.0022 -7.38242 -10.8482
14.0721 -7.30311 -10.8496
14.2226 -7.28626 -10.8485
14.2925 -7.20695 -10.8499
14.282 -7.06517 -10.8537
14.3519 -6.98585 -10.855
14.3413 -6.84407 -10.8588
14.0893 -6.51489 -10.8699
13.9177 -6.24818 -10.8785
13.8266 -6.04394 -10.8847
13.8966 -5.96462 -10.8861
13.886 -5.82284 -10.8899
13.9559 -5.74352 -10.8913
13.9454 -5.60174 -10.8951
13.5323 -5.14764 -10.9109
13.4412 -4.94339 -10.9172
13.4307 -4.80161 -10.921
13.3396 -4.59737 -10.9272
13.2485 -4.39312 -10.9334
12.9965 -4.06394 -10.9444
12.9054 -3.8597 -10.9507
12.9753 -3.78038 -10.952
12.9648 -3.6386 -10.9558
7.18053 -12.3761 -10.8071
7.30241 -12.2863 -10.806
7.32332 -12.1826 -10.8074
7.44518 -12.0928 -10.8063
7.668 -12.0168 -10.8028
7.78987 -11.927 -10.8018
7.81079 -11.8234 -10.8032
7.8317 -11.7197 -10.8045
7.95357 -11.6299 -10.8035
7.97448 -11.5262 -10.8048
8.1973 -11.4502 -10.8013
8.42012 -11.3743 -10.7979
8.54199 -11.2845 -10.7968
8.66386 -11.1946 -10.7958
8.68477 -11.091 -10.7971
8.80664 -11.0012 -10.7961
8.82755 -10.8975 -10.7974
8.94942 -10.8077 -10.7964
9.07129 -10.7179 -10.7953
9.19315 -10.6281 -10.7943
9.31502 -10.5382 -10.7932
9.43689 -10.4484 -10.7921
9.55875 -10.3586 -10.7911
9.68062 -10.2688 -10.79
9.80249 -10.179 -10.789
10.1263 -10.1169 -10.7831
10.2481 -10.027 -10.782
10.37 -9.93722 -10.781
10.4919 -9.84741 -10.7799
10.6137 -9.75759 -10.7788
10.7356 -9.66778 -10.7778
10.9584 -9.5918 -10.7743
11.2822 -9.52968 -10.7684
11.505 -9.4537 -10.7649
11.6269 -9.36389 -10.7639
11.7487 -9.27407 -10.7628
11.8706 -9.18426 -10.7617
12.1944 -9.12213 -10.7558
12.3162 -9.03231 -10.7548
12.4381 -8.9425 -10.7537
12.459 -8.83884 -10.7551
12.5809 -8.74902 -10.754
12.7028 -8.65921 -10.753
12.7237 -8.55555 -10.7543
12.8455 -8.46573 -10.7533
12.8665 -8.36207 -10.7547
12.9883 -8.27226 -10.7536
13.0092 -8.16859 -10.755
13.1311 -8.07878 -10.7539
13.152 -7.97512 -10.7553
13.2739 -7.8853 -10.7542
13.2948 -7.78164 -10.7556
13.4167 -7.69183 -10.7545
13.5385 -7.60201 -10.7535
13.6604 -7.51219 -10.7524
13.6813 -7.40854 -10.7538
13.7022 -7.30487 -10.7551
13.7231 -7.20121 -10.7565
13.845 -7.1114 -10.7555
13.8659 -7.00774 -10.7568
13.8868 -6.90408 -10.7582
14.0087 -6.81426 -10.7571
14.0296 -6.7106 -10.7585
14.0505 -6.60694 -10.7599
14.1724 -6.51713 -10.7588
14.1933 -6.41347 -10.7602
14.3152 -6.32365 -10.7591
14.3361 -6.21999 -10.7605
14.357 -6.11633 -10.7618
14.4789 -6.02651 -10.7608
14.4998 -5.92285 -10.7622
14.4198 -5.80535 -10.7659
14.4407 -5.70169 -10.7673
14.3606 -5.58418 -10.7711
14.2806 -5.46668 -10.7749
14.2006 -5.34918 -10.7787
14.2215 -5.24551 -10.78
14.1415 -5.12801 -10.7838
14.1624 -5.02435 -10.7852
14.0823 -4.90685 -10.789
14.0023 -4.78934 -10.7928
13.9223 -4.67184 -10.7966
13.7413 -4.54049 -10.8028
13.6612 -4.42298 -10.8066
13.6821 -4.31932 -10.8079
13.6021 -4.20182 -10.8117
13.623 -4.09816 -10.8131
13.543 -3.98066 -10.8169
13.5639 -3.877 -10.8182
13.4839 -3.75949 -10.822
13.5048 -3.65583 -10.8234
13.4247 -3.53832 -10.8272
13.4457 -3.43467 -10.8286
13.3656 -3.31716 -10.8324
13.2856 -3.19966 -10.8361
13.2056 -3.08215 -10.8399
13.1255 -2.96465 -10.8437
13.1464 -2.86099 -10.8451
13.0664 -2.74348 -10.8489
12.9864 -2.62598 -10.8527
13.0073 -2.52232 -10.854
12.9272 -2.40481 -10.8578
12.8472 -2.28731 -10.8616
12.8681 -2.18365 -10.863
12.7881 -2.06614 -10.8668
12.708 -1.94864 -10.8705
12.628 -1.83114 -10.8743
12.6489 -1.72748 -10.8757
12.6698 -1.62382 -10.8771
12.5898 -1.50631 -10.8809
12.6107 -1.40265 -10.8822
12.5307 -1.28515 -10.886
12.5516 -1.18149 -10.8874
12.4715 -1.06398 -10.8912
12.3915 -0.946477 -10.895
12.4124 -0.842818 -10.8963
12.3324 -0.72531 -10.9001
12.3533 -0.621652 -10.9015
12.2733 -0.504147 -10.9053
12.2942 -0.400487 -10.9066
12.1132 -0.269139 -10.9128
12.1341 -0.165477 -10.9142
12.0541 -0.0479732 -10.918
11.974 0.0695295 -10.9218
11.995 0.173189 -10.9232
11.9149 0.290695 -10.9269
11.9358 0.394357 -10.9283
11.9567 0.498017 -10.9297
11.9777 0.601678 -10.931
11.8976 0.719179 -10.9348
11.9185 0.822839 -10.9362
11.8385 0.940344 -10.94
11.8594 1.044 -10.9413
11.7794 1.16151 -10.9451
11.8003 1.26517 -10.9465
11.7203 1.38267 -10.9503
11.7412 1.48633 -10.9517
11.6611 1.60384 -10.9554
11.6821 1.7075 -10.9568
11.602 1.825 -10.9606
11.6229 1.92866 -10.962
11.5429 2.04617 -10.9658
11.5638 2.14983 -10.9671
11.5847 2.25349 -10.9685
11.6056 2.35715 -10.9699
11.6266 2.46081 -10.9712
11.6475 2.56447 -10.9726
11.5674 2.68197 -10.9764
11.5883 2.78563 -10.9778
11.6093 2.88929 -10.9791
11.6302 2.99295 -10.9805
11.6511 3.09661 -10.9818
11.5711 3.21412 -10.9856
11.592 3.31778 -10.987
11.6129 3.42144 -10.9884
11.5328 3.53894 -10.9922
11.5538 3.6426 -10.9935
11.5747 3.74626 -10.9949
11.5956 3.84992 -10.9962
11.5156 3.96743 -11
11.5365 4.07109 -11.0014
11.5574 4.17475 -11.0028
11.5783 4.27841 -11.0041
11.4983 4.39591 -11.0079
11.3173 4.52726 -11.0141
11.3382 4.63092 -11.0155
11.2582 4.74843 -11.0193
11.2791 4.85209 -11.0207
11.199 4.96959 -11.0244
11.22 5.07325 -11.0258
11.1399 5.19076 -11.0296
10.6561 5.36364 -11.0431
10.677 5.4673 -11.0444
10.6979 5.57096 -11.0458
10.7188 5.67462 -11.0472
10.6388 5.79212 -11.051
10.4578 5.92347 -11.0572
10.3778 6.04097 -11.061
10.2977 6.15848 -11.0648
10.2177 6.27599 -11.0686
10.2386 6.37964 -11.0699
13.4716 -8.06111 -10.7737
13.6266 -7.8839 -10.7702
13.6872 -7.74519 -10.7692
13.7479 -7.60647 -10.7681
13.9972 -7.39078 -10.7622
14.0578 -7.25206 -10.7612
14.1185 -7.11335 -10.7601
14.1791 -6.97463 -10.759
14.1454 -6.8744 -10.7604
14.206 -6.73569 -10.7594
14.1723 -6.63546 -10.7607
14.3273 -6.45825 -10.7572
14.3879 -6.31954 -10.7562
14.5429 -6.14233 -10.7527
14.6035 -6.00362 -10.7516
14.5698 -5.90339 -10.753
14.6304 -5.76467 -10.752
14.5967 -5.66444 -10.7533
14.6573 -5.52573 -10.7523
14.6236 -5.4255 -10.7536
14.6843 -5.28678 -10.7526
14.7449 -5.14806 -10.7515
14.7112 -5.04783 -10.7529
14.6775 -4.9476 -10.7543
14.6437 -4.84737 -10.7556
14.61 -4.74714 -10.757
14.482 -4.6854 -10.7608
14.4482 -4.58517 -10.7621
14.4145 -4.48494 -10.7635
14.3808 -4.38471 -10.7649
14.2527 -4.32297 -10.7687
14.219 -4.22274 -10.77
14.1853 -4.12251 -10.7714
14.1516 -4.02228 -10.7728
14.0235 -3.96053 -10.7766
13.9898 -3.8603 -10.7779
13.9561 -3.76007 -10.7793
13.9224 -3.65984 -10.7807
13.8887 -3.55961 -10.782
13.7606 -3.49787 -10.7858
13.7269 -3.39764 -10.7872
13.6932 -3.29741 -10.7885
13.6594 -3.19718 -10.7899
13.6257 -3.09695 -10.7913
13.592 -2.99672 -10.7926
13.5583 -2.89649 -10.794
13.5246 -2.79626 -10.7954
13.4909 -2.69603 -10.7967
13.4571 -2.5958 -10.7981
13.4234 -2.49557 -10.7995
13.3897 -2.39534 -10.8008
13.356 -2.29511 -10.8022
13.3223 -2.19488 -10.8036
13.2886 -2.09465 -10.8049
13.2548 -1.99442 -10.8063
13.2211 -1.89419 -10.8077
13.1874 -1.79396 -10.809
13.1537 -1.69373 -10.8104
13.12 -1.5935 -10.8118
13.0863 -1.49327 -10.8131
13.0525 -1.39304 -10.8145
13.0188 -1.29281 -10.8159
12.9851 -1.19258 -10.8172
12.9514 -1.09235 -10.8186
12.9177 -0.992122 -10.8199
12.884 -0.891891 -10.8213
12.8502 -0.791662 -10.8227
12.8165 -0.691432 -10.8241
12.7828 -0.591202 -10.8254
12.7491 -0.490972 -10.8268
12.7154 -0.390742 -10.8282
12.6816 -0.290513 -10.8295
12.6479 -0.190282 -10.8309
12.6142 -0.0900526 -10.8322
12.5805 0.0101786 -10.8336
12.5468 0.110408 -10.835
12.5131 0.210637 -10.8363
12.4793 0.310867 -10.8377
12.4456 0.411098 -10.8391
12.4119 0.511328 -10.8404
12.3782 0.611557 -10.8418
12.3445 0.711786 -10.8432
12.3108 0.812017 -10.8445
12.277 0.912247 -10.8459
12.3377 1.05096 -10.8448
12.304 1.15119 -10.8462
12.2702 1.25142 -10.8476
12.2365 1.35165 -10.849
12.2028 1.45188 -10.8503
12.1691 1.55211 -10.8517
12.1354 1.65234 -10.853
12.1017 1.75257 -10.8544
12.0679 1.8528 -10.8558
12.0342 1.95303 -10.8571
12.0005 2.05326 -10.8585
12.0611 2.19198 -10.8575
12.0274 2.29221 -10.8588
11.9937 2.39244 -10.8602
12.0543 2.53115 -10.8591
12.0206 2.63138 -10.8605
11.9869 2.73161 -10.8619
11.9532 2.83185 -10.8632
11.9195 2.93207 -10.8646
11.8858 3.03231 -10.866
11.852 3.13254 -10.8673
11.8183 3.23276 -10.8687
11.8789 3.37148 -10.8676
11.8452 3.47171 -10.869
11.8115 3.57194 -10.8704
11.8721 3.71066 -10.8693
11.8384 3.81088 -10.8707
11.8047 3.91112 -10.872
11.771 4.01135 -10.8734
11.7373 4.11158 -10.8748
11.7036 4.21181 -10.8761
11.7642 4.35052 -10.8751
11.7305 4.45075 -10.8764
11.6968 4.55098 -10.8778
11.663 4.65121 -10.8792
11.6293 4.75144 -10.8805
11.5956 4.85167 -10.8819
11.5619 4.9519 -10.8833
11.5282 5.05213 -10.8846
11.4945 5.15236 -10.886
11.4607 5.25259 -10.8874
11.427 5.35282 -10.8887
11.3933 5.45305 -10.8901
11.3596 5.55328 -10.8915
11.3259 5.65351 -10.8928
11.2922 5.75374 -10.8942
11.2584 5.85397 -10.8956
11.2247 5.9542 -10.8969
11.0967 6.01594 -10.9007
11.0629 6.11617 -10.9021
11.0292 6.2164 -10.9035
10.9012 6.27815 -10.9072
10.8674 6.37838 -10.9086
10.7394 6.44012 -10.9124
10.7057 6.54035 -10.9138
10.6719 6.64058 -10.9151
10.6382 6.74081 -10.9165
10.5102 6.80255 -10.9203
10.4764 6.90278 -10.9217
10.4427 7.00301 -10.923
10.409 7.10324 -10.9244
10.3753 7.20347 -10.9258
10.2472 7.26522 -10.9296
10.2135 7.36545 -10.9309
9.99109 7.3887 -10.9371
9.76867 7.41196 -10.9433
9.64061 7.47371 -10.9471
9.51254 7.53545 -10.9509
9.47882 7.63568 -10.9523
9.35076 7.69742 -10.9561
9.22269 7.75917 -10.9599
9.09462 7.82091 -10.9637
9.06091 7.92114 -10.965
8.93284 7.98288 -10.9688
8.80478 8.04463 -10.9726
8.67671 8.10637 -10.9764
8.54865 8.16811 -10.9802
8.32623 8.19137 -10.9864
8.10381 8.21463 -10.9926
7.97575 8.27637 -10.9964
13.0372 -0.746874 -10.8478
13.0828 -0.515919 -10.8443
13.0035 -0.445978 -10.8457
12.9866 -0.295533 -10.8447
12.9073 -0.225589 -10.846
12.8905 -0.0751405 -10.845
12.8112 -0.00519705 -10.8463
12.7319 0.064744 -10.8477
12.715 0.215196 -10.8466
12.6357 0.285139 -10.848
12.5564 0.355083 -10.8494
12.5395 0.505526 -10.8483
12.4602 0.575469 -10.8497
12.4434 0.72592 -10.8486
12.489 0.956873 -10.8451
12.4721 1.10732 -10.8441
12.3928 1.17726 -10.8455
12.376 1.32771 -10.8444
12.3591 1.47816 -10.8433
12.2798 1.5481 -10.8447
12.263 1.69855 -10.8436
12.1836 1.76849 -10.845
12.1043 1.83843 -10.8464
12.025 1.90838 -10.8477
11.9457 1.97832 -10.8491
11.8664 2.04827 -10.8505
12.0369 2.44023 -10.8421
12.0201 2.59068 -10.8411
11.9408 2.66062 -10.8425
11.9239 2.81107 -10.8414
11.9071 2.96151 -10.8403
11.9527 3.19247 -10.8369
11.8734 3.26241 -10.8382
11.8565 3.41286 -10.8372
11.9021 3.64381 -10.8337
11.8853 3.79426 -10.8326
11.8684 3.94471 -10.8316
11.8516 4.09516 -10.8305
11.7723 4.1651 -10.8319
11.693 4.23505 -10.8333
11.6761 4.38549 -10.8322
11.6593 4.53593 -10.8311
11.6424 4.68639 -10.8301
11.5631 4.75633 -10.8315
11.5462 4.90678 -10.8304
11.5294 5.05722 -10.8293
11.4501 5.12717 -10.8307
11.4332 5.27762 -10.8297
11.3539 5.34756 -10.831
11.3371 5.498 -10.83
11.3202 5.64846 -10.8289
11.2409 5.7184 -10.8303
11.1616 5.78834 -10.8316
11.1447 5.93879 -10.8306
11.1279 6.08924 -10.8295
11.111 6.23969 -10.8285
11.0942 6.39013 -10.8274
11.0149 6.46008 -10.8288
10.998 6.61053 -10.8277
10.9187 6.68047 -10.8291
10.9019 6.83091 -10.828
10.8225 6.90086 -10.8294
10.7432 6.9708 -10.8307
10.7264 7.12125 -10.8297
10.6471 7.19119 -10.8311
10.5678 7.26114 -10.8324
10.5509 7.41158 -10.8314
10.4716 7.48153 -10.8327
10.3923 7.55147 -10.8341
10.313 7.62141 -10.8355
10.2336 7.69136 -10.8368
10.1543 7.7613 -10.8382
10.0125 7.75074 -10.842
9.93323 7.82068 -10.8434
9.85392 7.89062 -10.8447
9.71214 7.88006 -10.8485
9.63282 7.95001 -10.8499
9.49104 7.93945 -10.8537
9.41173 8.00939 -10.855
9.33241 8.07933 -10.8564
9.2531 8.14927 -10.8578
9.17379 8.21922 -10.8591
9.09447 8.28916 -10.8605
9.01515 8.3591 -10.8619
8.93584 8.42905 -10.8632
8.85653 8.49899 -10.8646
8.71474 8.48843 -10.8684
8.63543 8.55837 -10.8698
8.55611 8.62831 -10.8711
8.41433 8.61775 -10.8749
8.33502 8.6877 -10.8763
8.19324 8.67714 -10.8801
8.11392 8.74708 -10.8814
7.97214 8.73651 -10.8852
7.89283 8.80646 -10.8866
7.81351 8.8764 -10.8879
7.7342 8.94635 -10.8893
7.65488 9.01629 -10.8907
7.51311 9.00573 -10.8945
7.43379 9.07567 -10.8958
7.29201 9.06511 -10.8996
7.21269 9.13505 -10.901
7.07091 9.12449 -10.9048
6.92913 9.11393 -10.9086
6.78735 9.10337 -10.9124
6.64557 9.09281 -10.9161
6.56626 9.16275 -10.9175
6.42448 9.15218 -10.9213
6.34516 9.22213 -10.9227
6.14092 9.13107 -10.9289
5.74928 8.79848 -10.9424
5.60749 8.78792 -10.9462
5.52818 8.85786 -10.9475
5.44886 8.92781 -10.9489
5.36955 8.99775 -10.9502
5.22777 8.98719 -10.954
5.08599 8.97663 -10.9578
4.94421 8.96607 -10.9616
4.80243 8.9555 -10.9654
4.66065 8.94494 -10.9692
4.51887 8.93438 -10.973
4.31462 8.84331 -10.9792
11.0076 6.52295 -10.8453
10.9178 6.64481 -10.8442
10.8279 6.76669 -10.8432
10.7381 6.88855 -10.8421
10.6345 6.90946 -10.8435
10.6 7.43514 -10.8327
10.5379 7.75891 -10.8268
10.4481 7.88078 -10.8258
10.3444 7.90169 -10.8271
10.2546 8.02356 -10.8261
10.1509 8.04448 -10.8274
10.0473 8.06539 -10.8288
9.94363 8.08631 -10.8302
9.83997 8.10722 -10.8315
9.73631 8.12814 -10.8329
9.63265 8.14905 -10.8343
9.54283 8.27092 -10.8332
9.43917 8.29184 -10.8346
9.34936 8.4137 -10.8335
9.2457 8.43462 -10.8349
9.15588 8.55648 -10.8338
9.05222 8.5774 -10.8352
8.9624 8.69927 -10.8341
8.85874 8.72018 -10.8355
8.76893 8.84204 -10.8344
8.66527 8.86296 -10.8358
8.57545 8.98483 -10.8347
8.47179 9.00574 -10.8361
8.38197 9.12761 -10.8351
8.27831 9.14852 -10.8364
8.17465 9.16944 -10.8378
8.08484 9.29131 -10.8367
7.98118 9.31223 -10.8381
7.87752 9.33314 -10.8395
7.77386 9.35406 -10.8408
7.6702 9.37497 -10.8422
7.56654 9.39589 -10.8436
7.46288 9.4168 -10.8449
7.35922 9.43772 -10.8463
7.25556 9.45863 -10.8477
7.1519 9.47955 -10.849
7.04824 9.50046 -10.8504
6.94458 9.52138 -10.8518
6.84092 9.54229 -10.8531
6.73726 9.56321 -10.8545
6.6336 9.58412 -10.8559
6.52994 9.60504 -10.8572
6.42628 9.62595 -10.8586
6.32262 9.64687 -10.86
6.21896 9.66778 -10.8613
6.10145 9.58774 -10.8651
5.99779 9.60866 -10.8665
5.89413 9.62957 -10.8678
5.79047 9.65049 -10.8692
5.67297 9.57045 -10.873
5.56931 9.59137 -10.8744
5.46565 9.61228 -10.8757
5.36199 9.6332 -10.8771
5.24448 9.55316 -10.8809
5.14082 9.57408 -10.8822
5.03716 9.59499 -10.8836
4.9335 9.6159 -10.885
4.816 9.53587 -10.8888
4.71234 9.55679 -10.8901
4.60868 9.5777 -10.8915
4.49117 9.49767 -10.8953
4.38751 9.51858 -10.8967
4.27001 9.43854 -10.9005
4.16635 9.45946 -10.9018
4.06269 9.48037 -10.9032
3.95903 9.50129 -10.9046
3.84152 9.42125 -10.9083
3.73786 9.44217 -10.9097
3.62036 9.36213 -10.9135
3.5167 9.38305 -10.9149
3.41304 9.40396 -10.9162
3.29553 9.32392 -10.92
3.17803 9.24388 -10.9238
3.04668 9.0629 -10.93
2.92917 8.98286 -10.9338
2.82552 9.00378 -10.9352
2.70801 8.92374 -10.939
2.59051 8.8437 -10.9427
8.27431 9.03692 -10.8946
8.1356 9.09755 -10.8936
7.99688 9.15818 -10.8925
7.85816 9.21882 -10.8914
7.71945 9.27945 -10.8904
7.58073 9.34008 -10.8893
7.4805 9.30636 -10.8907
7.38027 9.27265 -10.8921
7.24156 9.33328 -10.891
7.14133 9.29956 -10.8924
7.0411 9.26584 -10.8937
6.90238 9.32647 -10.8927
6.76366 9.38711 -10.8916
6.43252 9.91948 -10.8784
6.2938 9.98011 -10.8774
6.19357 9.9464 -10.8788
6.05485 10.007 -10.8777
5.95462 9.97332 -10.8791
5.81591 10.0339 -10.878
5.71568 10.0002 -10.8794
5.61545 9.96651 -10.8807
5.51522 9.93279 -10.8821
5.41499 9.89908 -10.8835
5.27627 9.95971 -10.8824
5.17604 9.92599 -10.8838
5.07581 9.89228 -10.8851
4.97558 9.85856 -10.8865
4.83686 9.91919 -10.8855
4.73663 9.88548 -10.8868
4.63641 9.85176 -10.8882
4.53618 9.81804 -10.8896
4.43595 9.78432 -10.8909
4.29723 9.84496 -10.8899
4.197 9.81124 -10.8912
4.09677 9.77752 -10.8926
3.99654 9.7438 -10.894
3.89631 9.71009 -10.8953
3.79608 9.67637 -10.8967
3.69585 9.64265 -10.8981
3.59562 9.60894 -10.8994
3.49539 9.57522 -10.9008
3.35667 9.63585 -10.8997
3.25644 9.60214 -10.9011
3.15621 9.56842 -10.9025
3.05598 9.5347 -10.9038
2.95575 9.50098 -10.9052
2.85552 9.46727 -10.9066
2.75529 9.43355 -10.9079
2.65506 9.39983 -10.9093
2.55483 9.36611 -10.9107
2.4546 9.3324 -10.912
2.35437 9.29868 -10.9134
2.25414 9.26496 -10.9148
2.15391 9.23125 -10.9161
2.05368 9.19753 -10.9175
1.95345 9.16381 -10.9189
1.89171 9.03575 -10.9227
1.79148 9.00203 -10.924
1.69125 8.96831 -10.9254
1.59102 8.9346 -10.9267
1.49079 8.90088 -10.9281
1.39056 8.86716 -10.9295
1.29033 8.83344 -10.9308
1.1901 8.79973 -10.9322
1.08987 8.76601 -10.9336
0.989641 8.7323 -10.935
0.889411 8.69858 -10.9363
0.789182 8.66486 -10.9377
0.688951 8.63114 -10.939
0.588722 8.59743 -10.9404
0.526978 8.46936 -10.9442
0.426749 8.43564 -10.9456
0.32652 8.40193 -10.9469
0.264775 8.27386 -10.9507
0.164544 8.24014 -10.9521
0.102802 8.11208 -10.9559
0.00257349 8.07836 -10.9572
0.133261 7.47855 -10.9731
0.0330312 7.44483 -10.9745
-0.0671983 7.41112 -10.9759
-0.16743 7.3774 -10.9772
1.8331 9.65624 -10.9465
1.68265 9.63939 -10.9454
1.53221 9.62254 -10.9444
1.46226 9.54323 -10.9457
1.31182 9.52637 -10.9447
1.24187 9.44706 -10.946
1.17193 9.36775 -10.9474
1.10199 9.28843 -10.9488
0.951538 9.27158 -10.9477
0.801091 9.25474 -10.9467
0.650642 9.23789 -10.9456
0.500196 9.22104 -10.9445
0.430254 9.14172 -10.9459
0.36031 9.06241 -10.9473
0.290365 8.98309 -10.9486
0.220422 8.90378 -10.95
0.0699768 8.88693 -10.9489
3.29018e-05 8.80761 -10.9503
-0.150414 8.79076 -10.9493
-0.300864 8.77392 -10.9482
-0.370808 8.6946 -10.9496
-0.440748 8.61528 -10.9509
-0.591196 8.59844 -10.9499
-0.66114 8.51912 -10.9512
-0.731084 8.43981 -10.9526
-0.801028 8.36049 -10.954
-0.870969 8.28118 -10.9553
-1.02142 8.26433 -10.9543
-1.09136 8.18502 -10.9556
-1.16131 8.1057 -10.957
-1.23125 8.02638 -10.9584
-1.30119 7.94707 -10.9597
-1.37114 7.86776 -10.9611
-1.44108 7.78844 -10.9625
-1.51102 7.70913 -10.9639
-1.58096 7.62981 -10.9652
-1.65091 7.5505 -10.9666
-1.80135 7.53365 -10.9655
-1.8713 7.45433 -10.9669
-1.94124 7.37502 -10.9682
-2.01118 7.2957 -10.9696
-2.08113 7.21639 -10.971
-2.15107 7.13707 -10.9724
-2.22101 7.05776 -10.9737
-2.29096 6.97845 -10.9751
-2.3609 6.89913 -10.9764
-2.43084 6.81981 -10.9778
-2.42028 6.67804 -10.9816
-2.49023 6.59872 -10.983
-2.56017 6.51941 -10.9843
-2.63011 6.44009 -10.9857
-2.70006 6.36078 -10.9871
-2.77 6.28146 -10.9884
-2.83994 6.20215 -10.9898
-2.82938 6.06037 -10.9936
-2.89932 5.98105 -10.9949
-2.96926 5.90174 -10.9963
-3.03921 5.82242 -10.9977
-3.10915 5.74311 -10.9991
-3.17909 5.66379 -11.0004
-3.24904 5.58448 -11.0018
-3.31898 5.50516 -11.0031
-3.30842 5.36338 -11.0069
-3.37836 5.28407 -11.0083
-3.4483 5.20475 -11.0097
-3.43774 5.06297 -11.0135
-3.50769 4.98366 -11.0148
-3.57763 4.90434 -11.0162
-3.64757 4.82503 -11.0176
-3.63701 4.68325 -11.0213
-3.70695 4.60393 -11.0227
-3.7769 4.52462 -11.0241
-3.76634 4.38284 -11.0279
-3.83628 4.30352 -11.0292
-3.82572 4.16175 -11.033
-3.89566 4.08243 -11.0344
-3.8851 3.94065 -11.0382
-3.95505 3.86134 -11.0396
-3.94448 3.71955 -11.0433
-3.93392 3.57777 -11.0471
-4.00386 3.49846 -11.0485
-4.00443 3.9509 -11.0234
-4.1263 3.86108 -11.0224
-4.24816 3.77127 -11.0213
-4.37003 3.68145 -11.0202
-4.4919 3.59164 -11.0192
-4.61377 3.50182 -11.0181
-4.63468 3.39816 -11.0195
-4.6556 3.2945 -11.0209
-4.67651 3.19084 -11.0222
-4.69743 3.08718 -11.0236
-4.81929 2.99736 -11.0225
-4.84021 2.8937 -11.0239
-4.96208 2.80389 -11.0228
-4.98299 2.70023 -11.0242
-5.00391 2.59657 -11.0256
-5.12577 2.50675 -11.0245
-5.14669 2.40309 -11.0259
-5.16761 2.29943 -11.0273
-5.18852 2.19577 -11.0286
-5.20943 2.09211 -11.03
-5.23035 1.98845 -11.0314
-5.25127 1.88479 -11.0327
-5.27218 1.78113 -11.0341
-5.29309 1.67747 -11.0354
-5.31401 1.57381 -11.0368
-5.33493 1.47015 -11.0382
-5.35584 1.36649 -11.0396
-5.37675 1.26283 -11.0409
-5.39767 1.15917 -11.0423
-5.41858 1.05551 -11.0436
-5.33855 0.938006 -11.0474
-5.35947 0.834344 -11.0488
-5.38038 0.730684 -11.0502
-5.30034 0.613179 -11.054
-5.22031 0.495675 -11.0577
-5.24122 0.392015 -11.0591
-5.36309 0.302199 -11.058
-5.384 0.198538 -11.0594
-5.40491 0.0948787 -11.0608
-5.42583 -0.00878274 -11.0621
-5.44675 -0.112442 -11.0635
-5.46766 -0.216104 -11.0649
-5.38763 -0.333605 -11.0687
-5.40854 -0.437266 -11.07
-5.42946 -0.540926 -11.0714
-5.34942 -0.658429 -11.0752
-5.37033 -0.762091 -11.0766
-5.39125 -0.865751 -11.0779
-5.41217 -0.96941 -11.0793
-5.43308 -1.07307 -11.0807
-5.454 -1.17673 -11.082
-5.47491 -1.28039 -11.0834
-5.39487 -1.3979 -11.0872
-5.41579 -1.50156 -11.0885
-5.4367 -1.60522 -11.0899
-5.45762 -1.70888 -11.0913
-5.37758 -1.82638 -11.0951
-5.39849 -1.93004 -11.0964
-5.41941 -2.0337 -11.0978
-5.44033 -2.13736 -11.0992
-5.36029 -2.25487 -11.103
-5.3812 -2.35853 -11.1043
-5.30117 -2.47603 -11.1081
-6.0296 0.610326 -11.0109
-5.99588 0.510097 -11.0122
-6.05651 0.371378 -11.0112
-6.11714 0.232664 -11.0101
-6.17777 0.0939473 -11.009
-6.23841 -0.0447685 -11.008
-6.29904 -0.183485 -11.0069
-6.26532 -0.283716 -11.0083
-6.32595 -0.42243 -11.0072
-6.29223 -0.522662 -11.0086
-6.25852 -0.62289 -11.01
-6.2248 -0.723122 -11.0114
-6.19109 -0.823352 -11.0127
-6.15737 -0.923579 -11.0141
-6.12365 -1.02381 -11.0154
-6.08993 -1.12404 -11.0168
-6.05622 -1.22427 -11.0182
-6.0225 -1.3245 -11.0195
-6.08313 -1.46322 -11.0185
-6.04942 -1.56345 -11.0199
-6.0157 -1.66368 -11.0212
-5.98199 -1.76391 -11.0226
-5.94827 -1.86414 -11.024
-5.91455 -1.96437 -11.0253
-5.88083 -2.0646 -11.0267
-5.84712 -2.16483 -11.028
-5.8134 -2.26506 -11.0294
-5.77968 -2.36529 -11.0308
-5.74596 -2.46552 -11.0322
-5.71225 -2.56575 -11.0335
-5.67853 -2.66598 -11.0349
-5.64482 -2.76621 -11.0362
-5.51674 -2.82795 -11.04
-5.48303 -2.92818 -11.0414
-5.44931 -3.02841 -11.0428
-5.41559 -3.12864 -11.0441
-5.38187 -3.22887 -11.0455
-5.34816 -3.3291 -11.0469
-5.31444 -3.42933 -11.0482
-5.28073 -3.52956 -11.0496
-5.24701 -3.62979 -11.051
-5.21329 -3.73002 -11.0523
-5.17957 -3.83025 -11.0537
-5.14586 -3.93048 -11.0551
-5.11214 -4.03071 -11.0564
-4.98408 -4.09245 -11.0602
-4.95036 -4.19268 -11.0616
-4.91664 -4.29291 -11.0629
-4.78857 -4.35466 -11.0667
-4.75486 -4.45489 -11.0681
-4.72114 -4.55511 -11.0695
-4.59307 -4.61686 -11.0733
-4.55936 -4.71709 -11.0746
-4.52564 -4.81732 -11.076
-4.39758 -4.87906 -11.0798
-4.36386 -4.97929 -11.0811
-4.23579 -5.04104 -11.0849
-4.20208 -5.14127 -11.0863
-4.07401 -5.20301 -11.0901
-3.94595 -5.26475 -11.0939
-3.91223 -5.36498 -11.0952
-3.78416 -5.42673 -11.099
-3.75044 -5.52695 -11.1004
-3.62238 -5.5887 -11.1042
-3.58866 -5.68893 -11.1056
-3.36624 -5.71219 -11.1118
-3.33253 -5.81242 -11.1131
-3.29881 -5.91265 -11.1145
-3.26509 -6.01288 -11.1159
-3.23138 -6.11311 -11.1172
-3.19766 -6.21334 -11.1186
-3.16394 -6.31357 -11.12
-3.13022 -6.4138 -11.1213
-3.00216 -6.47554 -11.1251
-5.97407 -1.68518 -11.0072
-5.95721 -1.83562 -11.0061
-6.00283 -2.06658 -11.0027
-6.04845 -2.29753 -10.9992
-6.09407 -2.52848 -10.9957
-6.07722 -2.67893 -10.9946
-5.9979 -2.74887 -10.996
-5.98105 -2.89932 -10.9949
-5.90174 -2.96926 -10.9963
-5.88489 -3.11971 -10.9953
-5.80558 -3.18966 -10.9966
-5.78872 -3.3401 -10.9956
-5.70941 -3.41005 -10.9969
-5.69256 -3.5605 -10.9959
-5.61325 -3.63044 -10.9973
-5.53393 -3.70038 -10.9986
-5.45462 -3.77032 -11
-5.43777 -3.92077 -10.9989
-5.35845 -3.99072 -11.0003
-5.27914 -4.06066 -11.0016
-5.19982 -4.1306 -11.003
-5.12051 -4.20054 -11.0044
-5.10366 -4.35099 -11.0033
-5.02434 -4.42093 -11.0047
-4.94503 -4.49088 -11.0061
-4.92818 -4.64133 -11.005
-4.84887 -4.71127 -11.0064
-4.83202 -4.86172 -11.0053
-4.7527 -4.93166 -11.0067
-4.67339 -5.00161 -11.008
-4.59407 -5.07155 -11.0094
-4.51476 -5.14149 -11.0108
-4.49791 -5.29194 -11.0097
-4.4186 -5.36188 -11.0111
-4.40175 -5.51233 -11.01
-4.32243 -5.58227 -11.0114
-4.24312 -5.65221 -11.0128
-4.1638 -5.72216 -11.0141
-4.08449 -5.7921 -11.0155
-4.06764 -5.94255 -11.0144
-3.98832 -6.01249 -11.0158
-3.90901 -6.08243 -11.0172
-3.89216 -6.23289 -11.0161
-3.81285 -6.30283 -11.0175
-3.73353 -6.37277 -11.0188
-3.65422 -6.44271 -11.0202
-3.63736 -6.59316 -11.0191
-3.55805 -6.6631 -11.0205
-3.5412 -6.81355 -11.0195
-3.46188 -6.88349 -11.0208
-3.38257 -6.95344 -11.0222
-3.36572 -7.10389 -11.0211
-3.28641 -7.17383 -11.0225
-3.2071 -7.24378 -11.0239
-3.12778 -7.31372 -11.0252
-3.04846 -7.38366 -11.0266
-3.03161 -7.53411 -11.0255
-2.9523 -7.60405 -11.0269
-2.87299 -7.67399 -11.0283
-2.79367 -7.74393 -11.0296
-2.71436 -7.81388 -11.031
-2.63504 -7.88382 -11.0324
-2.55573 -7.95376 -11.0337
-2.47641 -8.02371 -11.0351
-2.45956 -8.17416 -11.034
-2.38025 -8.2441 -11.0354
-2.30093 -8.31404 -11.0368
-2.22162 -8.38399 -11.0381
-2.1423 -8.45393 -11.0395
-2.06299 -8.52387 -11.0409
-1.98368 -8.59382 -11.0422
-1.90436 -8.66376 -11.0436
-1.82505 -8.7337 -11.045
-1.74573 -8.80364 -11.0463
-1.66642 -8.87359 -11.0477
-1.5871 -8.94353 -11.0491
-1.50779 -9.01348 -11.0504
-1.42847 -9.08342 -11.0518
-1.34916 -9.15336 -11.0532
-1.26984 -9.2233 -11.0545
-1.19053 -9.29325 -11.0559
-1.17368 -9.4437 -11.0548
-1.09436 -9.51364 -11.0562
-1.01505 -9.58358 -11.0576
-0.935735 -9.65352 -11.0589
-0.856421 -9.72347 -11.0603
-0.714641 -9.71291 -11.0641
-0.635325 -9.78285 -11.0655
-0.55601 -9.85279 -11.0668
-0.476697 -9.92274 -11.0682
-0.397384 -9.99268 -11.0696
-0.318068 -10.0626 -11.0709
-0.238752 -10.1326 -11.0723
-0.159437 -10.2025 -11.0737
-0.0801229 -10.2725 -11.075
-0.000809193 -10.3424 -11.0764
0.0785046 -10.4123 -11.0778
0.157821 -10.4823 -11.0791
0.237136 -10.5522 -11.0805
0.31645 -10.6222 -11.0819
0.395764 -10.6921 -11.0832
0.475081 -10.7621 -11.0846
0.554394 -10.832 -11.086
0.633709 -10.9019 -11.0873
0.77549 -10.8914 -11.0911
0.854804 -10.9613 -11.0925
0.934122 -11.0313 -11.0938
1.01344 -11.1012 -11.0952
1.09275 -11.1711 -11.0966
1.17206 -11.2411 -11.0979
1.25138 -11.311 -11.0993
1.3307 -11.381 -11.1007
1.41001 -11.4509 -11.102
1.48932 -11.5209 -11.1034
1.56864 -11.5908 -11.1048
1.64795 -11.6608 -11.1061
1.72727 -11.7307 -11.1075
1.86905 -11.7201 -11.1113
1.94836 -11.7901 -11.1127
2.09014 -11.7795 -11.1165
2.23192 -11.769 -11.1202
2.3737 -11.7584 -11.124
2.45301 -11.8283 -11.1254
2.5948 -11.8178 -11.1292
2.73658 -11.8072 -11.133
2.87836 -11.7966 -11.1368
3.0826 -11.7056 -11.143
3.16192 -11.7755 -11.1443
3.3037 -11.765 -11.1481
3.38301 -11.8349 -11.1495
3.52479 -11.8243 -11.1533
3.60411 -11.8943 -11.1546
3.74589 -11.8837 -11.1584
3.88767 -11.8732 -11.1622
4.02944 -11.8626 -11.166
4.17123 -11.852 -11.1698
