ply
format ascii 1.0
comment VCGLIB generated
element vertex 1170
property float x
property float y
property float z
element face 0
property list uchar int vertex_indices
end_header
4.14795 -12.5605 -9.81158
4.2984 -12.5436 -9.81052
4.36834 -12.4643 -9.81189
4.51879 -12.4475 -9.81084
4.74974 -12.4931 -9.80736
4.90019 -12.4762 -9.80629
5.21165 -12.5843 -9.80038
5.3621 -12.5675 -9.79933
5.51254 -12.5506 -9.79828
5.58249 -12.4713 -9.79964
5.73294 -12.4545 -9.79858
5.96389 -12.5001 -9.7951
6.11434 -12.4832 -9.79405
6.26478 -12.4664 -9.79298
6.33473 -12.3871 -9.79436
6.48518 -12.3702 -9.7933
6.55512 -12.2909 -9.79466
6.62506 -12.2116 -9.79604
6.77551 -12.1947 -9.79497
6.84545 -12.1154 -9.79634
6.91539 -12.0361 -9.7977
6.98534 -11.9568 -9.79907
7.05528 -11.8775 -9.80045
7.20573 -11.8606 -9.79938
7.27567 -11.7813 -9.80075
7.42612 -11.7645 -9.7997
7.49607 -11.6851 -9.80106
7.64651 -11.6683 -9.8
7.71645 -11.589 -9.80136
7.7864 -11.5097 -9.80273
7.85634 -11.4303 -9.80409
7.92628 -11.351 -9.80547
7.99622 -11.2717 -9.80682
8.06617 -11.1924 -9.8082
8.13611 -11.1131 -9.80956
8.20606 -11.0338 -9.81093
8.3565 -11.0169 -9.80988
8.42645 -10.9376 -9.81123
8.49639 -10.8583 -9.81261
8.56634 -10.779 -9.81396
8.71678 -10.7621 -9.81291
8.78672 -10.6828 -9.81427
8.93717 -10.666 -9.81322
9.00712 -10.5867 -9.81459
9.15756 -10.5698 -9.81352
9.22751 -10.4905 -9.8149
9.29745 -10.4112 -9.81625
9.4479 -10.3943 -9.8152
9.51784 -10.315 -9.81657
9.66829 -10.2982 -9.81551
9.73824 -10.2188 -9.81688
9.80818 -10.1395 -9.81824
9.95862 -10.1227 -9.81718
10.0286 -10.0434 -9.81856
10.0985 -9.96405 -9.81992
10.249 -9.9472 -9.81886
10.3189 -9.86789 -9.82024
10.3888 -9.78857 -9.82159
10.5393 -9.77173 -9.82054
10.6092 -9.69241 -9.8219
10.7597 -9.67556 -9.82085
10.8296 -9.59625 -9.82222
10.9801 -9.5794 -9.82115
11.1305 -9.56255 -9.8201
11.2005 -9.48323 -9.82146
11.3509 -9.46638 -9.8204
11.4209 -9.38707 -9.82178
11.5713 -9.37022 -9.82071
11.6412 -9.29091 -9.82208
11.7112 -9.21159 -9.82346
11.7811 -9.13228 -9.82481
11.8511 -9.05296 -9.82619
12.0015 -9.03611 -9.82512
12.0715 -8.9568 -9.82649
12.1414 -8.87748 -9.82785
12.2114 -8.79817 -9.82922
12.2813 -8.71885 -9.83058
12.4317 -8.70201 -9.82953
12.5017 -8.62269 -9.8309
12.5716 -8.54338 -9.83226
12.6416 -8.46406 -9.83363
12.792 -8.44721 -9.83257
12.862 -8.3679 -9.83394
12.9319 -8.28858 -9.8353
13.0019 -8.20927 -9.83667
13.0718 -8.12995 -9.83803
13.1417 -8.05064 -9.8394
13.1312 -7.90886 -9.84319
13.2011 -7.82955 -9.84456
13.2711 -7.75023 -9.84592
13.341 -7.67092 -9.84729
13.411 -7.5916 -9.84865
13.4004 -7.44982 -9.85245
13.3898 -7.30804 -9.85623
13.4598 -7.22872 -9.8576
13.5297 -7.14941 -9.85896
13.5997 -7.0701 -9.86034
13.5891 -6.92832 -9.86412
13.659 -6.849 -9.86548
13.729 -6.76969 -9.86685
13.7184 -6.62791 -9.87064
13.7884 -6.54859 -9.87201
13.7778 -6.40681 -9.87579
13.7672 -6.26503 -9.87958
13.7567 -6.12325 -9.88338
13.6656 -5.919 -9.88959
13.5745 -5.71476 -9.8958
13.564 -5.57298 -9.89958
13.5534 -5.4312 -9.90338
13.5429 -5.28942 -9.90717
13.1298 -4.83531 -9.92307
13.1192 -4.69353 -9.92686
13.0282 -4.48929 -9.93307
12.6956 -4.09764 -9.94655
12.7655 -4.01833 -9.94792
12.7549 -3.87655 -9.95171
12.8249 -3.79723 -9.95308
12.8143 -3.65545 -9.95686
12.8038 -3.51367 -9.96065
12.3102 -2.9971 -9.97899
12.2996 -2.85532 -9.98277
12.2891 -2.71354 -9.98656
12.2785 -2.57176 -9.99036
12.2679 -2.42997 -9.99414
12.2574 -2.2882 -9.99792
12.1663 -2.08395 -10.0041
12.1557 -1.94217 -10.0079
11.9037 -1.61299 -10.019
11.8931 -1.47121 -10.0228
7.24328 -12.0651 -9.81117
7.36515 -11.9753 -9.81012
7.48701 -11.8855 -9.80907
7.60888 -11.7957 -9.808
7.62979 -11.692 -9.80937
7.75167 -11.6022 -9.80832
7.77258 -11.4985 -9.80968
7.89445 -11.4087 -9.80862
7.91536 -11.3051 -9.80998
7.93628 -11.2014 -9.81136
8.05814 -11.1116 -9.8103
8.28096 -11.0356 -9.80681
8.40283 -10.9458 -9.80576
8.42374 -10.8421 -9.80713
8.54561 -10.7523 -9.80606
8.66748 -10.6625 -9.80501
8.99125 -10.6004 -9.7991
9.21407 -10.5244 -9.79562
9.33593 -10.4346 -9.79457
9.55875 -10.3586 -9.79109
9.68062 -10.2688 -9.79004
9.80249 -10.179 -9.78897
10.0253 -10.103 -9.78549
10.1472 -10.0132 -9.78444
10.37 -9.93722 -9.78096
10.4919 -9.84741 -9.77991
10.7147 -9.77143 -9.77641
10.8365 -9.68162 -9.77536
10.9584 -9.5918 -9.77431
11.0803 -9.50199 -9.77325
11.4041 -9.43986 -9.76735
11.5259 -9.35004 -9.76628
11.6478 -9.26023 -9.76523
11.8706 -9.18426 -9.76175
11.9925 -9.09444 -9.7607
12.0134 -8.99078 -9.76205
12.1353 -8.90097 -9.761
12.459 -8.83884 -9.7551
12.5809 -8.74902 -9.75404
12.7028 -8.65921 -9.75299
12.7237 -8.55555 -9.75435
12.8455 -8.46573 -9.7533
12.8665 -8.36207 -9.75465
12.9883 -8.27226 -9.7536
13.0092 -8.16859 -9.75497
13.0302 -8.06493 -9.75633
13.152 -7.97512 -9.75528
13.1729 -7.87146 -9.75664
13.1939 -7.7678 -9.75801
13.2148 -7.66414 -9.75937
13.2357 -7.56048 -9.76074
13.3575 -7.47066 -9.75969
13.3785 -7.367 -9.76105
13.5003 -7.27718 -9.75999
13.6222 -7.18737 -9.75894
13.6431 -7.08371 -9.7603
13.664 -6.98005 -9.76167
13.7859 -6.89023 -9.7606
13.8068 -6.78657 -9.76198
13.8277 -6.68291 -9.76334
13.8486 -6.57925 -9.76471
13.8696 -6.47559 -9.76608
13.9914 -6.38578 -9.76501
14.0123 -6.28212 -9.76639
14.0333 -6.17846 -9.76775
14.0542 -6.0748 -9.76912
14.0751 -5.97114 -9.77048
14.096 -5.86748 -9.77185
14.1169 -5.76382 -9.77321
14.0369 -5.64631 -9.77701
14.0578 -5.54265 -9.77837
13.9778 -5.42515 -9.78217
13.8977 -5.30764 -9.78595
13.8177 -5.19014 -9.78973
13.7376 -5.07263 -9.79353
13.6576 -4.95513 -9.79732
13.5776 -4.83762 -9.8011
13.4975 -4.72012 -9.8049
13.5184 -4.61646 -9.80626
13.4384 -4.49896 -9.81004
13.4593 -4.3953 -9.81142
13.3793 -4.27779 -9.8152
13.4002 -4.17413 -9.81657
13.4211 -4.07047 -9.81793
13.442 -3.96681 -9.81931
13.362 -3.84931 -9.82309
13.282 -3.7318 -9.82687
13.3029 -3.62814 -9.82825
13.2228 -3.51064 -9.83203
13.2438 -3.40698 -9.8334
13.1637 -3.28947 -9.83719
13.1846 -3.18581 -9.83856
13.2056 -3.08215 -9.83992
13.1255 -2.96465 -9.8437
13.1464 -2.86099 -9.84508
13.0664 -2.74348 -9.84886
12.9864 -2.62598 -9.85266
12.9063 -2.50847 -9.85645
12.7253 -2.37712 -9.86266
12.6453 -2.25962 -9.86644
12.5653 -2.14212 -9.87024
12.5862 -2.03846 -9.8716
12.5061 -1.92095 -9.8754
12.5271 -1.81729 -9.87675
12.548 -1.71363 -9.87813
12.5689 -1.60997 -9.87949
12.5898 -1.50631 -9.88086
12.5098 -1.38881 -9.88464
12.5307 -1.28515 -9.88602
12.4506 -1.16764 -9.8898
12.4715 -1.06398 -9.89116
12.3915 -0.946477 -9.89496
12.3115 -0.828972 -9.89874
12.3324 -0.72531 -9.90012
12.2524 -0.607808 -9.9039
12.2733 -0.504147 -9.90526
12.1932 -0.386644 -9.90906
12.1132 -0.269139 -9.91284
12.1341 -0.165477 -9.91422
12.0541 -0.0479732 -9.918
11.974 0.0695295 -9.92178
11.894 0.187035 -9.92558
11.814 0.304538 -9.92937
11.7339 0.422044 -9.93315
11.7548 0.525704 -9.93452
11.7758 0.629365 -9.93588
11.7967 0.733023 -9.93726
11.8176 0.836682 -9.93861
11.8385 0.940344 -9.93999
11.8594 1.044 -9.94135
11.7794 1.16151 -9.94514
11.8003 1.26517 -9.9465
11.7203 1.38267 -9.9503
11.7412 1.48633 -9.95166
11.6611 1.60384 -9.95544
11.6821 1.7075 -9.95682
11.703 1.81116 -9.95818
11.7239 1.91482 -9.95955
11.6438 2.03233 -9.96333
11.6648 2.13598 -9.96471
11.6857 2.23964 -9.96606
11.6056 2.35715 -9.96986
11.6266 2.46081 -9.97122
11.5465 2.57831 -9.97501
11.5674 2.68197 -9.97638
11.5883 2.78563 -9.97775
11.6093 2.88929 -9.97911
11.6302 2.99295 -9.98048
11.5501 3.11046 -9.98427
11.5711 3.21412 -9.98563
11.592 3.31778 -9.987
11.5119 3.43528 -9.99078
11.5328 3.53894 -9.99216
11.4528 3.65645 -9.99594
11.4737 3.76011 -9.99731
11.3937 3.87761 -10.0011
11.4146 3.98127 -10.0025
11.2336 4.11262 -10.0087
11.1536 4.23012 -10.0125
11.1745 4.33378 -10.0138
11.0945 4.45129 -10.0176
11.1154 4.55495 -10.019
11.0353 4.67246 -10.0228
10.9553 4.78996 -10.0266
10.9762 4.89362 -10.0279
10.8962 5.01112 -10.0317
10.9171 5.11478 -10.0331
10.8371 5.23229 -10.0369
10.858 5.33595 -10.0382
10.4751 5.49499 -10.0493
10.2941 5.62634 -10.0555
10.315 5.72999 -10.0569
10.235 5.8475 -10.0607
10.2559 5.95116 -10.062
10.1759 6.06866 -10.0658
10.1968 6.17233 -10.0672
10.0158 6.30367 -10.0734
13.4042 -7.86064 -9.77646
13.4648 -7.72193 -9.77539
13.5254 -7.58321 -9.77434
13.5861 -7.4445 -9.77328
13.6467 -7.30578 -9.77223
14.0847 -7.01312 -9.76147
14.1454 -6.8744 -9.76042
14.206 -6.73569 -9.75937
14.2666 -6.59697 -9.7583
14.3273 -6.45825 -9.75725
14.2936 -6.35802 -9.75861
14.3542 -6.21931 -9.75755
14.3205 -6.11908 -9.75893
14.3811 -5.98036 -9.75786
14.4417 -5.84164 -9.75681
14.5024 -5.70293 -9.75575
14.4686 -5.6027 -9.75711
14.5293 -5.46398 -9.75606
14.4956 -5.36375 -9.75743
14.4618 -5.26352 -9.75879
14.4281 -5.16329 -9.76016
14.3944 -5.06306 -9.76152
14.2663 -5.00132 -9.76532
14.2326 -4.90109 -9.76668
14.1989 -4.80086 -9.76805
14.1652 -4.70063 -9.76941
14.1315 -4.6004 -9.77078
14.0978 -4.50017 -9.77214
14.064 -4.39994 -9.77351
14.0303 -4.29971 -9.77487
13.9966 -4.19948 -9.77625
13.9629 -4.09925 -9.7776
13.9292 -3.99902 -9.77898
13.8011 -3.93728 -9.78276
13.7674 -3.83705 -9.78413
13.7337 -3.73682 -9.78549
13.7 -3.63659 -9.78687
13.6662 -3.53636 -9.78822
13.6325 -3.43613 -9.7896
13.5988 -3.3359 -9.79095
13.5651 -3.23567 -9.79233
13.5314 -3.13544 -9.79369
13.4977 -3.03521 -9.79506
13.4639 -2.93498 -9.79642
13.4302 -2.83475 -9.79779
13.3965 -2.73452 -9.79915
13.3628 -2.63429 -9.80052
13.3291 -2.53406 -9.80188
13.2954 -2.43383 -9.80325
13.2616 -2.3336 -9.80463
13.2279 -2.23337 -9.80598
13.1942 -2.13314 -9.80736
13.1605 -2.03291 -9.80872
13.1268 -1.93268 -9.81009
13.0931 -1.83245 -9.81145
13.0593 -1.73222 -9.81282
13.0256 -1.63199 -9.81418
12.9919 -1.53176 -9.81555
12.9582 -1.43153 -9.81691
12.9245 -1.3313 -9.81828
12.8907 -1.23107 -9.81964
12.857 -1.13084 -9.82101
12.8233 -1.03061 -9.82237
12.7896 -0.930378 -9.82375
12.7559 -0.83015 -9.8251
12.7222 -0.729919 -9.82648
12.6884 -0.629689 -9.82784
12.6547 -0.529459 -9.82921
12.621 -0.429229 -9.83057
12.5873 -0.329 -9.83194
12.5536 -0.228769 -9.8333
12.5199 -0.12854 -9.83467
12.4861 -0.0283093 -9.83604
12.4524 0.0719209 -9.8374
12.4187 0.172149 -9.83878
12.385 0.27238 -9.84013
12.3513 0.372611 -9.84151
12.3176 0.47284 -9.84286
12.2838 0.57307 -9.84424
12.3445 0.711786 -9.84317
12.3108 0.812017 -9.84454
12.277 0.912247 -9.8459
12.2433 1.01248 -9.84727
12.2096 1.11271 -9.84863
12.1759 1.21294 -9.85001
12.1422 1.31317 -9.85138
12.1085 1.4134 -9.85274
12.0747 1.51363 -9.85411
12.1354 1.65234 -9.85304
12.1017 1.75257 -9.85442
12.0679 1.8528 -9.85577
12.0342 1.95303 -9.85715
12.0005 2.05326 -9.85851
11.9668 2.15349 -9.85988
12.0274 2.29221 -9.85883
11.9937 2.39244 -9.86018
11.96 2.49267 -9.86156
11.9263 2.5929 -9.86292
11.8925 2.69313 -9.86429
11.7645 2.75487 -9.86807
11.7308 2.8551 -9.86945
11.6971 2.95533 -9.8708
11.6633 3.05556 -9.87218
11.724 3.19428 -9.87111
11.6902 3.29451 -9.87248
11.6565 3.39474 -9.87384
11.7172 3.53346 -9.87279
11.6834 3.63368 -9.87416
11.6497 3.73391 -9.87552
11.7104 3.87263 -9.87447
11.6766 3.97286 -9.87582
11.6429 4.07309 -9.8772
11.6092 4.17332 -9.87856
11.5755 4.27355 -9.87993
11.5418 4.37378 -9.88129
11.6024 4.5125 -9.88023
11.5687 4.61273 -9.88161
11.535 4.71295 -9.88297
11.5013 4.81318 -9.88434
11.4675 4.91342 -9.8857
11.4338 5.01365 -9.88707
11.4001 5.11388 -9.88843
11.3664 5.2141 -9.8898
11.3327 5.31433 -9.89116
11.299 5.41457 -9.89253
11.2652 5.5148 -9.89389
11.2315 5.61503 -9.89526
11.1978 5.71525 -9.89664
11.0697 5.777 -9.90042
11.036 5.87723 -9.90178
11.0023 5.97746 -9.90315
10.9686 6.07769 -9.90451
10.9349 6.17792 -9.90588
10.8068 6.23966 -9.90967
10.7731 6.33989 -9.91104
10.645 6.40163 -9.91483
10.6113 6.50186 -9.9162
10.4832 6.56361 -9.91998
10.4495 6.66384 -9.92134
10.4158 6.76407 -9.92271
10.3821 6.8643 -9.92409
10.3484 6.96453 -9.92545
10.2203 7.02627 -9.92923
10.0922 7.08802 -9.93303
9.96418 7.14976 -9.93681
9.74175 7.17302 -9.94302
9.61369 7.23476 -9.94681
9.48562 7.2965 -9.95061
9.45191 7.39673 -9.95197
9.32384 7.45848 -9.95576
9.29012 7.55871 -9.95712
9.16206 7.62045 -9.96091
9.03399 7.68219 -9.96471
8.90593 7.74394 -9.96849
8.77786 7.80568 -9.97227
8.74414 7.90591 -9.97365
8.61608 7.96765 -9.97743
8.39366 7.99091 -9.98364
8.2656 8.05265 -9.98744
8.04318 8.07591 -9.99365
13.9918 -4.16493 -9.85698
14.0375 -3.93398 -9.8535
14.2705 -3.46151 -9.84276
14.2536 -3.31106 -9.84171
14.1743 -3.24112 -9.84306
14.1575 -3.09067 -9.84201
14.0781 -3.02073 -9.84337
13.9988 -2.95079 -9.84474
13.9195 -2.88084 -9.8461
13.9027 -2.73039 -9.84505
13.8234 -2.66045 -9.84642
13.8065 -2.51 -9.84535
13.7272 -2.44006 -9.84673
13.6479 -2.37011 -9.84808
13.631 -2.21967 -9.84703
13.5517 -2.14973 -9.8484
13.4724 -2.07978 -9.84976
13.3931 -2.00984 -9.85114
13.3762 -1.85939 -9.85007
13.2969 -1.78945 -9.85144
13.2176 -1.71951 -9.85281
13.1383 -1.64956 -9.85417
13.059 -1.57962 -9.85555
13.0421 -1.42917 -9.85448
12.9628 -1.35923 -9.85585
13.1334 -0.967266 -9.84752
13.1165 -0.816818 -9.84647
13.0997 -0.66637 -9.84541
13.0828 -0.515919 -9.84435
13.0035 -0.445978 -9.84572
12.9242 -0.376034 -9.84708
12.8449 -0.30609 -9.84845
12.828 -0.155645 -9.8474
12.7487 -0.0857015 -9.84875
12.7319 0.064744 -9.8477
12.6525 0.134688 -9.84906
12.5732 0.204632 -9.85043
12.5564 0.355083 -9.84938
12.4771 0.425024 -9.85074
12.4602 0.575469 -9.84969
12.3809 0.645413 -9.85104
12.364 0.795865 -9.84999
12.4097 1.02682 -9.84651
12.3928 1.17726 -9.84546
12.3135 1.24721 -9.84682
12.2966 1.39765 -9.84576
12.2173 1.4676 -9.84714
12.138 1.53754 -9.8485
12.1212 1.68799 -9.84744
12.0419 1.75793 -9.8488
12.025 1.90838 -9.84775
12.0706 2.13934 -9.84427
12.0538 2.28978 -9.84322
12.0369 2.44023 -9.84215
11.9576 2.51017 -9.84352
11.9408 2.66062 -9.84247
11.9864 2.89157 -9.83899
11.9695 3.04202 -9.83792
11.8902 3.11196 -9.83929
11.8734 3.26241 -9.83823
11.794 3.33236 -9.8396
11.7147 3.4023 -9.84097
11.6979 3.55274 -9.8399
11.806 3.8642 -9.834
11.7267 3.93415 -9.83537
11.7098 4.08459 -9.83432
11.6305 4.15454 -9.83568
11.6136 4.30499 -9.83463
11.5343 4.37493 -9.83598
11.5175 4.52538 -9.83493
11.5006 4.67582 -9.83388
11.4213 4.74577 -9.83524
11.4045 4.89622 -9.83418
11.3876 5.04666 -9.83313
11.3708 5.19711 -9.83208
11.3539 5.34756 -9.83101
11.3371 5.498 -9.82996
11.2577 5.56795 -9.83131
11.2409 5.7184 -9.83026
11.1616 5.78834 -9.83163
11.1447 5.93879 -9.83057
11.0654 6.00873 -9.83194
11.0486 6.15918 -9.83089
10.9693 6.22912 -9.83224
10.9524 6.37957 -9.83119
10.8731 6.44952 -9.83255
10.8562 6.59996 -9.8315
10.7769 6.6699 -9.83287
10.7601 6.82035 -9.8318
10.6808 6.8903 -9.83318
10.6639 7.04075 -9.83212
10.5846 7.11069 -9.83348
10.5053 7.18063 -9.83485
10.426 7.25058 -9.83621
10.4091 7.40102 -9.83516
10.3298 7.47096 -9.83652
10.2505 7.54091 -9.83789
10.1712 7.61085 -9.83926
10.0919 7.6808 -9.84062
10.0125 7.75074 -9.842
9.93323 7.82068 -9.84335
9.79145 7.81012 -9.84714
9.71214 7.88006 -9.84851
9.63282 7.95001 -9.84987
9.55351 8.01995 -9.85124
9.41173 8.00939 -9.85503
9.33241 8.07933 -9.8564
9.2531 8.14927 -9.85776
9.11132 8.13871 -9.86156
9.032 8.20865 -9.86292
8.89022 8.19809 -9.86671
8.81091 8.26804 -9.86807
8.73159 8.33798 -9.86945
8.65228 8.40793 -9.8708
8.57296 8.47787 -9.87218
8.49365 8.54781 -9.87354
8.35187 8.53725 -9.87732
8.27256 8.60719 -9.87869
8.19324 8.67714 -9.88007
8.05146 8.66657 -9.88385
7.97214 8.73651 -9.88521
7.89283 8.80646 -9.88658
7.81351 8.8764 -9.88794
7.67174 8.86584 -9.89174
7.59242 8.93578 -9.8931
7.51311 9.00573 -9.89447
7.37132 8.99516 -9.89825
7.29201 9.06511 -9.89963
7.15023 9.05455 -9.90341
7.00845 9.04398 -9.9072
6.86667 9.03342 -9.911
6.72489 9.02286 -9.91478
6.58311 9.0123 -9.91856
6.44133 9.00174 -9.92236
6.29955 8.99118 -9.92615
6.15777 8.98061 -9.92993
6.01599 8.97006 -9.93373
5.93667 9.04 -9.93509
5.79489 9.02943 -9.93887
5.65311 9.01887 -9.94267
5.51133 9.00831 -9.94646
5.05722 8.59522 -9.96236
4.91544 8.58466 -9.96616
4.83612 8.65461 -9.96751
4.69435 8.64405 -9.97131
4.61503 8.71399 -9.97267
4.47325 8.70343 -9.97646
4.39394 8.77337 -9.97783
4.18969 8.6823 -9.98404
10.9937 6.42199 -9.8477
10.9039 6.54387 -9.84665
10.8279 6.76669 -9.84315
10.7381 6.88855 -9.8421
10.6483 7.01042 -9.84105
10.5585 7.13228 -9.84
10.4687 7.25415 -9.83893
10.3789 7.37602 -9.83788
10.2752 7.39693 -9.83925
10.1854 7.5188 -9.83818
10.0956 7.64067 -9.83713
10.0334 7.96444 -9.83122
9.92978 7.98535 -9.8326
9.82612 8.00627 -9.83395
9.73631 8.12814 -9.8329
9.64649 8.25 -9.83185
9.54283 8.27092 -9.83321
9.43917 8.29184 -9.83458
9.34936 8.4137 -9.83351
9.2457 8.43462 -9.83488
9.14203 8.45553 -9.83624
9.03837 8.47645 -9.83762
8.94856 8.59831 -9.83656
8.8449 8.61923 -9.83792
8.74124 8.64014 -9.83929
8.65142 8.76201 -9.83823
8.54776 8.78293 -9.8396
8.4441 8.80384 -9.84097
8.35429 8.92571 -9.8399
8.25063 8.94662 -9.84128
8.16081 9.06849 -9.84021
8.05715 9.0894 -9.84158
7.95349 9.11032 -9.84296
7.86367 9.23218 -9.84189
7.76001 9.2531 -9.84326
7.65635 9.27402 -9.84462
7.55269 9.29493 -9.84599
7.44903 9.31585 -9.84735
7.34537 9.33676 -9.84872
7.24171 9.35768 -9.85008
7.13805 9.37859 -9.85146
7.03439 9.39951 -9.85281
6.93073 9.42042 -9.85419
6.82707 9.44134 -9.85555
6.72341 9.46225 -9.85692
6.61975 9.48317 -9.85829
6.51609 9.50408 -9.85965
6.41243 9.525 -9.86102
6.29493 9.44496 -9.86481
6.19127 9.46588 -9.86617
6.08761 9.48679 -9.86754
5.98395 9.50771 -9.8689
5.88029 9.52862 -9.87027
5.77663 9.54954 -9.87164
5.67297 9.57045 -9.873
5.56931 9.59137 -9.87437
5.46565 9.61228 -9.87573
5.34814 9.53224 -9.87952
5.24448 9.55316 -9.88089
5.14082 9.57408 -9.88225
5.03716 9.59499 -9.88362
4.91966 9.51495 -9.88741
4.816 9.53587 -9.88878
4.71234 9.55679 -9.89014
4.59483 9.47675 -9.89394
4.49117 9.49767 -9.89529
4.37367 9.41763 -9.89909
4.27001 9.43854 -9.90045
4.1525 9.35851 -9.90424
4.04884 9.37942 -9.90561
3.93134 9.29939 -9.90939
3.82768 9.3203 -9.91077
3.71017 9.24026 -9.91455
3.59267 9.16022 -9.91833
3.46132 8.97924 -9.92456
3.34382 8.8992 -9.92834
3.24016 8.92011 -9.9297
3.1365 8.94103 -9.93108
3.03284 8.96194 -9.93243
2.91533 8.88191 -9.93623
2.81167 8.90283 -9.93759
2.70801 8.92374 -9.93896
2.59051 8.8437 -9.94275
2.48685 8.86462 -9.94412
2.38318 8.88553 -9.94548
2.26568 8.80549 -9.94928
2.14818 8.72546 -9.95306
2.03067 8.64542 -9.95685
1.91317 8.56539 -9.96063
1.80951 8.5863 -9.96201
1.692 8.50626 -9.96579
1.58834 8.52718 -9.96716
1.47084 8.44714 -9.97095
1.35334 8.3671 -9.97473
1.23583 8.28707 -9.97853
1.13217 8.30798 -9.97989
1.00082 8.12699 -9.9861
0.869471 7.94601 -9.99232
0.738123 7.76502 -9.99854
9.22207 8.39008 -9.90823
9.08335 8.45071 -9.90717
8.98312 8.41699 -9.90854
8.84441 8.47763 -9.90749
8.51326 9.01 -9.8943
8.37454 9.07063 -9.89325
8.23583 9.13126 -9.8922
8.1356 9.09755 -9.89355
7.99688 9.15818 -9.8925
7.85816 9.21882 -9.89145
7.71945 9.27945 -9.8904
7.61922 9.24573 -9.89175
7.4805 9.30636 -9.8907
7.34179 9.36699 -9.88963
7.24156 9.33328 -9.89101
7.10284 9.39391 -9.88995
6.96412 9.45454 -9.88889
6.82541 9.51517 -9.88783
6.68669 9.5758 -9.88678
6.58646 9.54209 -9.88814
6.48623 9.50837 -9.88951
6.386 9.47465 -9.89087
6.13183 9.81833 -9.88255
5.99311 9.87896 -9.8815
5.89288 9.84525 -9.88286
5.75416 9.90588 -9.88181
5.65393 9.87216 -9.88316
5.51522 9.93279 -9.88211
5.41499 9.89908 -9.88348
5.31476 9.86536 -9.88484
5.17604 9.92599 -9.88379
5.07581 9.89228 -9.88515
4.97558 9.85856 -9.88652
4.87535 9.82484 -9.88788
4.77512 9.79113 -9.88925
4.63641 9.85176 -9.8882
4.53618 9.81804 -9.88956
4.43595 9.78432 -9.89093
4.33572 9.75061 -9.89229
4.23549 9.71689 -9.89366
4.13526 9.68317 -9.89502
4.03503 9.64946 -9.89639
3.9348 9.61574 -9.89775
3.83457 9.58202 -9.89912
3.73434 9.5483 -9.90048
3.63411 9.51459 -9.90186
3.53388 9.48087 -9.90321
3.39516 9.5415 -9.90216
3.29493 9.50779 -9.90353
3.1947 9.47407 -9.90489
3.09447 9.44035 -9.90627
2.99424 9.40663 -9.90762
2.89401 9.37292 -9.909
2.79378 9.3392 -9.91035
2.69355 9.30548 -9.91173
2.59332 9.27177 -9.91309
2.49309 9.23805 -9.91446
2.39286 9.20433 -9.91582
2.29263 9.17061 -9.91719
2.1924 9.1369 -9.91855
2.09217 9.10318 -9.91992
1.99194 9.06947 -9.92128
1.89171 9.03575 -9.92265
1.79148 9.00203 -9.92401
1.69125 8.96831 -9.92538
1.59102 8.9346 -9.92674
1.49079 8.90088 -9.92812
1.39056 8.86716 -9.92949
1.29033 8.83344 -9.93085
1.1901 8.79973 -9.93222
1.08987 8.76601 -9.93358
0.989641 8.7323 -9.93495
0.889411 8.69858 -9.93631
0.827669 8.57051 -9.94009
0.727438 8.53679 -9.94147
0.627208 8.50308 -9.94284
0.526978 8.46936 -9.9442
0.426749 8.43564 -9.94557
0.32652 8.40193 -9.94693
0.264775 8.27386 -9.95071
0.164544 8.24014 -9.95209
0.0643146 8.20643 -9.95345
-0.0359137 8.17271 -9.95482
-0.0976562 8.04464 -9.9586
-0.197886 8.01092 -9.95998
-0.298116 7.97721 -9.96133
-0.359863 7.84915 -9.96513
-0.267658 7.34368 -9.97861
-0.367889 7.30996 -9.97998
-0.468119 7.27625 -9.98134
-0.568348 7.24253 -9.98271
-0.668579 7.20881 -9.98407
1.68265 9.63939 -9.94542
1.61271 9.56008 -9.94679
1.46226 9.54323 -9.94572
1.39232 9.46391 -9.9471
1.32238 9.3846 -9.94846
1.17193 9.36775 -9.9474
1.10199 9.28843 -9.94878
1.03205 9.20912 -9.95013
0.881595 9.19227 -9.94908
0.811651 9.11296 -9.95044
0.661205 9.0961 -9.94939
0.510757 9.07926 -9.94833
0.36031 9.06241 -9.94728
0.209861 9.04556 -9.94621
0.139918 8.96624 -9.94759
0.0699768 8.88693 -9.94894
-0.0804715 8.87008 -9.94789
-0.150414 8.79076 -9.94926
-0.22036 8.71145 -9.95062
-0.370808 8.6946 -9.94957
-0.440748 8.61528 -9.95093
-0.510692 8.53597 -9.9523
-0.66114 8.51912 -9.95125
-0.731084 8.43981 -9.95261
-0.801028 8.36049 -9.95398
-0.870969 8.28118 -9.95534
-0.940913 8.20186 -9.95671
-1.09136 8.18502 -9.95564
-1.16131 8.1057 -9.95702
-1.23125 8.02638 -9.95837
-1.30119 7.94707 -9.95975
-1.29063 7.80529 -9.96353
-1.36057 7.72598 -9.9649
-1.43052 7.64666 -9.96626
-1.58096 7.62981 -9.96521
-1.65091 7.5505 -9.96658
-1.72085 7.47118 -9.96794
-1.7908 7.39187 -9.96931
-1.86074 7.31256 -9.97067
-1.93068 7.23324 -9.97205
-2.00062 7.15392 -9.9734
-2.07057 7.07461 -9.97478
-2.14051 6.9953 -9.97614
-2.21045 6.91598 -9.97751
-2.2804 6.83667 -9.97887
-2.35034 6.75735 -9.98024
-2.42028 6.67804 -9.9816
-2.49023 6.59872 -9.98297
-2.56017 6.51941 -9.98433
-2.63011 6.44009 -9.9857
-2.70006 6.36078 -9.98706
-2.77 6.28146 -9.98843
-2.75944 6.13968 -9.99222
-2.82938 6.06037 -9.99359
-2.89932 5.98105 -9.99495
-2.96926 5.90174 -9.99632
-3.03921 5.82242 -9.99768
-3.10915 5.74311 -9.99905
-3.17909 5.66379 -10.0004
-3.24904 5.58448 -10.0018
-3.31898 5.50516 -10.0031
-3.38892 5.42585 -10.0045
-3.45887 5.34654 -10.0059
-3.52881 5.26722 -10.0072
-3.51825 5.12544 -10.011
-3.58819 5.04612 -10.0124
-3.65814 4.96681 -10.0138
-3.72808 4.8875 -10.0151
-3.71752 4.74571 -10.0189
-3.78746 4.6664 -10.0203
-3.7769 4.52462 -10.0241
-3.84684 4.44531 -10.0255
-3.83628 4.30352 -10.0292
-3.90622 4.22421 -10.0306
-3.97617 4.1449 -10.032
-4.04611 4.06558 -10.0333
-4.03555 3.9238 -10.0371
-4.02499 3.78202 -10.0409
-4.76017 2.7762 -10.0277
-4.78109 2.67254 -10.0291
-4.90295 2.58272 -10.028
-4.92387 2.47906 -10.0294
-4.94478 2.3754 -10.0307
-5.06665 2.28559 -10.0297
-5.08757 2.18193 -10.031
-5.10848 2.07827 -10.0324
-5.1294 1.97461 -10.0338
-5.15031 1.87094 -10.0351
-5.17123 1.76728 -10.0365
-5.19214 1.66363 -10.0379
-5.1121 1.54612 -10.0417
-5.13302 1.44246 -10.043
-5.15393 1.3388 -10.0444
-5.17485 1.23514 -10.0458
-5.19576 1.13148 -10.0471
-5.21668 1.02782 -10.0485
-5.23759 0.92416 -10.0499
-5.25851 0.820499 -10.0512
-5.27942 0.716839 -10.0526
-5.30034 0.613179 -10.054
-5.22031 0.495675 -10.0577
-5.24122 0.392015 -10.0591
-5.26214 0.288356 -10.0605
-5.28305 0.184695 -10.0618
-5.30397 0.0810357 -10.0632
-5.32488 -0.0226257 -10.0646
-5.24485 -0.140129 -10.0684
-5.26576 -0.243791 -10.0697
-5.28667 -0.347449 -10.0711
-5.30759 -0.45111 -10.0725
-5.32851 -0.55477 -10.0738
-5.34942 -0.658429 -10.0752
-5.37033 -0.762091 -10.0766
-5.39125 -0.865751 -10.0779
-5.31121 -0.983257 -10.0817
-5.33213 -1.08692 -10.0831
-5.35304 -1.19058 -10.0844
-5.37395 -1.29424 -10.0858
-5.39487 -1.3979 -10.0872
-5.31484 -1.5154 -10.091
-5.33575 -1.61906 -10.0923
-5.35667 -1.72272 -10.0937
-5.37758 -1.82638 -10.0951
-5.29754 -1.94389 -10.0988
-5.31846 -2.04755 -10.1002
-5.23842 -2.16505 -10.104
-5.15838 -2.28256 -10.1078
-4.9774 -2.4139 -10.114
-4.99831 -2.51756 -10.1154
-5.45699 2.09772 -10.0201
-5.51762 1.959 -10.019
-5.48391 1.85877 -10.0204
-5.45019 1.75854 -10.0217
-5.41647 1.65831 -10.0231
-5.38275 1.55808 -10.0245
-5.44339 1.41937 -10.0234
-5.69272 1.20368 -10.0175
-5.8477 1.02647 -10.014
-5.90833 0.887761 -10.013
-5.87461 0.787529 -10.0143
-5.93525 0.648812 -10.0133
-5.90153 0.548583 -10.0146
-5.86781 0.448351 -10.016
-6.02279 0.27115 -10.0125
-6.08342 0.132433 -10.0115
-6.04971 0.0322034 -10.0128
-6.11034 -0.106512 -10.0118
-6.07662 -0.206743 -10.0132
-6.13725 -0.345458 -10.0121
-6.10354 -0.44569 -10.0135
-6.16417 -0.584404 -10.0124
-6.13045 -0.684636 -10.0138
-6.09674 -0.784866 -10.0151
-6.06302 -0.885093 -10.0165
-6.0293 -0.985325 -10.0179
-5.99558 -1.08555 -10.0192
-5.96187 -1.18579 -10.0206
-5.92815 -1.28601 -10.022
-5.98878 -1.42473 -10.0209
-5.95507 -1.52496 -10.0223
-5.92135 -1.62519 -10.0236
-5.88763 -1.72542 -10.025
-5.85391 -1.82565 -10.0264
-5.8202 -1.92588 -10.0277
-5.78648 -2.02611 -10.0291
-5.75276 -2.12634 -10.0305
-5.71905 -2.22657 -10.0318
-5.68533 -2.3268 -10.0332
-5.65161 -2.42703 -10.0346
-5.6179 -2.52726 -10.0359
-5.58418 -2.62749 -10.0373
-5.55046 -2.72772 -10.0387
-5.51674 -2.82795 -10.04
-5.48303 -2.92818 -10.0414
-5.44931 -3.02841 -10.0428
-5.41559 -3.12864 -10.0441
-5.38187 -3.22887 -10.0455
-5.34816 -3.3291 -10.0469
-5.31444 -3.42933 -10.0482
-5.28073 -3.52956 -10.0496
-5.24701 -3.62979 -10.051
-5.11894 -3.69153 -10.0547
-5.08523 -3.79176 -10.0561
-5.05151 -3.89199 -10.0575
-5.01779 -3.99222 -10.0589
-4.98408 -4.09245 -10.0602
-4.95036 -4.19268 -10.0616
-4.91664 -4.29291 -10.0629
-4.88292 -4.39314 -10.0643
-4.84921 -4.49337 -10.0657
-4.81549 -4.5936 -10.067
-4.68742 -4.65534 -10.0708
-4.65371 -4.75558 -10.0722
-4.61999 -4.85581 -10.0736
-4.49193 -4.91755 -10.0774
-4.36386 -4.97929 -10.0811
-4.33014 -5.07952 -10.0825
-4.20208 -5.14127 -10.0863
-4.16836 -5.2415 -10.0877
-4.13464 -5.34173 -10.089
-4.10092 -5.44196 -10.0904
-4.06721 -5.54219 -10.0918
-3.93914 -5.60393 -10.0956
-3.81108 -5.66567 -10.0993
-3.68301 -5.72742 -10.1031
-3.64929 -5.82764 -10.1045
-3.52123 -5.88939 -10.1083
-3.48751 -5.98962 -10.1096
-3.45379 -6.08985 -10.111
-3.32573 -6.15159 -10.1148
-3.29201 -6.25182 -10.1162
-3.25829 -6.35205 -10.1175
-3.22458 -6.45228 -10.1189
-3.09651 -6.51403 -10.1227
-3.06279 -6.61426 -10.1241
-3.02907 -6.71449 -10.1254
-2.90101 -6.77623 -10.1292
-2.86729 -6.87646 -10.1306
-2.73923 -6.9382 -10.1344
-2.70551 -7.03843 -10.1357
-2.57744 -7.10018 -10.1395
-2.44938 -7.16192 -10.1433
-2.32131 -7.22366 -10.1471
-2.2876 -7.32389 -10.1485
-2.15953 -7.38564 -10.1523
-2.12581 -7.48587 -10.1536
-2.09209 -7.5861 -10.155
-2.05838 -7.68633 -10.1564
-2.02466 -7.78656 -10.1577
-1.89659 -7.8483 -10.1615
-1.86288 -7.94853 -10.1629
-1.73481 -8.01027 -10.1667
-1.60675 -8.07202 -10.1705
-1.38433 -8.09527 -10.1767
-6.20215 -2.83994 -9.98979
-6.1853 -2.99039 -9.98874
-6.10598 -3.06033 -9.99011
-6.08914 -3.21078 -9.98904
-6.00982 -3.28072 -9.99042
-5.93051 -3.35067 -9.99178
-5.91365 -3.50111 -9.99072
-5.83434 -3.57106 -9.9921
-5.75503 -3.641 -9.99345
-5.73818 -3.79145 -9.9924
-5.65886 -3.86139 -9.99377
-5.57955 -3.93133 -9.99513
-5.5627 -4.08178 -9.99408
-5.48338 -4.15172 -9.99544
-5.40407 -4.22167 -9.99681
-5.32476 -4.29161 -9.99817
-5.24544 -4.36155 -9.99954
-5.22859 -4.512 -9.99849
-5.14928 -4.58195 -9.99985
-5.06996 -4.65189 -10.0012
-4.99064 -4.72183 -10.0026
-4.91133 -4.79177 -10.004
-4.83202 -4.86172 -10.0053
-4.81517 -5.01217 -10.0043
-4.73585 -5.08211 -10.0056
-4.65654 -5.15205 -10.007
-4.63969 -5.3025 -10.0059
-4.56038 -5.37244 -10.0073
-4.48106 -5.44239 -10.0087
-4.40175 -5.51233 -10.01
-4.38489 -5.66278 -10.009
-4.30558 -5.73272 -10.0103
-4.22627 -5.80266 -10.0117
-4.14695 -5.87261 -10.0131
-4.06764 -5.94255 -10.0144
-3.98832 -6.01249 -10.0158
-3.90901 -6.08243 -10.0172
-3.82969 -6.15238 -10.0185
-3.81285 -6.30283 -10.0175
-3.73353 -6.37277 -10.0188
-3.71668 -6.52322 -10.0178
-3.63736 -6.59316 -10.0191
-3.55805 -6.6631 -10.0205
-3.5412 -6.81355 -10.0195
-3.46188 -6.88349 -10.0208
-3.38257 -6.95344 -10.0222
-3.36572 -7.10389 -10.0211
-3.28641 -7.17383 -10.0225
-3.2071 -7.24378 -10.0239
-3.19024 -7.39422 -10.0228
-3.11093 -7.46416 -10.0242
-3.03161 -7.53411 -10.0255
-2.9523 -7.60405 -10.0269
-2.87299 -7.67399 -10.0283
-2.79367 -7.74393 -10.0296
-2.71436 -7.81388 -10.031
-2.63504 -7.88382 -10.0324
-2.55573 -7.95376 -10.0337
-2.47641 -8.02371 -10.0351
-2.3971 -8.09365 -10.0365
-2.31778 -8.16359 -10.0378
-2.23847 -8.23354 -10.0392
-2.15915 -8.30348 -10.0406
-2.1423 -8.45393 -10.0395
-2.06299 -8.52387 -10.0409
-1.98368 -8.59382 -10.0422
-1.90436 -8.66376 -10.0436
-1.82505 -8.7337 -10.045
-1.74573 -8.80364 -10.0463
-1.66642 -8.87359 -10.0477
-1.5871 -8.94353 -10.0491
-1.50779 -9.01348 -10.0504
-1.42847 -9.08342 -10.0518
-1.34916 -9.15336 -10.0532
-1.26984 -9.2233 -10.0545
-1.19053 -9.29325 -10.0559
-1.11121 -9.36319 -10.0573
-1.0319 -9.43313 -10.0586
-0.952584 -9.50308 -10.06
-0.87327 -9.57302 -10.0614
-0.793956 -9.64296 -10.0627
-0.714641 -9.71291 -10.0641
-0.635325 -9.78285 -10.0655
-0.55601 -9.85279 -10.0668
-0.476697 -9.92274 -10.0682
-0.397384 -9.99268 -10.0696
-0.318068 -10.0626 -10.0709
-0.238752 -10.1326 -10.0723
-0.159437 -10.2025 -10.0737
-0.0801229 -10.2725 -10.075
-0.000809193 -10.3424 -10.0764
0.0785046 -10.4123 -10.0778
0.157821 -10.4823 -10.0791
0.237136 -10.5522 -10.0805
0.31645 -10.6222 -10.0819
0.395764 -10.6921 -10.0832
0.475081 -10.7621 -10.0846
0.616861 -10.7515 -10.0884
0.696177 -10.8214 -10.0898
0.77549 -10.8914 -10.0911
0.854804 -10.9613 -10.0925
0.934122 -11.0313 -10.0938
1.01344 -11.1012 -10.0952
1.09275 -11.1711 -10.0966
1.17206 -11.2411 -10.0979
1.25138 -11.311 -10.0993
1.3307 -11.381 -10.1007
1.41001 -11.4509 -10.102
1.55179 -11.4404 -10.1058
1.6311 -11.5103 -10.1072
1.71042 -11.5803 -10.1086
1.8522 -11.5697 -10.1124
1.93151 -11.6396 -10.1137
2.07329 -11.6291 -10.1175
2.15261 -11.699 -10.1189
2.23192 -11.769 -10.1202
2.3737 -11.7584 -10.124
2.45301 -11.8283 -10.1254
2.5948 -11.8178 -10.1292
2.79904 -11.7267 -10.1354
2.94082 -11.7161 -10.1392
3.02014 -11.7861 -10.1405
3.16192 -11.7755 -10.1443
3.24123 -11.8455 -10.1457
3.38301 -11.8349 -10.1495
3.52479 -11.8243 -10.1533
3.66657 -11.8138 -10.1571
3.80835 -11.8032 -10.1609
4.0126 -11.7122 -10.1671
4.15438 -11.7016 -10.1709
