ply
format ascii 1.0
comment VCGLIB generated
element vertex 1137
property float x
property float y
property float z
element face 0
property list uchar int vertex_indices
end_header
3.917 -12.5149 -8.81506
4.14795 -12.5605 -8.81158
4.2179 -12.4812 -8.81294
4.36834 -12.4643 -8.81189
4.51879 -12.4475 -8.81084
4.74974 -12.4931 -8.80736
4.90019 -12.4762 -8.80629
5.05064 -12.4594 -8.80524
5.20109 -12.4425 -8.80418
5.35153 -12.4257 -8.80312
5.50198 -12.4088 -8.80206
5.57193 -12.3295 -8.80344
5.64187 -12.2502 -8.80479
5.71181 -12.1709 -8.80617
5.78176 -12.0916 -8.80753
5.9322 -12.0747 -8.80647
6.32416 -12.2453 -8.79814
6.47461 -12.2284 -8.79709
6.54455 -12.1491 -8.79846
6.6145 -12.0698 -8.79982
6.76495 -12.0529 -8.79877
6.83489 -11.9736 -8.80013
6.90484 -11.8943 -8.8015
6.97478 -11.815 -8.80286
7.04472 -11.7357 -8.80423
7.19517 -11.7188 -8.80318
7.26511 -11.6395 -8.80453
7.41556 -11.6227 -8.80348
7.4855 -11.5434 -8.80484
7.55545 -11.464 -8.80621
7.70589 -11.4472 -8.80516
7.77584 -11.3679 -8.80652
7.84578 -11.2886 -8.80789
7.91572 -11.2093 -8.80925
7.98567 -11.1299 -8.81062
8.05561 -11.0506 -8.81198
8.12555 -10.9713 -8.81335
8.276 -10.9545 -8.81229
8.34594 -10.8751 -8.81366
8.41588 -10.7958 -8.81503
8.48583 -10.7165 -8.81639
8.63628 -10.6997 -8.81534
8.70622 -10.6203 -8.8167
8.77616 -10.541 -8.81807
8.84611 -10.4617 -8.81943
8.99655 -10.4449 -8.81837
9.0665 -10.3656 -8.81975
9.21694 -10.3487 -8.81868
9.28689 -10.2694 -8.82005
9.43734 -10.2525 -8.819
9.50728 -10.1732 -8.82036
9.65773 -10.1564 -8.81931
9.80818 -10.1395 -8.81824
9.87812 -10.0602 -8.81961
10.0286 -10.0434 -8.81856
10.0985 -9.96405 -8.81992
10.1685 -9.88474 -8.82129
10.3189 -9.86789 -8.82024
10.3888 -9.78857 -8.82159
10.4588 -9.70926 -8.82297
10.6092 -9.69241 -8.8219
10.6792 -9.61309 -8.82327
10.8296 -9.59625 -8.82222
10.9801 -9.5794 -8.82115
11.05 -9.50008 -8.82253
11.2005 -9.48323 -8.82146
11.2704 -9.40392 -8.82283
11.3404 -9.3246 -8.8242
11.4103 -9.24529 -8.82556
11.5607 -9.22844 -8.82451
11.6307 -9.14913 -8.82587
11.7006 -9.06981 -8.82724
11.8511 -9.05296 -8.82619
11.921 -8.97365 -8.82755
11.991 -8.89433 -8.82892
12.0609 -8.81502 -8.83028
12.2114 -8.79817 -8.82922
12.2813 -8.71885 -8.83058
12.3512 -8.63954 -8.83195
12.4212 -8.56023 -8.83331
12.4911 -8.48091 -8.83469
12.5611 -8.4016 -8.83604
12.631 -8.32228 -8.83742
12.701 -8.24297 -8.83878
12.7709 -8.16365 -8.84015
12.8408 -8.08434 -8.84152
12.9108 -8.00502 -8.84288
12.9807 -7.92571 -8.84425
13.0507 -7.84639 -8.84561
13.0401 -7.70461 -8.8494
13.1101 -7.6253 -8.85077
13.18 -7.54598 -8.85213
13.2499 -7.46667 -8.8535
13.2394 -7.32489 -8.85728
13.3093 -7.24558 -8.85866
13.2988 -7.10379 -8.86244
13.3687 -7.02448 -8.86382
13.3581 -6.8827 -8.8676
13.4281 -6.80338 -8.86897
13.498 -6.72407 -8.87033
13.568 -6.64475 -8.8717
13.5574 -6.50298 -8.87549
13.6274 -6.42366 -8.87685
13.6168 -6.28188 -8.88065
13.5257 -6.07763 -8.88686
13.5152 -5.93585 -8.89064
13.5046 -5.79407 -8.89444
13.5745 -5.71476 -8.8958
13.4835 -5.51051 -8.90201
13.3924 -5.30627 -8.90822
12.9793 -4.85216 -8.92413
12.9688 -4.71038 -8.92792
12.9582 -4.5686 -8.9317
12.9476 -4.42682 -8.9355
12.6956 -4.09764 -8.94655
12.7655 -4.01833 -8.94792
12.7549 -3.87655 -8.95171
12.7444 -3.73477 -8.95551
12.3313 -3.28066 -8.97141
12.3207 -3.13888 -8.97519
12.3102 -2.9971 -8.97899
12.2996 -2.85532 -8.98277
12.2891 -2.71354 -8.98656
12.2785 -2.57176 -8.99036
12.2679 -2.42997 -8.99414
12.2574 -2.2882 -8.99792
12.1663 -2.08395 -9.00414
7.22599 -11.6366 -8.81906
7.44881 -11.5607 -8.81558
7.57067 -11.4708 -8.81453
7.69254 -11.381 -8.81346
7.81441 -11.2912 -8.81241
7.83532 -11.1875 -8.81378
7.95719 -11.0977 -8.81271
7.97811 -10.9941 -8.81409
8.20093 -10.9181 -8.81061
8.42374 -10.8421 -8.80713
8.64656 -10.7662 -8.80365
8.76843 -10.6763 -8.80258
8.78935 -10.5727 -8.80396
9.01217 -10.4967 -8.80048
9.13403 -10.4069 -8.79941
9.25589 -10.3171 -8.79836
9.37777 -10.2273 -8.7973
9.49963 -10.1374 -8.79625
9.6215 -10.0476 -8.79518
9.84432 -9.97166 -8.7917
10.0671 -9.89569 -8.78822
10.189 -9.80587 -8.78717
10.3109 -9.71606 -8.78612
10.5337 -9.64009 -8.78264
10.6556 -9.55027 -8.78157
10.7774 -9.46045 -8.78052
10.7983 -9.35679 -8.78189
11.425 -9.3362 -8.76871
11.5468 -9.24638 -8.76765
11.5677 -9.14272 -8.76903
11.6896 -9.05291 -8.76796
11.8115 -8.96309 -8.76691
12.0343 -8.88712 -8.76343
12.1562 -8.79731 -8.76237
12.278 -8.70749 -8.76131
12.299 -8.60383 -8.76268
12.4208 -8.51401 -8.76163
12.4417 -8.41035 -8.76299
12.5636 -8.32054 -8.76193
12.5845 -8.21688 -8.76329
12.7064 -8.12706 -8.76224
12.8282 -8.03724 -8.76118
12.8492 -7.93359 -8.76254
12.971 -7.84377 -8.76149
12.9919 -7.74011 -8.76286
13.1138 -7.65029 -8.7618
13.1347 -7.54663 -8.76317
13.1556 -7.44297 -8.76453
13.2775 -7.35316 -8.76347
13.2984 -7.2495 -8.76485
13.4203 -7.15968 -8.76378
13.4412 -7.05602 -8.76515
13.4621 -6.95236 -8.76651
13.483 -6.8487 -8.76788
13.6049 -6.75888 -8.76683
13.6258 -6.65522 -8.76819
13.6467 -6.55156 -8.76956
13.6677 -6.4479 -8.77092
13.7895 -6.35809 -8.76987
13.8104 -6.25443 -8.77122
13.8313 -6.15077 -8.7726
13.8523 -6.04711 -8.77396
13.8732 -5.94345 -8.77533
13.8941 -5.83979 -8.77669
13.8141 -5.72228 -8.78049
13.835 -5.61862 -8.78185
13.7549 -5.50112 -8.78564
13.6749 -5.38361 -8.78943
13.6958 -5.27995 -8.79079
13.6158 -5.16245 -8.79459
13.5357 -5.04495 -8.79837
13.5567 -4.94129 -8.79974
13.4766 -4.82378 -8.80353
13.3966 -4.70628 -8.80731
13.4175 -4.60262 -8.80869
13.3375 -4.48511 -8.81247
13.2574 -4.36761 -8.81625
13.1774 -4.2501 -8.82005
13.0973 -4.1326 -8.82384
13.0173 -4.01509 -8.82762
13.0382 -3.91143 -8.82899
13.0591 -3.80777 -8.83037
12.9791 -3.69027 -8.83415
13 -3.58661 -8.83551
13.0209 -3.48295 -8.83688
13.0419 -3.37929 -8.83824
13.0628 -3.27563 -8.83961
12.9827 -3.15812 -8.8434
13.0036 -3.05446 -8.84477
12.9236 -2.93696 -8.84856
12.8436 -2.81945 -8.85234
12.8645 -2.7158 -8.85371
12.7845 -2.59829 -8.8575
12.7044 -2.48079 -8.8613
12.6244 -2.36328 -8.86508
12.6453 -2.25962 -8.86644
12.5653 -2.14212 -8.87024
12.5862 -2.03846 -8.8716
12.6071 -1.9348 -8.87297
12.5271 -1.81729 -8.87675
12.447 -1.69979 -8.88054
12.4679 -1.59613 -8.88191
12.4888 -1.49247 -8.88329
12.4088 -1.37496 -8.88707
12.4297 -1.2713 -8.88843
12.3497 -1.1538 -8.89223
12.3706 -1.05014 -8.89359
12.2906 -0.932632 -8.89738
12.2105 -0.815128 -8.90117
12.2314 -0.711466 -8.90253
12.1514 -0.593965 -8.90633
12.0714 -0.476458 -8.91011
11.9913 -0.358954 -8.91389
11.9113 -0.241452 -8.91769
11.9322 -0.13779 -8.91905
11.8522 -0.0202839 -8.92285
11.8731 0.0833757 -8.92421
11.793 0.200879 -8.92799
11.814 0.304538 -8.92937
11.7339 0.422044 -8.93315
11.7548 0.525704 -8.93452
11.7758 0.629365 -8.93588
11.6957 0.746868 -8.93968
11.7166 0.850528 -8.94104
11.7376 0.95419 -8.94241
11.7585 1.05785 -8.94377
11.7794 1.16151 -8.94514
11.6993 1.27901 -8.94893
11.7203 1.38267 -8.9503
11.7412 1.48633 -8.95166
11.6611 1.60384 -8.95544
11.6821 1.7075 -8.95682
11.703 1.81116 -8.95818
11.6229 1.92866 -8.96198
11.6438 2.03233 -8.96333
11.5638 2.14983 -8.96713
11.5847 2.25349 -8.96849
11.6056 2.35715 -8.96986
11.5256 2.47465 -8.97365
11.5465 2.57831 -8.97501
11.5674 2.68197 -8.97638
11.4874 2.79948 -8.98016
11.4074 2.91698 -8.98396
11.4283 3.02064 -8.98532
11.3482 3.13815 -8.98912
11.2682 3.25565 -8.9929
11.1882 3.37316 -8.99669
11.1081 3.49066 -9.00049
11.129 3.59432 -9.00185
11.15 3.69798 -9.00322
11.1709 3.80164 -9.00458
11.0908 3.91914 -9.00836
11.1118 4.0228 -9.00974
11.0317 4.14031 -9.01352
10.9517 4.25781 -9.01732
10.8716 4.37532 -9.0211
10.7916 4.49282 -9.02489
10.8125 4.59648 -9.02626
10.7325 4.71399 -9.03004
10.7534 4.81765 -9.03142
10.6734 4.93515 -9.0352
10.6943 5.03881 -9.03656
10.5133 5.17016 -9.04279
10.3323 5.30151 -9.049
10.2523 5.41901 -9.05278
10.2732 5.52267 -9.05415
10.2941 5.62634 -9.05551
10.2141 5.74384 -9.0593
10.235 5.8475 -9.06067
10.1549 5.965 -9.06445
10.0749 6.08251 -9.06825
9.89391 6.21386 -9.07446
9.81387 6.33136 -9.07825
9.63288 6.46271 -9.08446
12.8381 -8.09156 -8.79099
13.1818 -7.83739 -8.78267
13.3368 -7.66018 -8.77919
13.3974 -7.52147 -8.77812
13.5524 -7.34427 -8.77464
13.8017 -7.12858 -8.76874
13.8623 -6.98986 -8.76768
13.8286 -6.88963 -8.76906
13.8892 -6.75091 -8.76799
13.9499 -6.6122 -8.76694
14.0105 -6.47348 -8.76588
14.0711 -6.33477 -8.76483
14.0374 -6.23454 -8.76619
14.0981 -6.09582 -8.76514
14.1587 -5.9571 -8.76408
14.125 -5.85687 -8.76544
14.1856 -5.71816 -8.76439
14.1519 -5.61793 -8.76575
14.1182 -5.5177 -8.76712
14.0844 -5.41747 -8.76848
14.0507 -5.31724 -8.76985
14.017 -5.21701 -8.77121
13.9833 -5.11678 -8.77258
13.9496 -5.01655 -8.77396
13.9159 -4.91632 -8.77531
13.8821 -4.81609 -8.77669
13.8484 -4.71586 -8.77805
13.8147 -4.61563 -8.77942
13.781 -4.5154 -8.78078
13.7473 -4.41517 -8.78215
13.7136 -4.31494 -8.78351
13.6798 -4.21471 -8.78488
13.6461 -4.11448 -8.78624
13.6124 -4.01425 -8.78761
13.5787 -3.91402 -8.78897
13.545 -3.81379 -8.79034
13.5113 -3.71356 -8.7917
13.4775 -3.61333 -8.79308
13.4438 -3.5131 -8.79443
13.5045 -3.37438 -8.79338
13.4707 -3.27415 -8.79475
13.437 -3.17392 -8.79611
13.4033 -3.07369 -8.79749
13.3696 -2.97346 -8.79884
13.3359 -2.87323 -8.80022
13.3022 -2.773 -8.80157
13.2684 -2.67277 -8.80295
13.2347 -2.57254 -8.80431
13.201 -2.47231 -8.80568
13.1673 -2.37208 -8.80704
13.1336 -2.27185 -8.80841
13.0999 -2.17162 -8.80977
13.0661 -2.07139 -8.81114
13.0324 -1.97116 -8.8125
12.9987 -1.87093 -8.81387
13.0593 -1.73222 -8.81282
13.0256 -1.63199 -8.81418
12.9919 -1.53176 -8.81555
12.9582 -1.43153 -8.81691
12.8301 -1.36978 -8.82071
12.7964 -1.26955 -8.82207
12.7627 -1.16932 -8.82344
12.729 -1.06909 -8.8248
12.6953 -0.968863 -8.82617
12.6615 -0.868635 -8.82753
12.6278 -0.768405 -8.8289
12.5941 -0.668174 -8.83026
12.5604 -0.567944 -8.83163
12.5267 -0.467714 -8.83299
12.5873 -0.329 -8.83194
12.5536 -0.228769 -8.8333
12.5199 -0.12854 -8.83467
12.4861 -0.0283093 -8.83604
12.4524 0.0719209 -8.8374
12.4187 0.172149 -8.83878
12.385 0.27238 -8.84013
12.3513 0.372611 -8.84151
12.3176 0.47284 -8.84286
12.2838 0.57307 -8.84424
12.2501 0.673299 -8.8456
12.2164 0.77353 -8.84697
12.1827 0.87376 -8.84833
12.149 0.97399 -8.8497
12.1153 1.07422 -8.85106
12.0815 1.17445 -8.85243
12.0478 1.27468 -8.85379
12.0141 1.37491 -8.85516
12.0747 1.51363 -8.85411
12.041 1.61386 -8.85547
12.0073 1.71409 -8.85684
11.9736 1.81432 -8.8582
11.9399 1.91455 -8.85957
12.0005 2.05326 -8.85851
11.9668 2.15349 -8.85988
11.9331 2.25372 -8.86124
11.8994 2.35395 -8.86261
11.8656 2.45418 -8.86397
11.8319 2.55441 -8.86534
11.7982 2.65464 -8.86671
11.7645 2.75487 -8.86807
11.7308 2.8551 -8.86945
11.6971 2.95533 -8.8708
11.6633 3.05556 -8.87218
11.724 3.19428 -8.87111
11.6902 3.29451 -8.87248
11.6565 3.39474 -8.87384
11.6228 3.49497 -8.87521
11.5891 3.5952 -8.87657
11.5554 3.69542 -8.87794
11.616 3.83414 -8.87689
11.5823 3.93437 -8.87825
11.5486 4.0346 -8.87962
11.5149 4.13483 -8.88098
11.4811 4.23506 -8.88235
11.4474 4.33529 -8.88371
11.4137 4.43552 -8.88509
11.38 4.53575 -8.88644
11.4406 4.67447 -8.88539
11.4069 4.7747 -8.88676
11.3732 4.87493 -8.88812
11.3395 4.97516 -8.8895
11.3058 5.07539 -8.89085
11.272 5.17562 -8.89223
11.2383 5.27585 -8.89359
11.2046 5.37608 -8.89496
11.1709 5.47631 -8.89632
11.1372 5.57654 -8.89769
11.1035 5.67677 -8.89905
11.0697 5.777 -8.90042
10.9417 5.83874 -8.90421
10.908 5.93897 -8.90558
10.7799 6.00072 -8.90936
10.7462 6.10094 -8.91074
10.7125 6.20117 -8.91209
10.5844 6.26292 -8.91588
10.5507 6.36315 -8.91725
10.517 6.46338 -8.91861
10.4832 6.56361 -8.91998
10.4495 6.66384 -8.92134
10.3215 6.72558 -8.92514
10.2877 6.82581 -8.9265
10.1597 6.88755 -8.9303
9.93726 6.91081 -8.93651
9.80919 6.97256 -8.94029
9.68113 7.0343 -8.94408
9.55306 7.09604 -8.94788
9.51934 7.19627 -8.94923
9.29692 7.21953 -8.95544
9.26321 7.31976 -8.95682
9.13515 7.38151 -8.9606
9.00708 7.44325 -8.9644
8.87901 7.50499 -8.96819
8.75095 7.56673 -8.97197
8.71723 7.66697 -8.97334
8.68352 7.7672 -8.9747
8.55544 7.82894 -8.9785
8.42738 7.89068 -8.98228
8.29931 7.95242 -8.98607
8.17125 8.01417 -8.98987
8.04318 8.07591 -8.99365
7.91511 8.13765 -8.99744
13.8838 -4.47639 -8.86288
13.8669 -4.32594 -8.86183
13.7876 -4.256 -8.8632
13.7083 -4.18605 -8.86456
13.8788 -3.79409 -8.85623
13.9869 -3.48264 -8.85034
13.9076 -3.41269 -8.8517
13.8908 -3.26224 -8.85065
13.8114 -3.1923 -8.85201
13.7321 -3.12236 -8.85338
13.6528 -3.05241 -8.85474
13.636 -2.90197 -8.85368
13.5566 -2.83202 -8.85506
13.5398 -2.68157 -8.85399
13.4605 -2.61163 -8.85536
13.5061 -2.38068 -8.85188
13.4892 -2.23023 -8.85083
13.4099 -2.16029 -8.85219
13.3931 -2.00984 -8.85114
13.3138 -1.9399 -8.85249
13.2345 -1.86996 -8.85387
13.2176 -1.71951 -8.85281
13.1383 -1.64956 -8.85417
13.1214 -1.49911 -8.85312
13.1046 -1.34867 -8.85205
13.0253 -1.27873 -8.85342
12.946 -1.20878 -8.8548
12.9291 -1.05833 -8.85373
12.8498 -0.988388 -8.8551
12.7705 -0.918444 -8.85646
12.7536 -0.767999 -8.85541
12.7368 -0.617551 -8.85435
12.6575 -0.547607 -8.85571
12.6406 -0.397159 -8.85466
12.6862 -0.166203 -8.85118
12.6694 -0.0157599 -8.85013
12.5901 0.054183 -8.85149
12.5732 0.204632 -8.85043
12.4939 0.274575 -8.85179
12.4771 0.425024 -8.85074
12.3977 0.494967 -8.85211
12.3809 0.645413 -8.85104
12.3016 0.715357 -8.85242
12.2223 0.7853 -8.85378
12.1429 0.855241 -8.85515
12.1261 1.00569 -8.8541
12.2342 1.31715 -8.84819
12.2173 1.4676 -8.84714
12.138 1.53754 -8.8485
12.1212 1.68799 -8.84744
12.0419 1.75793 -8.8488
11.9625 1.82788 -8.85017
11.9457 1.97832 -8.84912
11.8664 2.04827 -8.85048
11.8495 2.19871 -8.84943
11.9576 2.51017 -8.84352
12.0032 2.74113 -8.84004
11.9864 2.89157 -8.83899
11.9071 2.96151 -8.84035
11.8902 3.11196 -8.83929
11.8109 3.18191 -8.84065
11.794 3.33236 -8.8396
11.7147 3.4023 -8.84097
11.6979 3.55274 -8.8399
11.681 3.70319 -8.83885
11.6642 3.85364 -8.8378
11.6473 4.00409 -8.83673
11.6305 4.15454 -8.83568
11.5512 4.22448 -8.83705
11.5343 4.37493 -8.83598
11.455 4.44487 -8.83736
11.4382 4.59532 -8.8363
11.4213 4.74577 -8.83524
11.4045 4.89622 -8.83418
11.3876 5.04666 -8.83313
11.3083 5.11661 -8.83449
11.2914 5.26705 -8.83344
11.2121 5.337 -8.83481
11.1953 5.48744 -8.83374
11.116 5.55739 -8.83511
11.0991 5.70784 -8.83406
11.0823 5.85829 -8.83299
11.003 5.92823 -8.83437
10.9861 6.07867 -8.8333
10.9068 6.14862 -8.83467
10.8275 6.21856 -8.83604
10.7482 6.2885 -8.8374
10.6688 6.35845 -8.83878
10.652 6.5089 -8.83771
10.5727 6.57884 -8.83908
10.4934 6.64878 -8.84044
10.539 6.87973 -8.83696
10.5221 7.03018 -8.83591
10.4428 7.10013 -8.83728
10.3635 7.17007 -8.83864
10.3467 7.32052 -8.83759
10.2673 7.39046 -8.83894
10.188 7.4604 -8.84032
10.1087 7.53035 -8.84167
9.96693 7.51979 -8.84547
9.88762 7.58973 -8.84683
9.8083 7.65967 -8.84821
9.72899 7.72961 -8.84956
9.5872 7.71905 -8.85336
9.50789 7.78899 -8.85472
9.42858 7.85894 -8.85609
9.2868 7.84838 -8.85988
9.20748 7.91832 -8.86124
9.12817 7.98827 -8.86261
9.04885 8.05821 -8.86397
8.96954 8.12815 -8.86534
8.89022 8.19809 -8.86671
8.74844 8.18753 -8.8705
8.66913 8.25748 -8.87186
8.58981 8.32742 -8.87323
8.5105 8.39736 -8.87459
8.43118 8.4673 -8.87596
8.2894 8.45674 -8.87975
8.21009 8.52669 -8.88112
8.13077 8.59663 -8.88248
8.05146 8.66657 -8.88385
7.90968 8.65601 -8.88763
7.83037 8.72596 -8.88901
7.75105 8.7959 -8.89037
7.67174 8.86584 -8.89174
7.52995 8.85528 -8.89552
7.45064 8.92522 -8.8969
7.37132 8.99516 -8.89825
7.22954 8.9846 -8.90204
7.08776 8.97404 -8.90584
6.94598 8.96348 -8.90962
6.8042 8.95292 -8.91341
6.66242 8.94236 -8.91721
6.45818 8.85129 -8.92342
6.3164 8.84073 -8.9272
6.23708 8.91067 -8.92857
6.0953 8.90011 -8.93236
6.01599 8.97006 -8.93373
5.87421 8.95949 -8.93752
5.79489 9.02943 -8.93887
5.65311 9.01887 -8.94267
5.57379 9.08882 -8.94403
5.43202 9.07825 -8.94783
5.29024 9.06769 -8.95161
4.89859 8.73511 -8.96509
4.81928 8.80505 -8.96646
4.73996 8.875 -8.96782
4.59818 8.86444 -8.97162
4.51887 8.93438 -8.97298
4.37709 8.92382 -8.97678
4.23531 8.91326 -8.98056
4.03106 8.82219 -8.98677
10.9245 5.91724 -8.85982
10.8347 6.0391 -8.85876
10.7587 6.26193 -8.85527
10.6689 6.38379 -8.85422
10.6345 6.90946 -8.84348
10.5447 7.03133 -8.84241
10.441 7.05225 -8.84378
10.3512 7.17412 -8.84273
10.2475 7.19503 -8.84409
10.1439 7.21594 -8.84546
10.0402 7.23686 -8.84682
9.93653 7.25778 -8.84819
9.83287 7.27869 -8.84955
9.72921 7.29961 -8.85092
9.62555 7.32052 -8.85228
9.52189 7.34144 -8.85365
9.43208 7.4633 -8.8526
9.34226 7.58517 -8.85153
9.32167 8.2118 -8.83836
9.23185 8.33366 -8.83731
9.12819 8.35458 -8.83867
9.03837 8.47645 -8.83762
8.93472 8.49736 -8.83899
8.8449 8.61923 -8.83792
8.74124 8.64014 -8.83929
8.65142 8.76201 -8.83823
8.54776 8.78293 -8.8396
8.4441 8.80384 -8.84097
8.34044 8.82475 -8.84233
8.23678 8.84567 -8.8437
8.13312 8.86659 -8.84506
8.02946 8.8875 -8.84644
7.93965 9.00937 -8.84537
7.83599 9.03028 -8.84674
7.74617 9.15215 -8.84569
7.64251 9.17306 -8.84705
7.53885 9.19398 -8.84842
7.43519 9.2149 -8.84978
7.33153 9.23581 -8.85115
7.24171 9.35768 -8.85008
7.13805 9.37859 -8.85146
7.02055 9.29856 -8.85524
6.91689 9.31947 -8.85661
6.81323 9.34038 -8.85797
6.70957 9.3613 -8.85934
6.60591 9.38222 -8.8607
6.50225 9.40313 -8.86208
6.39859 9.42404 -8.86343
6.28108 9.34401 -8.86723
6.17742 9.36493 -8.86859
6.07376 9.38584 -8.86996
5.9701 9.40676 -8.87132
5.86644 9.42767 -8.8727
5.76278 9.44858 -8.87405
5.64528 9.36855 -8.87785
5.54162 9.38947 -8.87921
5.42412 9.30943 -8.883
5.32045 9.33034 -8.88437
5.20295 9.25031 -8.88815
5.09929 9.27122 -8.88953
4.99563 9.29214 -8.89088
4.89197 9.31305 -8.89226
4.80215 9.43492 -8.8912
4.69849 9.45583 -8.89256
4.59483 9.47675 -8.89394
4.47733 9.39671 -8.89772
4.37367 9.41763 -8.89909
4.27001 9.43854 -8.90045
4.16635 9.45946 -8.90182
4.06269 9.48037 -8.90318
3.94518 9.40034 -8.90697
3.84152 9.42125 -8.90834
3.72402 9.34121 -8.91212
3.62036 9.36213 -8.9135
3.5167 9.38305 -8.91486
3.41304 9.40396 -8.91623
3.29553 9.32392 -8.92001
3.19187 9.34484 -8.92139
3.07437 9.2648 -8.92517
2.94302 9.08381 -8.93138
2.81167 8.90283 -8.93759
2.69417 8.82278 -8.94139
6.82541 9.51517 -8.88783
6.68669 9.5758 -8.88678
6.54797 9.63644 -8.88573
6.40926 9.69707 -8.88466
6.23206 9.85205 -8.88118
6.13183 9.81833 -8.88255
5.99311 9.87896 -8.8815
5.89288 9.84525 -8.88286
5.75416 9.90588 -8.88181
5.65393 9.87216 -8.88316
5.51522 9.93279 -8.88211
5.41499 9.89908 -8.88348
5.31476 9.86536 -8.88484
5.21453 9.83164 -8.88622
5.07581 9.89228 -8.88515
4.97558 9.85856 -8.88652
4.87535 9.82484 -8.88788
4.77512 9.79113 -8.88925
4.63641 9.85176 -8.8882
4.53618 9.81804 -8.88956
4.43595 9.78432 -8.89093
4.33572 9.75061 -8.89229
4.23549 9.71689 -8.89366
4.13526 9.68317 -8.89502
4.03503 9.64946 -8.89639
3.89631 9.71009 -8.89532
3.79608 9.67637 -8.8967
3.69585 9.64265 -8.89806
3.59562 9.60894 -8.89943
3.49539 9.57522 -8.9008
3.39516 9.5415 -8.90216
3.29493 9.50779 -8.90353
3.1947 9.47407 -8.90489
3.09447 9.44035 -8.90627
2.99424 9.40663 -8.90762
2.89401 9.37292 -8.909
2.79378 9.3392 -8.91035
2.69355 9.30548 -8.91173
2.59332 9.27177 -8.91309
2.49309 9.23805 -8.91446
2.39286 9.20433 -8.91582
2.29263 9.17061 -8.91719
2.1924 9.1369 -8.91855
2.09217 9.10318 -8.91992
1.99194 9.06947 -8.92128
1.89171 9.03575 -8.92265
1.79148 9.00203 -8.92401
1.69125 8.96831 -8.92538
1.59102 8.9346 -8.92674
1.52928 8.80653 -8.93054
1.42905 8.77282 -8.9319
1.32882 8.7391 -8.93327
1.22859 8.70538 -8.93463
1.12836 8.67166 -8.936
1.02813 8.63795 -8.93736
0.927898 8.60423 -8.93874
0.827669 8.57051 -8.94009
0.727438 8.53679 -8.94147
0.627208 8.50308 -8.94284
0.565464 8.37501 -8.94662
0.465235 8.34129 -8.94798
0.365006 8.30758 -8.94936
0.264775 8.27386 -8.95071
0.203032 8.14579 -8.95451
0.102802 8.11208 -8.95587
0.00257349 8.07836 -8.95724
-0.0976562 8.04464 -8.9586
-0.159401 7.91658 -8.9624
-0.259631 7.88286 -8.96376
-0.321376 7.75479 -8.96754
-0.383117 7.62673 -8.97134
-0.444863 7.49866 -8.97513
-0.545093 7.46495 -8.9765
-0.606835 7.33688 -8.98029
-0.668579 7.20881 -8.98407
-0.730322 7.08075 -8.98787
-0.792067 6.95268 -8.99165
-0.853809 6.82462 -8.99544
0.580701 9.15857 -8.94696
0.430254 9.14172 -8.94591
0.36031 9.06241 -8.94728
0.209861 9.04556 -8.94621
0.139918 8.96624 -8.94759
0.0699768 8.88693 -8.94894
3.29018e-05 8.80761 -8.95032
-0.0699105 8.7283 -8.95168
-0.139855 8.64898 -8.95305
-0.209799 8.56967 -8.95441
-0.360243 8.55282 -8.95335
-0.430187 8.47351 -8.95473
-0.580636 8.45666 -8.95366
-0.65058 8.37734 -8.95503
-0.801028 8.36049 -8.95398
-0.870969 8.28118 -8.95534
-0.940913 8.20186 -8.95671
-1.01086 8.12255 -8.95807
-1.0808 8.04323 -8.95944
-1.15074 7.96392 -8.9608
-1.22068 7.8846 -8.96217
-1.29063 7.80529 -8.96353
-1.36057 7.72598 -8.9649
-1.43052 7.64666 -8.96626
-1.50046 7.56734 -8.96764
-1.5704 7.48803 -8.96899
-1.72085 7.47118 -8.96794
-1.7908 7.39187 -8.96931
-1.86074 7.31256 -8.97067
-1.93068 7.23324 -8.97205
-2.00062 7.15392 -8.9734
-2.07057 7.07461 -8.97478
-2.14051 6.9953 -8.97614
-2.21045 6.91598 -8.97751
-2.2804 6.83667 -8.97887
-2.35034 6.75735 -8.98024
-2.42028 6.67804 -8.9816
-2.49023 6.59872 -8.98297
-2.56017 6.51941 -8.98433
-2.5496 6.37762 -8.98813
-2.61955 6.29831 -8.98949
-2.68949 6.219 -8.99086
-2.75944 6.13968 -8.99222
-2.82938 6.06037 -8.99359
-2.89932 5.98105 -8.99495
-2.96926 5.90174 -8.99632
-3.03921 5.82242 -8.99768
-3.10915 5.74311 -8.99905
-3.17909 5.66379 -9.00041
-3.24904 5.58448 -9.00179
-3.31898 5.50516 -9.00314
-3.38892 5.42585 -9.00452
-3.45887 5.34654 -9.00589
-3.52881 5.26722 -9.00725
-3.51825 5.12544 -9.01103
-3.58819 5.04612 -9.01241
-3.65814 4.96681 -9.01376
-3.72808 4.8875 -9.01514
-3.79802 4.80818 -9.01649
-3.78746 4.6664 -9.02029
-3.8574 4.58709 -9.02165
-3.84684 4.44531 -9.02545
-3.51426 4.05366 -9.03893
-3.5842 3.97435 -9.0403
-3.65415 3.89503 -9.04166
-3.64359 3.75326 -9.04546
-3.71353 3.67394 -9.04681
-3.78347 3.59462 -9.04819
-3.85342 3.51531 -9.04955
-3.92336 3.436 -9.05092
-3.9128 3.29422 -9.0547
-3.90224 3.15243 -9.05849
-3.48517 6.01026 -8.99852
-3.60704 5.92044 -8.99747
-3.62796 5.81678 -8.99883
-3.64887 5.71312 -9.0002
-3.77074 5.62331 -8.99913
-3.79165 5.51964 -9.0005
-3.81257 5.41599 -9.00186
-3.83349 5.31233 -9.00323
-3.8544 5.20867 -9.00459
-3.87531 5.10501 -9.00597
-3.89623 5.00134 -9.00732
-4.0181 4.91153 -9.00627
-4.03901 4.80787 -9.00764
-4.05993 4.70421 -9.009
-4.08084 4.60055 -9.01038
-4.10176 4.49689 -9.01173
-4.12267 4.39323 -9.01311
-4.14359 4.28957 -9.01447
-4.1645 4.18591 -9.01584
-4.18542 4.08225 -9.0172
-4.20633 3.97859 -9.01857
-4.3282 3.88877 -9.01752
-4.34912 3.78511 -9.01888
-4.37003 3.68145 -9.02025
-4.39094 3.57779 -9.02161
-4.41186 3.47413 -9.02298
-4.43278 3.37047 -9.02434
-4.45369 3.26681 -9.02571
-4.4746 3.16315 -9.02707
-4.59648 3.07333 -9.02602
-4.61739 2.96967 -9.02737
-4.63831 2.86602 -9.02875
-4.65922 2.76235 -9.03012
-4.78109 2.67254 -9.02905
-4.802 2.56888 -9.03043
-4.82292 2.46522 -9.03178
-4.94478 2.3754 -9.03073
-4.9657 2.27174 -9.0321
-4.98661 2.16808 -9.03346
-5.00753 2.06442 -9.03484
-5.02844 1.96076 -9.03619
-5.04936 1.8571 -9.03757
-5.07027 1.75344 -9.03893
-5.09119 1.64978 -9.0403
-5.1121 1.54612 -9.04166
-5.13302 1.44246 -9.04303
-5.15393 1.3388 -9.04439
-5.17485 1.23514 -9.04576
-5.19576 1.13148 -9.04712
-5.21668 1.02782 -9.04849
-5.23759 0.92416 -9.04985
-5.15756 0.806656 -9.05365
-5.17847 0.702996 -9.05501
-5.19939 0.599336 -9.05638
-5.22031 0.495675 -9.05774
-5.24122 0.392015 -9.05911
-5.26214 0.288356 -9.06047
-5.28305 0.184695 -9.06184
-5.30397 0.0810357 -9.0632
-5.32488 -0.0226257 -9.06458
-5.24485 -0.140129 -9.06836
-5.26576 -0.243791 -9.06973
-5.28667 -0.347449 -9.07109
-5.30759 -0.45111 -9.07246
-5.32851 -0.55477 -9.07382
-5.34942 -0.658429 -9.0752
-5.26938 -0.775937 -9.07898
-5.2903 -0.879597 -9.08035
-5.31121 -0.983257 -9.08171
-5.33213 -1.08692 -9.08308
-5.35304 -1.19058 -9.08444
-5.273 -1.30808 -9.08824
-5.29392 -1.41174 -9.0896
-5.31484 -1.5154 -9.09097
-5.33575 -1.61906 -9.09233
-5.35667 -1.72272 -9.0937
-5.27663 -1.84023 -9.09749
-5.29754 -1.94389 -9.09885
-5.31846 -2.04755 -9.10022
-5.33938 -2.15121 -9.10159
-5.36029 -2.25487 -9.10295
-5.28025 -2.37237 -9.10674
-5.20022 -2.48987 -9.11053
-5.53093 1.04171 -9.02266
-5.59156 0.902988 -9.02161
-5.6522 0.764271 -9.02055
-5.71283 0.625555 -9.0195
-5.77346 0.486838 -9.01843
-5.73974 0.38661 -9.01981
-5.80038 0.247892 -9.01875
-5.76666 0.147662 -9.02011
-5.82729 0.00894654 -9.01906
-5.88793 -0.129771 -9.01801
-5.94856 -0.268485 -9.01694
-5.91484 -0.368717 -9.01831
-5.97547 -0.507432 -9.01724
-5.94176 -0.607663 -9.01862
-5.90804 -0.707893 -9.01999
-5.96867 -0.846607 -9.01892
-5.93495 -0.946839 -9.02029
-5.90124 -1.04707 -9.02165
-5.86752 -1.1473 -9.02303
-5.8338 -1.24753 -9.02438
-5.89443 -1.38624 -9.02333
-5.86072 -1.48647 -9.0247
-5.827 -1.5867 -9.02606
-5.79328 -1.68694 -9.02744
-5.85391 -1.82565 -9.02637
-5.8202 -1.92588 -9.02774
-5.78648 -2.02611 -9.0291
-5.75276 -2.12634 -9.03047
-5.71905 -2.22657 -9.03183
-5.68533 -2.3268 -9.0332
-5.65161 -2.42703 -9.03458
-5.6179 -2.52726 -9.03593
-5.58418 -2.62749 -9.03731
-5.55046 -2.72772 -9.03867
-5.51674 -2.82795 -9.04004
-5.48303 -2.92818 -9.0414
-5.44931 -3.02841 -9.04277
-5.41559 -3.12864 -9.04413
-5.38187 -3.22887 -9.0455
-5.34816 -3.3291 -9.04686
-5.31444 -3.42933 -9.04823
-5.18638 -3.49107 -9.05202
-5.15266 -3.5913 -9.05339
-5.11894 -3.69153 -9.05475
-5.08523 -3.79176 -9.05612
-5.05151 -3.89199 -9.05748
-5.01779 -3.99222 -9.05885
-4.98408 -4.09245 -9.06021
-4.95036 -4.19268 -9.06158
-4.91664 -4.29291 -9.06294
-4.78857 -4.35466 -9.06674
-4.75486 -4.45489 -9.0681
-4.72114 -4.55511 -9.06947
-4.68742 -4.65534 -9.07083
-4.55936 -4.71709 -9.07462
-4.52564 -4.81732 -9.07599
-4.49193 -4.91755 -9.07736
-4.36386 -4.97929 -9.08115
-4.33014 -5.07952 -9.0825
-4.20208 -5.14127 -9.0863
-4.16836 -5.2415 -9.08766
-4.13464 -5.34173 -9.08904
-4.10092 -5.44196 -9.09039
-3.97286 -5.5037 -9.09419
-3.84479 -5.56544 -9.09798
-3.81108 -5.66567 -9.09933
-3.68301 -5.72742 -9.10313
-3.64929 -5.82764 -9.10449
-3.61557 -5.92788 -9.10587
-3.58186 -6.02811 -9.10722
-3.45379 -6.08985 -9.11102
-3.42008 -6.19008 -9.11238
-3.38636 -6.29031 -9.11375
-3.25829 -6.35205 -9.11754
-3.22458 -6.45228 -9.11891
-3.19086 -6.55251 -9.12027
-3.15714 -6.65274 -9.12164
-3.12343 -6.75297 -9.123
-2.99536 -6.81472 -9.12679
-2.96164 -6.91495 -9.12816
-2.83357 -6.97669 -9.13194
-5.54872 -1.65349 -9.01857
-5.65681 -1.96495 -9.01266
-5.70242 -2.19591 -9.00919
-6.12283 -2.90988 -8.99117
-6.10598 -3.06033 -8.99011
-6.02667 -3.13027 -8.99147
-5.94735 -3.20022 -8.99284
-5.93051 -3.35067 -8.99178
-5.85119 -3.42061 -8.99315
-5.83434 -3.57106 -8.9921
-5.75503 -3.641 -8.99345
-5.73818 -3.79145 -8.9924
-5.65886 -3.86139 -8.99377
-5.64201 -4.01184 -8.99271
-5.5627 -4.08178 -8.99408
-5.48338 -4.15172 -8.99544
-5.40407 -4.22167 -8.99681
-5.38722 -4.37212 -8.99576
-5.30791 -4.44206 -8.99712
-5.22859 -4.512 -8.99849
-5.14928 -4.58195 -8.99985
-5.06996 -4.65189 -9.00122
-5.05311 -4.80234 -9.00015
-4.9738 -4.87228 -9.00153
-4.89448 -4.94222 -9.00288
-4.81517 -5.01217 -9.00426
-4.79832 -5.16261 -9.0032
-4.719 -5.23256 -9.00456
-4.70215 -5.383 -9.00351
-4.62284 -5.45295 -9.00487
-4.54353 -5.52289 -9.00624
-4.46421 -5.59283 -9.0076
-4.38489 -5.66278 -9.00897
-4.30558 -5.73272 -9.01033
-4.22627 -5.80266 -9.0117
-4.20942 -5.95311 -9.01065
-4.13011 -6.02306 -9.01201
-4.11325 -6.1735 -9.01096
-4.03394 -6.24344 -9.01233
-3.95462 -6.31339 -9.01369
-3.93777 -6.46384 -9.01263
-3.85846 -6.53378 -9.01399
-3.77914 -6.60372 -9.01537
-3.69983 -6.67367 -9.01672
-3.68298 -6.82412 -9.01567
-3.60367 -6.89406 -9.01704
-3.52435 -6.964 -9.0184
-3.44504 -7.03395 -9.01978
-3.36572 -7.10389 -9.02113
-3.34887 -7.25433 -9.02008
-3.26956 -7.32428 -9.02144
-3.19024 -7.39422 -9.02281
-3.11093 -7.46416 -9.02417
-3.03161 -7.53411 -9.02554
-3.01477 -7.68456 -9.02449
-2.93545 -7.7545 -9.02585
-2.85614 -7.82444 -9.02722
-2.77682 -7.89438 -9.02858
-2.69751 -7.96433 -9.02995
-2.61819 -8.03427 -9.03131
-2.53888 -8.10421 -9.03268
-2.45956 -8.17416 -9.03404
-2.38025 -8.2441 -9.03542
-2.30093 -8.31404 -9.03677
-2.22162 -8.38399 -9.03815
-2.1423 -8.45393 -9.03951
-2.06299 -8.52387 -9.04088
-1.98368 -8.59382 -9.04224
-1.90436 -8.66376 -9.04361
-1.82505 -8.7337 -9.04498
-1.74573 -8.80364 -9.04634
-1.66642 -8.87359 -9.04771
-1.5871 -8.94353 -9.04907
-1.50779 -9.01348 -9.05045
-1.42847 -9.08342 -9.0518
-1.34916 -9.15336 -9.05318
-1.33231 -9.30381 -9.05211
-1.25299 -9.37375 -9.05348
-1.17368 -9.4437 -9.05484
-1.09436 -9.51364 -9.05621
-1.01505 -9.58358 -9.05757
-0.935735 -9.65352 -9.05894
-0.793956 -9.64296 -9.06273
-0.714641 -9.71291 -9.0641
-0.635325 -9.78285 -9.06546
-0.55601 -9.85279 -9.06683
-0.476697 -9.92274 -9.06819
-0.397384 -9.99268 -9.06956
-0.318068 -10.0626 -9.07092
-0.238752 -10.1326 -9.0723
-0.159437 -10.2025 -9.07367
-0.0801229 -10.2725 -9.07503
-0.000809193 -10.3424 -9.0764
0.0785046 -10.4123 -9.07776
0.157821 -10.4823 -9.07913
0.237136 -10.5522 -9.08049
0.31645 -10.6222 -9.08186
0.395764 -10.6921 -9.08322
0.475081 -10.7621 -9.08459
0.554394 -10.832 -9.08595
0.633709 -10.9019 -9.08733
0.713023 -10.9719 -9.08868
0.792337 -11.0418 -9.09006
0.871655 -11.1118 -9.09142
1.01344 -11.1012 -9.09521
1.09275 -11.1711 -9.09657
1.17206 -11.2411 -9.09795
1.25138 -11.311 -9.0993
1.3307 -11.381 -9.10068
1.47247 -11.3704 -9.10446
1.55179 -11.4404 -9.10583
1.6311 -11.5103 -9.10719
1.77288 -11.4997 -9.11098
1.8522 -11.5697 -9.11235
1.93151 -11.6396 -9.11371
2.01083 -11.7096 -9.11508
2.15261 -11.699 -9.11887
2.23192 -11.769 -9.12024
2.3737 -11.7584 -9.12402
2.76534 -11.4258 -9.13751
2.84466 -11.4958 -9.13887
2.98644 -11.4852 -9.14267
3.06576 -11.5551 -9.14403
3.14507 -11.6251 -9.1454
3.22438 -11.695 -9.14676
3.36616 -11.6845 -9.15054
3.50794 -11.6739 -9.15434
