ply
format ascii 1.0
comment VCGLIB generated
element vertex 1073
property float x
property float y
property float z
element face 0
property list uchar int vertex_indices
end_header
3.98694 -12.4355 -7.81642
4.13739 -12.4187 -7.81537
4.28784 -12.4018 -7.81432
4.43829 -12.385 -7.81325
4.66924 -12.4306 -7.80977
4.81969 -12.4138 -7.80872
4.97014 -12.3969 -7.80766
5.04008 -12.3176 -7.80902
5.11002 -12.2383 -7.81039
5.26047 -12.2214 -7.80934
5.33041 -12.1421 -7.8107
5.48086 -12.1253 -7.80965
5.71181 -12.1709 -7.80617
5.86226 -12.154 -7.8051
6.01271 -12.1372 -7.80405
6.08265 -12.0579 -7.80542
6.2331 -12.041 -7.80435
6.38355 -12.0242 -7.8033
6.45349 -11.9449 -7.80467
6.60394 -11.928 -7.8036
6.67388 -11.8487 -7.80498
6.82433 -11.8319 -7.80392
6.89427 -11.7525 -7.80528
6.96421 -11.6732 -7.80666
7.03416 -11.5939 -7.80801
7.18461 -11.5771 -7.80696
7.25455 -11.4977 -7.80832
7.32449 -11.4184 -7.80969
7.39444 -11.3391 -7.81105
7.46438 -11.2598 -7.81242
7.53432 -11.1805 -7.8138
7.68477 -11.1636 -7.81273
7.75471 -11.0843 -7.8141
7.82465 -11.005 -7.81546
7.97511 -10.9882 -7.81441
8.04505 -10.9088 -7.81578
8.11499 -10.8295 -7.81714
8.18493 -10.7502 -7.81851
8.25488 -10.6709 -7.81987
8.40533 -10.6541 -7.81882
8.47527 -10.5747 -7.82018
8.54521 -10.4954 -7.82155
8.69566 -10.4786 -7.8205
8.7656 -10.3993 -7.82185
8.91605 -10.3824 -7.8208
9.0665 -10.3656 -7.81975
9.13644 -10.2862 -7.82111
9.28689 -10.2694 -7.82005
9.35683 -10.1901 -7.82141
9.50728 -10.1732 -7.82036
9.57722 -10.0939 -7.82173
9.64716 -10.0146 -7.82309
9.79761 -9.99775 -7.82204
9.86756 -9.91844 -7.82339
10.018 -9.90159 -7.82234
10.088 -9.82228 -7.82372
10.2384 -9.80542 -7.82265
10.3888 -9.78857 -7.82159
10.4588 -9.70926 -7.82297
10.6092 -9.69241 -7.8219
10.6792 -9.61309 -7.82327
10.7491 -9.53378 -7.82463
10.8996 -9.51693 -7.82358
10.9695 -9.43762 -7.82495
11.12 -9.42077 -7.82388
11.1899 -9.34145 -7.82526
11.3404 -9.3246 -7.8242
11.4103 -9.24529 -7.82556
11.4802 -9.16598 -7.82693
11.5502 -9.08666 -7.82829
11.6201 -9.00735 -7.82967
11.7706 -8.9905 -7.8286
11.8405 -8.91118 -7.82997
11.9105 -8.83187 -7.83133
11.9804 -8.75255 -7.8327
12.0503 -8.67324 -7.83406
12.2008 -8.65639 -7.83301
12.2707 -8.57707 -7.83438
12.3407 -8.49776 -7.83574
12.4106 -8.41844 -7.83711
12.4806 -8.33913 -7.83847
12.5505 -8.25982 -7.83984
12.6205 -8.1805 -7.8412
12.6904 -8.10119 -7.84258
12.7603 -8.02187 -7.84393
12.8303 -7.94256 -7.84531
12.9002 -7.86324 -7.84666
12.8897 -7.72146 -7.85046
12.9596 -7.64215 -7.85182
13.0295 -7.56283 -7.8532
13.0995 -7.48352 -7.85455
13.0889 -7.34174 -7.85835
13.1589 -7.26242 -7.85971
13.2288 -7.18311 -7.86108
13.2183 -7.04133 -7.86487
13.2882 -6.96201 -7.86624
13.3581 -6.8827 -7.8676
13.3476 -6.74092 -7.87138
13.4175 -6.6616 -7.87276
13.4875 -6.58229 -7.87411
13.4769 -6.44051 -7.87791
13.4663 -6.29873 -7.8817
13.4558 -6.15695 -7.88548
13.4452 -6.01517 -7.88928
13.4347 -5.87339 -7.89307
13.3436 -5.66914 -7.89928
13.333 -5.52736 -7.90306
13.081 -5.19819 -7.91412
12.9094 -4.93147 -7.92276
12.8183 -4.72723 -7.92897
12.7273 -4.52298 -7.93518
12.7167 -4.3812 -7.93898
12.7061 -4.23942 -7.94276
12.6956 -4.09764 -7.94655
12.6045 -3.8934 -7.95276
12.1914 -3.43929 -7.96867
12.2614 -3.35997 -7.97003
12.2508 -3.21819 -7.97383
12.3207 -3.13888 -7.97519
12.3102 -2.9971 -7.97899
12.2996 -2.85532 -7.98277
12.2891 -2.71354 -7.98656
12.2785 -2.57176 -7.99036
12.1874 -2.36751 -7.99657
12.0159 -2.1008 -8.0052
9.96619 -9.88185 -7.79065
10.189 -9.80587 -7.78717
10.3109 -9.71606 -7.78612
10.5337 -9.64009 -7.78264
10.5546 -9.53643 -7.784
10.6765 -9.44661 -7.78294
10.6974 -9.34295 -7.7843
11.324 -9.32236 -7.77113
11.4459 -9.23254 -7.77008
11.5677 -9.14272 -7.76903
11.6896 -9.05291 -7.76796
11.7105 -8.94925 -7.76933
11.8324 -8.85943 -7.76826
11.9543 -8.76962 -7.76721
12.0761 -8.6798 -7.76616
12.198 -8.58999 -7.76511
12.2189 -8.48633 -7.76646
12.3408 -8.39651 -7.76541
12.3617 -8.29285 -7.76677
12.3826 -8.18919 -7.76814
12.5045 -8.09937 -7.76709
12.6263 -8.00956 -7.76602
12.6473 -7.9059 -7.7674
12.7691 -7.81608 -7.76634
12.79 -7.71242 -7.7677
12.9119 -7.62261 -7.76665
12.9328 -7.51894 -7.76801
12.9537 -7.41528 -7.76938
13.0756 -7.32547 -7.76833
13.0965 -7.22181 -7.76968
13.1174 -7.11815 -7.77106
13.1384 -7.01449 -7.77242
13.2602 -6.92467 -7.77136
13.2811 -6.82101 -7.77272
13.3021 -6.71735 -7.77409
13.4239 -6.62754 -7.77304
13.4448 -6.52388 -7.7744
13.5667 -6.43406 -7.77335
13.5876 -6.3304 -7.7747
13.6085 -6.22674 -7.77608
13.6294 -6.12308 -7.77744
13.6504 -6.01942 -7.77881
13.6713 -5.91576 -7.78018
13.6922 -5.8121 -7.78154
13.6122 -5.6946 -7.78532
13.5321 -5.57709 -7.78912
13.4521 -5.45959 -7.79291
13.473 -5.35593 -7.79428
13.393 -5.23842 -7.79807
13.4139 -5.13476 -7.79942
13.4348 -5.0311 -7.8008
13.3548 -4.9136 -7.80458
13.3757 -4.80994 -7.80595
13.3966 -4.70628 -7.80731
13.3165 -4.58877 -7.81111
13.2365 -4.47127 -7.8149
13.2574 -4.36761 -7.81625
13.1774 -4.2501 -7.82005
13.0973 -4.1326 -7.82384
13.1183 -4.02894 -7.82521
12.9373 -3.89759 -7.83142
12.9582 -3.79393 -7.83278
12.9791 -3.69027 -7.83415
12.8991 -3.57276 -7.83794
12.92 -3.4691 -7.83931
12.9409 -3.36544 -7.84067
12.9618 -3.26178 -7.84204
12.8818 -3.14428 -7.84583
12.8017 -3.02677 -7.84961
12.7217 -2.90927 -7.85341
12.7426 -2.80561 -7.85477
12.6626 -2.68811 -7.85857
12.5825 -2.5706 -7.86235
12.6035 -2.46694 -7.86371
12.6244 -2.36328 -7.86508
12.5443 -2.24578 -7.86887
12.5653 -2.14212 -7.87024
12.5862 -2.03846 -7.8716
12.5061 -1.92095 -7.8754
12.5271 -1.81729 -7.87675
12.447 -1.69979 -7.88054
12.4679 -1.59613 -7.88191
12.3879 -1.47862 -7.8857
12.4088 -1.37496 -7.88707
12.3288 -1.25746 -7.89085
12.3497 -1.1538 -7.89223
12.2696 -1.03629 -7.89601
12.1896 -0.918787 -7.8998
12.2105 -0.815128 -7.90117
12.1305 -0.697623 -7.90495
12.0505 -0.58012 -7.90875
12.0714 -0.476458 -7.91011
11.8904 -0.345111 -7.91632
11.9113 -0.241452 -7.91769
11.8313 -0.123944 -7.92148
11.8522 -0.0202839 -7.92285
11.8731 0.0833757 -7.92421
11.793 0.200879 -7.92799
11.814 0.304538 -7.92937
11.8349 0.408201 -7.93073
11.7548 0.525704 -7.93452
11.7758 0.629365 -7.93588
11.7967 0.733023 -7.93726
11.7166 0.850528 -7.94104
11.7376 0.95419 -7.94241
11.6575 1.07169 -7.9462
11.5775 1.1892 -7.94998
11.4974 1.3067 -7.95378
11.5184 1.41036 -7.95514
11.5393 1.51402 -7.95651
11.5602 1.61768 -7.95787
11.5811 1.72134 -7.95924
11.5011 1.83885 -7.96303
11.522 1.94251 -7.9644
11.4419 2.06001 -7.96819
11.4629 2.16367 -7.96954
11.3828 2.28118 -7.97334
11.4037 2.38484 -7.9747
11.4247 2.4885 -7.97607
11.3446 2.606 -7.97986
11.3655 2.70966 -7.98123
11.3864 2.81332 -7.98259
11.3064 2.93082 -7.98637
11.1254 3.06217 -7.9926
11.0454 3.17968 -7.99638
10.9653 3.29718 -8.00017
10.9863 3.40084 -8.00154
11.0072 3.5045 -8.0029
11.0281 3.60816 -8.00427
10.9481 3.72567 -8.00806
10.969 3.82933 -8.00943
10.8889 3.94683 -8.01321
10.9098 4.05049 -8.01459
10.8298 4.168 -8.01837
10.8507 4.27166 -8.01973
10.7707 4.38916 -8.02353
10.7916 4.49282 -8.02489
10.8125 4.59648 -8.02626
10.7325 4.71399 -8.03004
10.7534 4.81765 -8.03142
10.5724 4.949 -8.03763
10.4924 5.0665 -8.04141
10.4123 5.184 -8.0452
10.3323 5.30151 -8.049
10.3532 5.40517 -8.05035
10.2732 5.52267 -8.05415
10.2941 5.62634 -8.05551
10.2141 5.74384 -8.0593
10.134 5.86134 -8.0631
12.4607 -8.24551 -7.80069
12.5213 -8.10679 -7.79962
13.2424 -7.69867 -7.78162
13.303 -7.55996 -7.78055
13.3637 -7.42124 -7.7795
13.5186 -7.24404 -7.77602
13.6736 -7.06683 -7.77254
13.7343 -6.92812 -7.77148
13.7949 -6.7894 -7.77042
13.7612 -6.68917 -7.77179
13.7275 -6.58894 -7.77315
13.7881 -6.45022 -7.77209
13.7544 -6.35 -7.77347
13.815 -6.21128 -7.7724
13.97 -6.03408 -7.76892
14.0306 -5.89536 -7.76787
13.9969 -5.79513 -7.76923
14.0575 -5.65641 -7.76817
14.0238 -5.55619 -7.76955
14.0844 -5.41747 -7.76848
14.0507 -5.31724 -7.76985
14.017 -5.21701 -7.77121
13.9833 -5.11678 -7.77258
13.9496 -5.01655 -7.77396
13.9159 -4.91632 -7.77531
13.8821 -4.81609 -7.77669
13.8484 -4.71586 -7.77805
13.8147 -4.61563 -7.77942
13.781 -4.5154 -7.78078
13.7473 -4.41517 -7.78215
13.7136 -4.31494 -7.78351
13.5855 -4.2532 -7.78729
13.5518 -4.15296 -7.78867
13.5181 -4.05274 -7.79004
13.4843 -3.9525 -7.7914
13.545 -3.81379 -7.79034
13.5113 -3.71356 -7.7917
13.4775 -3.61333 -7.79308
13.4438 -3.5131 -7.79443
13.4101 -3.41287 -7.79581
13.3764 -3.31264 -7.79716
13.3427 -3.21241 -7.79854
13.309 -3.11218 -7.7999
13.2752 -3.01195 -7.80127
13.2415 -2.91172 -7.80263
13.2078 -2.81149 -7.804
13.1741 -2.71126 -7.80537
13.1404 -2.61103 -7.80673
13.1067 -2.5108 -7.80811
13.0729 -2.41057 -7.80946
13.0392 -2.31034 -7.81084
13.0999 -2.17162 -7.80977
13.0661 -2.07139 -7.81114
13.0324 -1.97116 -7.8125
12.9987 -1.87093 -7.81387
12.965 -1.7707 -7.81523
12.9313 -1.67047 -7.8166
12.8976 -1.57024 -7.81796
12.8638 -1.47001 -7.81934
12.8301 -1.36978 -7.82071
12.7964 -1.26955 -7.82207
12.7627 -1.16932 -7.82344
12.729 -1.06909 -7.8248
12.7896 -0.930378 -7.82375
12.7559 -0.83015 -7.8251
12.7222 -0.729919 -7.82648
12.6884 -0.629689 -7.82784
12.6547 -0.529459 -7.82921
12.621 -0.429229 -7.83057
12.5873 -0.329 -7.83194
12.5536 -0.228769 -7.8333
12.5199 -0.12854 -7.83467
12.4861 -0.0283093 -7.83604
12.4524 0.0719209 -7.8374
12.4187 0.172149 -7.83878
12.385 0.27238 -7.84013
12.3513 0.372611 -7.84151
12.3176 0.47284 -7.84286
12.2838 0.57307 -7.84424
12.2501 0.673299 -7.8456
12.2164 0.77353 -7.84697
12.1827 0.87376 -7.84833
12.149 0.97399 -7.8497
12.1153 1.07422 -7.85106
12.0815 1.17445 -7.85243
12.1422 1.31317 -7.85138
12.1085 1.4134 -7.85274
12.0747 1.51363 -7.85411
12.041 1.61386 -7.85547
12.0073 1.71409 -7.85684
11.9736 1.81432 -7.8582
11.9399 1.91455 -7.85957
11.9062 2.01478 -7.86093
11.8724 2.11501 -7.8623
11.8387 2.21524 -7.86366
11.805 2.31547 -7.86504
11.8656 2.45418 -7.86397
11.8319 2.55441 -7.86534
11.7982 2.65464 -7.86671
11.7645 2.75487 -7.86807
11.6364 2.81661 -7.87186
11.6027 2.91685 -7.87323
11.569 3.01708 -7.87459
11.6296 3.15579 -7.87354
11.5959 3.25602 -7.87491
11.5622 3.35625 -7.87627
11.6228 3.49497 -7.87521
11.5891 3.5952 -7.87657
11.5554 3.69542 -7.87794
11.5217 3.79566 -7.8793
11.4879 3.89589 -7.88068
11.5486 4.0346 -7.87962
11.5149 4.13483 -7.88098
11.4811 4.23506 -7.88235
11.4474 4.33529 -7.88371
11.4137 4.43552 -7.88509
11.38 4.53575 -7.88644
11.3463 4.63598 -7.88782
11.3126 4.73621 -7.88918
11.2788 4.83644 -7.89055
11.2451 4.93667 -7.89191
11.2114 5.0369 -7.89328
11.1777 5.13713 -7.89464
11.144 5.23736 -7.89601
11.1103 5.33759 -7.89738
11.0765 5.43782 -7.89874
11.0428 5.53805 -7.90012
10.9148 5.59979 -7.9039
10.881 5.70002 -7.90526
10.8473 5.80025 -7.90663
10.8136 5.90048 -7.90799
10.7799 6.00072 -7.90936
10.6518 6.06246 -7.91315
10.6181 6.16269 -7.91452
10.5844 6.26292 -7.91588
10.5507 6.36315 -7.91725
10.4226 6.42489 -7.92104
10.3889 6.52512 -7.92241
10.2608 6.58687 -7.92619
10.2271 6.68709 -7.92757
10.099 6.74884 -7.93135
9.97097 6.81058 -7.93513
9.84291 6.87233 -7.93893
9.71484 6.93407 -7.94272
9.68113 7.0343 -7.94408
9.55306 7.09604 -7.94788
9.42499 7.15779 -7.95166
9.29692 7.21953 -7.95544
9.26321 7.31976 -7.95682
9.13515 7.38151 -7.9606
8.72403 7.32779 -7.97166
8.69031 7.42802 -7.97302
8.56225 7.48976 -7.97682
8.33983 7.51302 -7.98303
8.30612 7.61325 -7.98439
8.17805 7.67499 -7.98819
8.14433 7.77522 -7.98955
8.11062 7.87545 -7.99092
7.98255 7.93719 -7.99471
7.94883 8.03742 -7.99608
7.82077 8.09917 -7.99986
7.6927 8.16091 -8.00365
7.56463 8.22265 -8.00745
14.0592 -4.76672 -7.86122
14.1049 -4.53577 -7.85774
14.088 -4.38532 -7.85667
14.0712 -4.23487 -7.85562
13.9918 -4.16493 -7.85698
13.975 -4.01448 -7.85593
13.8957 -3.94454 -7.8573
13.8788 -3.79409 -7.85623
13.862 -3.64364 -7.85518
13.8451 -3.4932 -7.85413
13.8283 -3.34275 -7.85307
13.749 -3.27281 -7.85443
13.7321 -3.12236 -7.85338
13.6528 -3.05241 -7.85474
13.636 -2.90197 -7.85368
13.5566 -2.83202 -7.85506
13.4773 -2.76208 -7.85641
13.4605 -2.61163 -7.85536
13.3812 -2.54169 -7.85672
13.4268 -2.31074 -7.85324
13.4099 -2.16029 -7.85219
13.3306 -2.09034 -7.85356
13.2513 -2.0204 -7.85492
13.172 -1.95046 -7.85629
13.1551 -1.80001 -7.85522
13.0758 -1.73007 -7.8566
12.9965 -1.66013 -7.85796
12.9172 -1.59018 -7.85933
12.9003 -1.43974 -7.85828
12.8835 -1.28928 -7.85721
12.8666 -1.13884 -7.85616
12.8498 -0.988388 -7.8551
12.8329 -0.83794 -7.85403
12.8161 -0.687494 -7.85298
12.7368 -0.617551 -7.85435
12.7199 -0.467103 -7.85329
12.6406 -0.397159 -7.85466
12.6238 -0.246711 -7.85361
12.5445 -0.17677 -7.85497
12.5276 -0.0263181 -7.85391
12.4483 0.0436249 -7.85527
12.369 0.113569 -7.85664
12.3521 0.264012 -7.85559
12.2728 0.333956 -7.85695
12.256 0.484404 -7.8559
12.3016 0.715357 -7.85242
12.2847 0.865807 -7.85136
12.2054 0.935749 -7.85272
12.1886 1.0862 -7.85167
12.1717 1.23664 -7.85062
12.1549 1.38709 -7.84955
12.138 1.53754 -7.8485
12.1212 1.68799 -7.84744
12.1043 1.83843 -7.84637
12.025 1.90838 -7.84775
12.0082 2.05883 -7.84669
11.9913 2.20928 -7.84563
11.9745 2.35972 -7.84457
11.9576 2.51017 -7.84352
11.9408 2.66062 -7.84247
11.8614 2.73056 -7.84383
11.8446 2.88101 -7.84277
11.8277 3.03146 -7.84172
11.8109 3.18191 -7.84065
11.794 3.33236 -7.8396
11.7147 3.4023 -7.84097
11.6979 3.55274 -7.8399
11.6186 3.62269 -7.84128
11.6017 3.77314 -7.84021
11.5849 3.92358 -7.83916
11.5056 3.99353 -7.84053
11.4887 4.14398 -7.83946
11.4719 4.29442 -7.83841
11.455 4.44487 -7.83736
11.4382 4.59532 -7.8363
11.3588 4.66526 -7.83766
11.342 4.81571 -7.83661
11.2627 4.88565 -7.83797
11.1834 4.95559 -7.83934
11.1665 5.10605 -7.83829
11.0872 5.17599 -7.83965
11.0704 5.32643 -7.83859
10.991 5.39638 -7.83995
10.9742 5.54683 -7.8389
10.8949 5.61677 -7.84027
10.878 5.76722 -7.8392
10.8612 5.91766 -7.83815
10.8443 6.06812 -7.8371
10.765 6.13806 -7.83846
10.7482 6.2885 -7.8374
10.6688 6.35845 -7.83878
10.652 6.5089 -7.83771
10.5727 6.57884 -7.83908
10.4934 6.64878 -7.84044
10.4141 6.71873 -7.84181
10.3347 6.78867 -7.84317
10.2554 6.85861 -7.84454
10.2386 7.00906 -7.84349
10.1593 7.07901 -7.84485
10.0799 7.14895 -7.84622
10.0006 7.21889 -7.84758
9.92132 7.28883 -7.84895
9.842 7.35878 -7.85031
9.76269 7.42872 -7.85168
9.68337 7.49866 -7.85304
9.60406 7.56861 -7.85442
9.52474 7.63855 -7.85577
9.44543 7.70849 -7.85715
9.36611 7.77844 -7.85851
9.2868 7.84838 -7.85988
9.20748 7.91832 -7.86124
9.0657 7.90776 -7.86504
8.98639 7.9777 -7.86639
8.90707 8.04765 -7.86777
8.76529 8.03708 -7.87155
8.68597 8.10703 -7.87292
8.60666 8.17697 -7.87428
8.46488 8.16641 -7.87808
8.38557 8.23636 -7.87944
8.30625 8.3063 -7.88081
8.22694 8.37624 -7.88217
8.14762 8.44618 -7.88354
8.00584 8.43562 -7.88733
7.92653 8.50556 -7.88869
7.78475 8.495 -7.89249
7.70543 8.56494 -7.89384
7.62612 8.63489 -7.89522
7.5468 8.70483 -7.89658
7.46749 8.77477 -7.89795
7.32571 8.76421 -7.90173
7.24639 8.83416 -7.90311
7.16708 8.9041 -7.90446
7.0253 8.89354 -7.90826
6.94598 8.96348 -7.90962
6.8042 8.95292 -7.91341
6.66242 8.94236 -7.91721
6.45818 8.85129 -7.92342
6.37886 8.92124 -7.92477
6.23708 8.91067 -7.92857
6.15777 8.98061 -7.92993
6.01599 8.97006 -7.93373
5.93667 9.04 -7.93509
5.73242 8.94893 -7.9413
5.46571 8.77736 -7.94994
10.6068 6.70756 -7.84831
10.5031 6.72847 -7.84969
10.4133 6.85035 -7.84863
10.3235 6.97221 -7.84756
10.2198 6.99313 -7.84894
10.13 7.11499 -7.84789
10.0402 7.23686 -7.84682
9.93653 7.25778 -7.84819
9.86056 7.4806 -7.84471
9.77075 7.60246 -7.84364
9.68093 7.72433 -7.84259
9.57727 7.74524 -7.84396
9.47361 7.76616 -7.84532
9.38379 7.88803 -7.84427
9.28013 7.90894 -7.84563
9.19032 8.0308 -7.84457
9.1005 8.15267 -7.84352
9.01069 8.27454 -7.84247
8.90703 8.29546 -7.84383
8.81721 8.41732 -7.84277
8.71355 8.43824 -7.84413
8.62373 8.56011 -7.84308
8.53392 8.68197 -7.84203
8.4441 8.80384 -7.84097
8.34044 8.82475 -7.84233
8.23678 8.84567 -7.8437
8.13312 8.86659 -7.84506
8.02946 8.8875 -7.84644
7.9258 8.90842 -7.84779
7.83599 9.03028 -7.84674
7.73233 9.0512 -7.8481
7.62867 9.07211 -7.84947
7.53885 9.19398 -7.84842
7.43519 9.2149 -7.84978
7.33153 9.23581 -7.85115
7.22787 9.25672 -7.85251
7.12421 9.27764 -7.85388
7.02055 9.29856 -7.85524
6.91689 9.31947 -7.85661
6.81323 9.34038 -7.85797
6.70957 9.3613 -7.85934
6.60591 9.38222 -7.8607
6.50225 9.40313 -7.86208
6.39859 9.42404 -7.86343
6.29493 9.44496 -7.86481
6.19127 9.46588 -7.86617
6.08761 9.48679 -7.86754
5.98395 9.50771 -7.8689
5.86644 9.42767 -7.8727
5.76278 9.44858 -7.87405
5.65912 9.4695 -7.87543
5.55546 9.49042 -7.87679
5.4518 9.51133 -7.87816
5.34814 9.53224 -7.87952
5.24448 9.55316 -7.88089
5.14082 9.57408 -7.88225
5.03716 9.59499 -7.88362
4.91966 9.51495 -7.88741
4.816 9.53587 -7.88878
4.71234 9.55679 -7.89014
4.60868 9.5777 -7.89151
4.49117 9.49767 -7.89529
4.38751 9.51858 -7.89667
4.28385 9.53949 -7.89803
4.16635 9.45946 -7.90182
4.04884 9.37942 -7.90561
3.94518 9.40034 -7.90697
3.82768 9.3203 -7.91077
3.72402 9.34121 -7.91212
3.60651 9.26118 -7.91592
3.50285 9.28209 -7.91728
3.39919 9.30301 -7.91866
3.29553 9.32392 -7.92001
3.17803 9.24388 -7.9238
3.07437 9.2648 -7.92517
2.91533 8.88191 -7.93623
2.79783 8.80187 -7.94002
2.66648 8.62088 -7.94623
2.54897 8.54085 -7.95003
2.44531 8.56176 -7.95139
2.34165 8.58268 -7.95276
2.23799 8.60359 -7.95412
2.12049 8.52355 -7.9579
2.01683 8.54447 -7.95927
1.91317 8.56539 -7.96063
1.79566 8.48535 -7.96443
1.67816 8.40531 -7.96822
1.56065 8.32527 -7.972
1.44315 8.24524 -7.9758
1.32565 8.16521 -7.97958
6.90238 9.32647 -7.89268
6.76366 9.38711 -7.89163
6.62495 9.44774 -7.89056
6.37077 9.79142 -7.88225
6.23206 9.85205 -7.88118
6.13183 9.81833 -7.88255
6.0316 9.78461 -7.88391
5.89288 9.84525 -7.88286
5.79265 9.81153 -7.88423
5.65393 9.87216 -7.88316
5.5537 9.83845 -7.88454
5.45347 9.80473 -7.88589
5.35324 9.77102 -7.88727
5.21453 9.83164 -7.88622
5.1143 9.79792 -7.88757
5.01407 9.76421 -7.88895
4.91384 9.73049 -7.8903
4.77512 9.79113 -7.88925
4.67489 9.75741 -7.89061
4.57466 9.72369 -7.89198
4.47443 9.68998 -7.89334
4.33572 9.75061 -7.89229
4.23549 9.71689 -7.89366
4.13526 9.68317 -7.89502
4.03503 9.64946 -7.89639
3.9348 9.61574 -7.89775
3.83457 9.58202 -7.89912
3.73434 9.5483 -7.90048
3.63411 9.51459 -7.90186
3.53388 9.48087 -7.90321
3.43365 9.44715 -7.90459
3.29493 9.50779 -7.90353
3.1947 9.47407 -7.90489
3.09447 9.44035 -7.90627
2.99424 9.40663 -7.90762
2.89401 9.37292 -7.909
2.79378 9.3392 -7.91035
2.69355 9.30548 -7.91173
2.59332 9.27177 -7.91309
2.49309 9.23805 -7.91446
2.39286 9.20433 -7.91582
2.29263 9.17061 -7.91719
2.1924 9.1369 -7.91855
2.09217 9.10318 -7.91992
1.99194 9.06947 -7.92128
1.89171 9.03575 -7.92265
1.79148 9.00203 -7.92401
1.69125 8.96831 -7.92538
1.62951 8.84025 -7.92917
1.52928 8.80653 -7.93054
1.42905 8.77282 -7.9319
1.32882 8.7391 -7.93327
1.22859 8.70538 -7.93463
1.12836 8.67166 -7.936
1.02813 8.63795 -7.93736
0.927898 8.60423 -7.93874
0.827669 8.57051 -7.94009
0.727438 8.53679 -7.94147
0.627208 8.50308 -7.94284
0.565464 8.37501 -7.94662
0.465235 8.34129 -7.94798
0.365006 8.30758 -7.94936
0.264775 8.27386 -7.95071
0.203032 8.14579 -7.95451
0.102802 8.11208 -7.95587
0.00257349 8.07836 -7.95724
-0.0976562 8.04464 -7.9586
-0.159401 7.91658 -7.9624
-0.259631 7.88286 -7.96376
-0.359863 7.84915 -7.96513
-0.460091 7.81543 -7.96649
-0.560322 7.78171 -7.96786
-0.622064 7.65364 -7.97165
-0.683808 7.52558 -7.97543
-0.707066 7.30316 -7.98166
-0.691836 6.9864 -7.99028
0.811651 9.11296 -7.95044
0.741709 9.03364 -7.95181
0.671767 8.95433 -7.95317
0.521318 8.93748 -7.95212
0.370869 8.92063 -7.95107
0.220422 8.90378 -7.95001
0.0699768 8.88693 -7.94894
-0.0804715 8.87008 -7.94789
-0.150414 8.79076 -7.94926
-0.22036 8.71145 -7.95062
-0.290303 8.63214 -7.952
-0.440748 8.61528 -7.95093
-0.510692 8.53597 -7.9523
-0.580636 8.45666 -7.95366
-0.65058 8.37734 -7.95503
-0.801028 8.36049 -7.95398
-0.870969 8.28118 -7.95534
-0.940913 8.20186 -7.95671
-1.01086 8.12255 -7.95807
-1.0808 8.04323 -7.95944
-1.15074 7.96392 -7.9608
-1.22068 7.8846 -7.96217
-1.29063 7.80529 -7.96353
-1.36057 7.72598 -7.9649
-1.43052 7.64666 -7.96626
-1.50046 7.56734 -7.96764
-1.5704 7.48803 -7.96899
-1.64034 7.40872 -7.97037
-1.71029 7.3294 -7.97173
-1.86074 7.31256 -7.97067
-1.93068 7.23324 -7.97205
-2.00062 7.15392 -7.9734
-2.07057 7.07461 -7.97478
-2.14051 6.9953 -7.97614
-2.21045 6.91598 -7.97751
-2.2804 6.83667 -7.97887
-2.35034 6.75735 -7.98024
-2.42028 6.67804 -7.9816
-2.49023 6.59872 -7.98297
-2.56017 6.51941 -7.98433
-2.63011 6.44009 -7.9857
-2.70006 6.36078 -7.98706
-2.68949 6.219 -7.99086
-2.75944 6.13968 -7.99222
-2.82938 6.06037 -7.99359
-2.89932 5.98105 -7.99495
-2.96926 5.90174 -7.99632
-3.03921 5.82242 -7.99768
-3.10915 5.74311 -7.99905
-3.17909 5.66379 -8.00041
-3.24904 5.58448 -8.00179
-3.31898 5.50516 -8.00314
-3.38892 5.42585 -8.00452
-3.45887 5.34654 -8.00589
-3.52881 5.26722 -8.00725
-3.59875 5.1879 -8.00862
-3.6687 5.10859 -8.00998
-3.65814 4.96681 -8.01376
-3.72808 4.8875 -8.01514
-3.79802 4.80818 -8.01649
-3.78746 4.6664 -8.02029
-3.8574 4.58709 -8.02165
-3.27965 6.51471 -7.99411
-3.40151 6.4249 -7.99306
-3.42243 6.32124 -7.99442
-3.5443 6.23142 -7.99336
-3.56521 6.12776 -7.99472
-3.58613 6.0241 -7.99609
-3.60704 5.92044 -7.99747
-3.72891 5.83063 -7.9964
-3.74983 5.72697 -7.99777
-3.77074 5.62331 -7.99913
-3.79165 5.51964 -8.0005
-3.81257 5.41599 -8.00186
-3.83349 5.31233 -8.00323
-3.8544 5.20867 -8.00459
-3.87531 5.10501 -8.00597
-3.89623 5.00134 -8.00732
-3.91715 4.89768 -8.0087
-4.03901 4.80787 -8.00764
-4.05993 4.70421 -8.009
-4.08084 4.60055 -8.01038
-4.10176 4.49689 -8.01173
-4.12267 4.39323 -8.01311
-4.14359 4.28957 -8.01447
-4.1645 4.18591 -8.01584
-4.18542 4.08225 -8.0172
-4.20633 3.97859 -8.01857
-4.22725 3.87493 -8.01993
-4.24816 3.77127 -8.0213
-4.26908 3.66761 -8.02266
-4.28999 3.56395 -8.02403
-4.31091 3.46029 -8.02539
-4.43278 3.37047 -8.02434
-4.45369 3.26681 -8.02571
-4.4746 3.16315 -8.02707
-4.49552 3.05949 -8.02844
-4.51644 2.95583 -8.0298
-4.53735 2.85217 -8.03117
-4.65922 2.76235 -8.03012
-4.68014 2.65869 -8.03148
-4.70105 2.55503 -8.03285
-4.72197 2.45137 -8.03421
-4.74288 2.34771 -8.03558
-4.86475 2.2579 -8.03452
-4.88566 2.15424 -8.03589
-4.90658 2.05058 -8.03725
-4.92749 1.94692 -8.03862
-4.94841 1.84326 -8.03998
-4.96932 1.7396 -8.04135
-4.99024 1.63594 -8.04271
-5.01115 1.53228 -8.04408
-5.03207 1.42862 -8.04546
-5.05299 1.32496 -8.04681
-5.0739 1.2213 -8.04819
-5.09481 1.11764 -8.04955
-5.11573 1.01398 -8.05092
-5.13665 0.910317 -8.05228
-5.15756 0.806656 -8.05365
-5.17847 0.702996 -8.05501
-5.19939 0.599336 -8.05638
-5.22031 0.495675 -8.05774
-5.14027 0.37817 -8.06154
-5.16119 0.274512 -8.0629
-5.1821 0.170852 -8.06427
-5.20301 0.0671921 -8.06563
-5.22393 -0.0364693 -8.067
-5.24485 -0.140129 -8.06836
-5.26576 -0.243791 -8.06973
-5.18572 -0.361295 -8.07352
-5.20663 -0.464956 -8.07489
-5.1266 -0.58246 -8.07867
-5.14751 -0.686119 -8.08003
-5.16843 -0.789781 -8.08141
-5.18934 -0.893441 -8.08276
-5.21026 -0.9971 -8.08414
-5.23117 -1.10076 -8.08551
-5.25209 -1.20442 -8.08687
-5.273 -1.30808 -8.08824
-5.29392 -1.41174 -8.0896
-5.31484 -1.5154 -8.09097
-5.33575 -1.61906 -8.09233
-5.35667 -1.72272 -8.0937
-5.27663 -1.84023 -8.09749
-5.29754 -1.94389 -8.09885
-5.31846 -2.04755 -8.10022
-5.33938 -2.15121 -8.10159
-5.36029 -2.25487 -8.10295
-5.28025 -2.37237 -8.10674
-5.30117 -2.47603 -8.10811
-5.32208 -2.57969 -8.10947
-5.60488 -0.014311 -8.02527
-5.66551 -0.153027 -8.02422
-5.91484 -0.368717 -8.01831
-6.06982 -0.545918 -8.01483
-6.0361 -0.646149 -8.01619
-6.00239 -0.746379 -8.01756
-6.06302 -0.885093 -8.01649
-6.0293 -0.985325 -8.01787
-5.99558 -1.08555 -8.01924
-5.96187 -1.18579 -8.0206
-5.92815 -1.28601 -8.02197
-5.89443 -1.38624 -8.02333
-5.86072 -1.48647 -8.0247
-5.827 -1.5867 -8.02606
-5.79328 -1.68694 -8.02744
-5.75956 -1.78716 -8.02879
-5.8202 -1.92588 -8.02774
-5.78648 -2.02611 -8.0291
-5.75276 -2.12634 -8.03047
-5.71905 -2.22657 -8.03183
-5.68533 -2.3268 -8.0332
-5.65161 -2.42703 -8.03458
-5.6179 -2.52726 -8.03593
-5.58418 -2.62749 -8.03731
-5.55046 -2.72772 -8.03867
-5.51674 -2.82795 -8.04004
-5.48303 -2.92818 -8.0414
-5.44931 -3.02841 -8.04277
-5.41559 -3.12864 -8.04413
-5.38187 -3.22887 -8.0455
-5.34816 -3.3291 -8.04686
-5.22009 -3.39084 -8.05066
-5.18638 -3.49107 -8.05202
-5.15266 -3.5913 -8.05339
-5.11894 -3.69153 -8.05475
-5.08523 -3.79176 -8.05612
-5.05151 -3.89199 -8.05748
-5.01779 -3.99222 -8.05885
-4.98408 -4.09245 -8.06021
-4.95036 -4.19268 -8.06158
-4.91664 -4.29291 -8.06294
-4.78857 -4.35466 -8.06674
-4.75486 -4.45489 -8.0681
-4.72114 -4.55511 -8.06947
-4.59307 -4.61686 -8.07326
-4.55936 -4.71709 -8.07462
-4.43129 -4.77883 -8.07841
-4.30323 -4.84058 -8.0822
-4.17516 -4.90232 -8.08598
-4.14144 -5.00255 -8.08736
-4.10773 -5.10278 -8.08871
-4.07401 -5.20301 -8.09009
-3.94595 -5.26475 -8.09387
-3.91223 -5.36498 -8.09525
-3.78416 -5.42673 -8.09903
-3.75044 -5.52695 -8.1004
-6.10598 -3.06033 -7.99011
-6.02667 -3.13027 -7.99147
-5.94735 -3.20022 -7.99284
-5.93051 -3.35067 -7.99178
-5.85119 -3.42061 -7.99315
-5.77188 -3.49055 -7.99452
-5.75503 -3.641 -7.99345
-5.67571 -3.71094 -7.99483
-5.5964 -3.78089 -7.99619
-5.57955 -3.93133 -7.99513
-5.50023 -4.00128 -7.99651
-5.48338 -4.15172 -7.99544
-5.40407 -4.22167 -7.99681
-5.32476 -4.29161 -7.99817
-5.30791 -4.44206 -7.99712
-5.22859 -4.512 -7.99849
-5.14928 -4.58195 -7.99985
-5.06996 -4.65189 -8.00122
-4.99064 -4.72183 -8.00258
-4.91133 -4.79177 -8.00395
-4.89448 -4.94222 -8.00288
-4.81517 -5.01217 -8.00426
-4.79832 -5.16261 -8.0032
-4.719 -5.23256 -8.00456
-4.63969 -5.3025 -8.00594
-4.62284 -5.45295 -8.00487
-4.54353 -5.52289 -8.00624
-4.46421 -5.59283 -8.0076
-4.38489 -5.66278 -8.00897
-4.30558 -5.73272 -8.01033
-4.22627 -5.80266 -8.0117
-4.20942 -5.95311 -8.01065
-4.13011 -6.02306 -8.01201
-4.11325 -6.1735 -8.01096
-4.03394 -6.24344 -8.01233
-3.95462 -6.31339 -8.01369
-3.93777 -6.46384 -8.01263
-3.85846 -6.53378 -8.01399
-3.77914 -6.60372 -8.01537
-3.69983 -6.67367 -8.01672
-3.62052 -6.74361 -8.0181
-3.5412 -6.81355 -8.01945
-3.52435 -6.964 -8.0184
-3.44504 -7.03395 -8.01978
-3.36572 -7.10389 -8.02113
-3.28641 -7.17383 -8.02251
-3.26956 -7.32428 -8.02144
-3.19024 -7.39422 -8.02281
-3.11093 -7.46416 -8.02417
-3.03161 -7.53411 -8.02554
-2.9523 -7.60405 -8.0269
-2.87299 -7.67399 -8.02827
-2.79367 -7.74393 -8.02965
-2.71436 -7.81388 -8.03101
-2.63504 -7.88382 -8.03238
-2.55573 -7.95376 -8.03374
-2.47641 -8.02371 -8.03511
-2.3971 -8.09365 -8.03647
-2.38025 -8.2441 -8.03542
-2.30093 -8.31404 -8.03677
-2.22162 -8.38399 -8.03815
-2.1423 -8.45393 -8.03951
-2.06299 -8.52387 -8.04088
-1.98368 -8.59382 -8.04224
-1.90436 -8.66376 -8.04361
-1.82505 -8.7337 -8.04498
-1.74573 -8.80364 -8.04634
-1.66642 -8.87359 -8.04771
-1.5871 -8.94353 -8.04907
-1.50779 -9.01348 -8.05045
-1.42847 -9.08342 -8.0518
-1.34916 -9.15336 -8.05318
-1.26984 -9.2233 -8.05453
-1.19053 -9.29325 -8.05591
-1.11121 -9.36319 -8.05727
-1.0319 -9.43313 -8.05864
-0.952584 -9.50308 -8.06
-0.87327 -9.57302 -8.06137
-0.793956 -9.64296 -8.06273
-0.714641 -9.71291 -8.0641
-0.635325 -9.78285 -8.06546
-0.55601 -9.85279 -8.06683
-0.476697 -9.92274 -8.06819
-0.397384 -9.99268 -8.06956
-0.318068 -10.0626 -8.07092
-0.238752 -10.1326 -8.0723
-0.159437 -10.2025 -8.07367
-0.0801229 -10.2725 -8.07503
-0.000809193 -10.3424 -8.0764
0.0785046 -10.4123 -8.07776
0.157821 -10.4823 -8.07913
0.237136 -10.5522 -8.08049
0.31645 -10.6222 -8.08186
0.395764 -10.6921 -8.08322
0.475081 -10.7621 -8.08459
0.554394 -10.832 -8.08595
0.696177 -10.8214 -8.08975
0.77549 -10.8914 -8.09111
0.854804 -10.9613 -8.09248
0.934122 -11.0313 -8.09384
1.01344 -11.1012 -8.09521
1.09275 -11.1711 -8.09657
1.17206 -11.2411 -8.09795
1.25138 -11.311 -8.0993
1.3307 -11.381 -8.10068
1.41001 -11.4509 -8.10204
1.55179 -11.4404 -8.10583
1.6311 -11.5103 -8.10719
1.71042 -11.5803 -8.10857
1.8522 -11.5697 -8.11235
1.93151 -11.6396 -8.11371
2.01083 -11.7096 -8.11508
2.15261 -11.699 -8.11887
2.23192 -11.769 -8.12024
2.31124 -11.8389 -8.1216
2.89027 -11.2648 -8.14235
2.96959 -11.3347 -8.14372
3.11137 -11.3242 -8.14751
3.25315 -11.3136 -8.15129
