ply
format ascii 1.0
comment VCGLIB generated
element vertex 1084
property float x
property float y
property float z
element face 0
property list uchar int vertex_indices
end_header
3.35347 -12.0776 -6.83202
3.82593 -12.3106 -6.82127
4.05689 -12.3562 -6.81779
4.20734 -12.3394 -6.81674
4.27728 -12.2601 -6.8181
4.42772 -12.2432 -6.81705
4.49767 -12.1639 -6.81841
4.56761 -12.0846 -6.81978
4.71806 -12.0677 -6.81873
5.11002 -12.2383 -6.81039
5.26047 -12.2214 -6.80934
5.41092 -12.2046 -6.80827
5.48086 -12.1253 -6.80965
5.63131 -12.1084 -6.80859
5.70125 -12.0291 -6.80995
5.77119 -11.9498 -6.81133
5.92164 -11.9329 -6.81026
5.99159 -11.8536 -6.81163
6.14203 -11.8368 -6.81058
6.21198 -11.7575 -6.81194
6.28192 -11.6782 -6.81331
6.35186 -11.5988 -6.81467
6.50231 -11.582 -6.81361
6.57225 -11.5027 -6.81497
6.7227 -11.4858 -6.81392
6.87315 -11.469 -6.81287
7.0236 -11.4521 -6.81181
7.09354 -11.3728 -6.81317
7.16348 -11.2935 -6.81454
7.31393 -11.2766 -6.81348
7.38387 -11.1973 -6.81485
7.45382 -11.118 -6.81621
7.60427 -11.1012 -6.81516
7.67421 -11.0219 -6.81653
7.74415 -10.9425 -6.81789
7.8946 -10.9257 -6.81683
7.96454 -10.8464 -6.81819
8.03448 -10.7671 -6.81956
8.10443 -10.6877 -6.82092
8.25488 -10.6709 -6.81987
8.32482 -10.5916 -6.82124
8.39476 -10.5123 -6.8226
8.46471 -10.433 -6.82397
8.53465 -10.3536 -6.82533
8.6851 -10.3368 -6.82428
8.75504 -10.2575 -6.82564
8.90549 -10.2406 -6.82458
9.05593 -10.2238 -6.82353
9.12588 -10.1445 -6.82489
9.27633 -10.1276 -6.82384
9.34627 -10.0483 -6.82521
9.49672 -10.0315 -6.82414
9.56666 -9.95213 -6.82552
9.71711 -9.93528 -6.82446
9.86756 -9.91844 -6.82339
9.9375 -9.83912 -6.82477
10.0074 -9.75981 -6.82613
10.1579 -9.74296 -6.82507
10.2278 -9.66364 -6.82645
10.2978 -9.58433 -6.8278
10.4482 -9.56748 -6.82675
10.5987 -9.55063 -6.8257
10.7491 -9.53378 -6.82463
10.8191 -9.45447 -6.826
10.9695 -9.43762 -6.82495
11.0395 -9.3583 -6.82631
11.1094 -9.27899 -6.82768
11.2598 -9.26214 -6.82661
11.3298 -9.18283 -6.82799
11.3997 -9.10351 -6.82935
11.4697 -9.0242 -6.83072
11.5396 -8.94488 -6.83208
11.6096 -8.86557 -6.83345
11.76 -8.84872 -6.8324
11.83 -8.7694 -6.83376
11.8999 -8.69009 -6.83513
11.9698 -8.61077 -6.83649
12.1203 -8.59392 -6.83543
12.1902 -8.51461 -6.83679
12.2602 -8.43529 -6.83817
12.3301 -8.35598 -6.83954
12.4001 -8.27666 -6.8409
12.47 -8.19735 -6.84227
12.5399 -8.11804 -6.84363
12.6099 -8.03872 -6.845
12.6798 -7.9594 -6.84636
12.6693 -7.81763 -6.85014
12.7392 -7.73831 -6.85152
12.8092 -7.659 -6.85289
12.7986 -7.51722 -6.85667
12.8685 -7.4379 -6.85803
12.9385 -7.35859 -6.85941
12.9279 -7.21681 -6.86319
12.9979 -7.1375 -6.86456
13.0678 -7.05818 -6.86592
13.0572 -6.9164 -6.86972
13.1272 -6.83708 -6.87108
13.1971 -6.75777 -6.87245
13.1866 -6.61599 -6.87624
13.2565 -6.53667 -6.87759
13.2459 -6.39489 -6.88139
13.2354 -6.25311 -6.88518
13.2248 -6.11133 -6.88896
13.2143 -5.96955 -6.89276
13.2842 -5.89024 -6.89412
13.2736 -5.74846 -6.89792
13.2631 -5.60668 -6.9017
13.2525 -5.4649 -6.90549
13.081 -5.19819 -6.91412
12.9094 -4.93147 -6.92276
12.8988 -4.78969 -6.92654
12.8883 -4.64792 -6.93034
12.8777 -4.50613 -6.93413
12.8671 -4.36435 -6.93791
12.4541 -3.91025 -6.95383
12.363 -3.706 -6.96004
12.2719 -3.50175 -6.96625
12.2614 -3.35997 -6.97003
12.2508 -3.21819 -6.97383
12.2402 -3.07641 -6.97762
12.2297 -2.93463 -6.9814
12.2191 -2.79285 -6.9852
12.128 -2.58861 -6.99141
12.037 -2.38436 -6.99762
12.0264 -2.24258 -7.0014
12.0159 -2.1008 -7.0052
11.9248 -1.89656 -7.01141
6.03186 -11.899 -6.84026
6.05278 -11.7953 -6.84161
6.17464 -11.7055 -6.84056
6.90222 -11.6988 -6.82497
7.02408 -11.6089 -6.82391
7.045 -11.5053 -6.82527
7.16687 -11.4155 -6.82422
7.28873 -11.3256 -6.82317
7.6125 -11.2635 -6.81726
7.73437 -11.1737 -6.81619
7.85624 -11.0839 -6.81514
7.87716 -10.9802 -6.81651
7.99902 -10.8904 -6.81544
8.12089 -10.8006 -6.81439
8.24275 -10.7108 -6.81334
8.46557 -10.6348 -6.80986
8.58744 -10.545 -6.80879
8.70931 -10.4552 -6.80774
8.83118 -10.3654 -6.80669
8.85209 -10.2617 -6.80804
8.87301 -10.158 -6.80942
8.99487 -10.0682 -6.80836
9.31864 -10.0061 -6.80246
9.44051 -9.91628 -6.80141
9.56238 -9.82647 -6.80034
9.68425 -9.73665 -6.79929
10.109 -9.68837 -6.79095
10.2308 -9.59855 -6.7899
10.3527 -9.50874 -6.78885
10.4746 -9.41892 -6.78778
10.6974 -9.34295 -6.7843
11.1221 -9.29467 -6.77599
11.244 -9.20485 -6.77492
11.3658 -9.11504 -6.77386
11.4877 -9.02522 -6.77281
11.6096 -8.9354 -6.77176
11.7314 -8.84559 -6.77069
11.8533 -8.75577 -6.76964
11.9752 -8.66596 -6.76859
11.9961 -8.5623 -6.76994
12.017 -8.45864 -6.77132
12.1389 -8.36882 -6.77025
12.1598 -8.26516 -6.77162
12.2817 -8.17535 -6.77057
12.4035 -8.08553 -6.7695
12.4244 -7.98187 -6.77087
12.5463 -7.89205 -6.76982
12.5672 -7.78839 -6.77118
12.5881 -7.68473 -6.77255
12.71 -7.59492 -6.77148
12.7309 -7.49126 -6.77286
12.8528 -7.40144 -6.7718
12.8737 -7.29778 -6.77316
12.8946 -7.19412 -6.77454
13.0165 -7.1043 -6.77347
13.0374 -7.00064 -6.77484
13.0583 -6.89698 -6.77621
13.0792 -6.79332 -6.77757
13.1001 -6.68966 -6.77895
13.222 -6.59985 -6.77788
13.2429 -6.49619 -6.77925
13.2638 -6.39253 -6.78061
13.2848 -6.28887 -6.78198
13.3057 -6.18521 -6.78334
13.4275 -6.09539 -6.78229
13.4485 -5.99173 -6.78366
13.4694 -5.88807 -6.78502
13.3893 -5.77057 -6.7888
13.4102 -5.66691 -6.79018
13.4312 -5.56325 -6.79155
13.3511 -5.44574 -6.79533
13.372 -5.34208 -6.79669
13.393 -5.23842 -6.79807
13.3129 -5.12092 -6.80185
13.2329 -5.00341 -6.80565
13.2538 -4.89975 -6.80701
13.1738 -4.78225 -6.81079
13.1947 -4.67859 -6.81216
13.2156 -4.57493 -6.81352
13.1356 -4.45742 -6.81732
13.1565 -4.35376 -6.81868
13.0764 -4.23626 -6.82248
13.0973 -4.1326 -6.82384
13.0173 -4.01509 -6.82762
13.0382 -3.91143 -6.82899
12.9582 -3.79393 -6.83278
12.9791 -3.69027 -6.83415
12.8991 -3.57276 -6.83794
12.92 -3.4691 -6.83931
12.84 -3.3516 -6.84309
12.8609 -3.24794 -6.84447
12.7808 -3.13043 -6.84825
12.7008 -3.01293 -6.85204
12.6208 -2.89542 -6.85583
12.6417 -2.79176 -6.85719
12.5616 -2.67426 -6.86098
12.5825 -2.5706 -6.86235
12.5025 -2.4531 -6.86613
12.5234 -2.34944 -6.86751
12.4434 -2.23193 -6.87129
12.4643 -2.12827 -6.87267
12.3843 -2.01077 -6.87645
12.4052 -1.90711 -6.87781
12.3251 -1.7896 -6.88161
12.2451 -1.6721 -6.88539
12.266 -1.56844 -6.88676
12.2869 -1.46478 -6.88812
12.2069 -1.34727 -6.89191
12.2278 -1.24361 -6.89328
12.1478 -1.12611 -6.89706
12.1687 -1.02245 -6.89844
12.0887 -0.904944 -6.90222
12.0086 -0.787439 -6.90601
12.0295 -0.683777 -6.90738
12.0505 -0.58012 -6.90875
11.9704 -0.462614 -6.91254
11.9913 -0.358954 -6.91389
12.0122 -0.255295 -6.91527
11.9322 -0.13779 -6.91905
11.8522 -0.0202839 -6.92285
11.8731 0.0833757 -6.92421
11.793 0.200879 -6.92799
11.814 0.304538 -6.92937
11.8349 0.408201 -6.93073
11.7548 0.525704 -6.93452
11.7758 0.629365 -6.93588
11.7967 0.733023 -6.93726
11.7166 0.850528 -6.94104
11.7376 0.95419 -6.94241
11.6575 1.07169 -6.9462
11.6784 1.17535 -6.94756
11.5984 1.29286 -6.95135
11.5184 1.41036 -6.95514
11.4383 1.52787 -6.95892
11.4592 1.63153 -6.9603
11.4802 1.73519 -6.96167
11.4001 1.85269 -6.96545
11.421 1.95635 -6.96681
11.341 2.07386 -6.97061
11.3619 2.17751 -6.97197
11.2819 2.29502 -6.97577
11.3028 2.39868 -6.97713
11.2227 2.51619 -6.98091
11.2437 2.61985 -6.98228
11.2646 2.72351 -6.98364
11.2855 2.82717 -6.98502
11.3064 2.93082 -6.98637
11.2264 3.04833 -6.99017
11.2473 3.15199 -6.99153
11.1673 3.2695 -6.99533
11.0872 3.387 -6.99911
10.8053 3.53219 -7.00775
10.7252 3.6497 -7.01154
10.7461 3.75336 -7.01291
10.6661 3.87086 -7.01669
10.687 3.97452 -7.01807
10.7079 4.07818 -7.01942
10.7289 4.18185 -7.0208
10.7498 4.2855 -7.02216
10.7707 4.38916 -7.02353
10.6907 4.50667 -7.02731
10.7116 4.61033 -7.02869
10.6315 4.72783 -7.03247
10.4505 4.85918 -7.03868
10.4715 4.96284 -7.04005
10.3914 5.08034 -7.04384
10.4123 5.184 -7.0452
10.3323 5.30151 -7.049
10.3532 5.40517 -7.05035
10.2732 5.52267 -7.05415
10.1931 5.64018 -7.05794
9.50739 5.84075 -7.07626
9.42736 5.95825 -7.08005
9.34732 6.07576 -7.08385
9.06538 6.22095 -7.09248
12.555 -8.20702 -6.79826
12.5213 -8.10679 -6.79962
12.4876 -8.00656 -6.80099
12.4539 -7.90633 -6.80235
12.8919 -7.61367 -6.79161
12.9526 -7.47495 -6.79056
13.2962 -7.22078 -6.78223
13.5456 -7.00509 -6.77632
13.6062 -6.86637 -6.77527
13.6668 -6.72766 -6.77422
13.6331 -6.62743 -6.77557
13.6937 -6.48871 -6.77452
13.66 -6.38848 -6.77588
13.6263 -6.28825 -6.77725
13.6869 -6.14954 -6.7762
13.7476 -6.01082 -6.77513
13.7139 -5.91059 -6.7765
13.7745 -5.77187 -6.77545
13.7408 -5.67164 -6.77681
13.8014 -5.53293 -6.77576
13.7677 -5.4327 -6.77711
13.734 -5.33247 -6.77849
13.7946 -5.19375 -6.77744
13.7609 -5.09352 -6.77879
13.7272 -4.99329 -6.78017
13.6934 -4.89306 -6.78152
13.6597 -4.79283 -6.7829
13.626 -4.6926 -6.78426
13.5923 -4.59237 -6.78563
13.5586 -4.49214 -6.78699
13.5249 -4.39191 -6.78836
13.4911 -4.29168 -6.78972
13.4574 -4.19145 -6.79109
13.4237 -4.09122 -6.79245
13.39 -3.99099 -6.79382
13.3563 -3.89076 -6.79518
13.3226 -3.79053 -6.79655
13.2888 -3.6903 -6.79791
13.3495 -3.55159 -6.79686
13.3158 -3.45135 -6.79823
13.282 -3.35112 -6.79959
13.2483 -3.2509 -6.80096
13.2146 -3.15067 -6.80232
13.1809 -3.05044 -6.8037
13.1472 -2.95021 -6.80505
13.1135 -2.84998 -6.80643
13.0797 -2.74975 -6.80779
13.046 -2.64952 -6.80916
13.1067 -2.5108 -6.80811
13.0729 -2.41057 -6.80946
13.0392 -2.31034 -6.81084
13.0055 -2.21011 -6.81219
12.9718 -2.10988 -6.81357
12.9381 -2.00965 -6.81493
12.9044 -1.90942 -6.8163
12.8706 -1.80919 -6.81766
12.8369 -1.70896 -6.81903
12.8976 -1.57024 -6.81796
12.8638 -1.47001 -6.81934
12.8301 -1.36978 -6.82071
12.7964 -1.26955 -6.82207
12.7627 -1.16932 -6.82344
12.729 -1.06909 -6.8248
12.6953 -0.968863 -6.82617
12.6615 -0.868635 -6.82753
12.6278 -0.768405 -6.8289
12.5941 -0.668174 -6.83026
12.5604 -0.567944 -6.83163
12.5267 -0.467714 -6.83299
12.4929 -0.367486 -6.83437
12.4592 -0.267254 -6.83572
12.4255 -0.167024 -6.8371
12.3918 -0.0667946 -6.83846
12.3581 0.0334353 -6.83983
12.3244 0.133664 -6.84119
12.2906 0.233895 -6.84256
12.2569 0.334125 -6.84392
12.2232 0.434355 -6.84529
12.1895 0.534584 -6.84665
12.1558 0.634815 -6.84802
12.1221 0.735044 -6.8494
12.0883 0.835274 -6.85075
12.0546 0.935506 -6.85213
12.0209 1.03573 -6.85349
11.9872 1.13596 -6.85486
12.0478 1.27468 -6.85379
12.0141 1.37491 -6.85516
11.9804 1.47514 -6.85652
11.9467 1.57537 -6.85789
11.913 1.6756 -6.85925
11.8792 1.77583 -6.86063
11.8455 1.87606 -6.86198
11.8118 1.97629 -6.86336
11.7781 2.07652 -6.86473
11.7444 2.17675 -6.86609
11.7107 2.27698 -6.86746
11.6769 2.37721 -6.86882
11.6432 2.47744 -6.87019
11.6095 2.57767 -6.87155
11.6701 2.71639 -6.8705
11.6364 2.81661 -6.87186
11.6027 2.91685 -6.87323
11.569 3.01708 -6.87459
11.5353 3.1173 -6.87596
11.5016 3.21754 -6.87732
11.4678 3.31776 -6.87869
11.4341 3.418 -6.88007
11.4004 3.51823 -6.88142
11.461 3.65694 -6.88037
11.4273 3.75717 -6.88173
11.3936 3.8574 -6.8831
11.3599 3.95763 -6.88446
11.3262 4.05786 -6.88583
11.2924 4.15809 -6.88719
11.2587 4.25832 -6.88857
11.225 4.35855 -6.88992
11.1913 4.45878 -6.8913
11.1576 4.55901 -6.89265
11.2182 4.69772 -6.8916
11.1845 4.79796 -6.89297
11.1508 4.89819 -6.89433
11.1171 4.99842 -6.89571
11.0833 5.09864 -6.89706
11.0496 5.19887 -6.89844
11.0159 5.29911 -6.8998
10.9822 5.39934 -6.90117
10.8541 5.46108 -6.90495
10.8204 5.56131 -6.90633
10.6923 5.62305 -6.91011
10.6586 5.72328 -6.91148
10.6249 5.82351 -6.91284
10.4968 5.88526 -6.91663
10.4631 5.98549 -6.918
10.3351 6.04723 -6.92178
10.3013 6.14746 -6.92316
10.1733 6.2092 -6.92694
10.0452 6.27095 -6.93073
9.91714 6.33269 -6.93452
9.88343 6.43292 -6.93588
9.84971 6.53315 -6.93726
9.816 6.63338 -6.93861
9.68793 6.69512 -6.94241
9.55986 6.75687 -6.9462
9.43179 6.81861 -6.94998
9.30373 6.88036 -6.95378
9.27001 6.98058 -6.95514
9.23629 7.08081 -6.95651
9.10823 7.14256 -6.9603
8.98016 7.2043 -6.96408
8.75775 7.22756 -6.97029
8.62968 7.2893 -6.97409
8.50161 7.35104 -6.97787
8.4679 7.45127 -6.97925
8.33983 7.51302 -6.98303
8.21177 7.57476 -6.98682
8.0837 7.6365 -6.99062
8.04998 7.73674 -6.99197
7.92192 7.79848 -6.99576
7.8882 7.89871 -6.99713
7.76014 7.96045 -7.00092
7.72642 8.06068 -7.00229
7.59835 8.12243 -7.00607
7.56463 8.22265 -7.00745
11.686 3.0209 -6.8455
11.7316 3.25185 -6.84203
11.6523 3.32179 -6.84338
11.6354 3.47224 -6.84233
11.5561 3.54218 -6.8437
11.5393 3.69263 -6.84264
11.4599 3.76258 -6.84401
11.3806 3.83252 -6.84537
11.3013 3.90246 -6.84674
11.222 3.9724 -6.8481
11.2051 4.12285 -6.84705
11.2508 4.35381 -6.84357
11.2964 4.58476 -6.84009
11.2795 4.73521 -6.83904
11.2627 4.88565 -6.83797
11.1834 4.95559 -6.83934
11.104 5.02554 -6.8407
11.0872 5.17599 -6.83965
11.0079 5.24593 -6.84102
10.9286 5.31588 -6.84238
10.9117 5.46632 -6.84132
10.8324 5.53627 -6.84268
10.8156 5.68671 -6.84163
10.7362 5.75666 -6.843
10.7194 5.9071 -6.84193
10.6401 5.97705 -6.84331
10.6232 6.1275 -6.84225
10.5439 6.19744 -6.84361
10.4646 6.26738 -6.84499
10.3853 6.33732 -6.84634
10.306 6.40727 -6.84772
10.2891 6.55772 -6.84665
10.2098 6.62766 -6.84802
10.1305 6.6976 -6.8494
10.1136 6.84805 -6.84833
10.0343 6.91799 -6.8497
9.95501 6.98793 -6.85106
9.8757 7.05788 -6.85243
9.79638 7.12782 -6.85379
9.71707 7.19777 -6.85516
9.63775 7.26771 -6.85652
9.62091 7.41816 -6.85547
9.54159 7.4881 -6.85684
9.46228 7.55804 -6.8582
9.38296 7.62799 -6.85957
9.30365 7.69793 -6.86093
9.22433 7.76787 -6.8623
9.14502 7.83782 -6.86366
9.0657 7.90776 -6.86504
8.92392 7.8972 -6.86882
8.84461 7.96714 -6.87019
8.76529 8.03708 -6.87155
8.68597 8.10703 -6.87292
8.5442 8.09647 -6.87671
8.46488 8.16641 -6.87808
8.38557 8.23636 -6.87944
8.24379 8.22579 -6.88322
8.16447 8.29573 -6.8846
8.02269 8.28517 -6.88838
7.94338 8.35512 -6.88976
7.86406 8.42506 -6.89111
7.78475 8.495 -6.89249
7.70543 8.56494 -6.89384
7.62612 8.63489 -6.89522
7.48434 8.62433 -6.899
7.40502 8.69427 -6.90038
7.32571 8.76421 -6.90173
7.18393 8.75365 -6.90553
7.10461 8.82359 -6.90689
6.96283 8.81303 -6.91068
6.82105 8.80247 -6.91447
6.67927 8.79191 -6.91826
6.53749 8.78135 -6.92204
6.39571 8.77079 -6.92584
6.3164 8.84073 -6.9272
6.17462 8.83017 -6.931
6.0953 8.90011 -6.93236
5.95352 8.88955 -6.93614
5.81174 8.87899 -6.93994
5.66996 8.86842 -6.94373
5.52818 8.85786 -6.94751
5.32393 8.7668 -6.95372
5.18215 8.75624 -6.95752
5.04038 8.74568 -6.9613
4.89859 8.73511 -6.96509
4.81928 8.80505 -6.96646
4.6775 8.79449 -6.97025
4.53572 8.78393 -6.97404
4.39394 8.77337 -6.97783
4.18969 8.6823 -6.98404
3.79805 8.34972 -6.99753
3.65627 8.33916 -7.00131
10.1783 6.69027 -6.8562
10.0885 6.81213 -6.85515
9.99866 6.93401 -6.8541
9.90884 7.05587 -6.85303
9.80518 7.07679 -6.8544
9.71537 7.19866 -6.85335
9.61171 7.21957 -6.85471
9.52189 7.34144 -6.85365
9.43208 7.4633 -6.8526
9.36995 7.78707 -6.84669
9.28013 7.90894 -6.84563
9.19032 8.0308 -6.84457
9.1005 8.15267 -6.84352
8.99684 8.17359 -6.84488
8.90703 8.29546 -6.84383
8.80336 8.31637 -6.8452
8.71355 8.43824 -6.84413
8.60989 8.45916 -6.8455
8.52007 8.58102 -6.84445
8.41641 8.60194 -6.84581
8.31275 8.62285 -6.84718
8.20909 8.64377 -6.84854
8.10543 8.66468 -6.84991
8.01562 8.78655 -6.84885
7.91196 8.80747 -6.85022
7.8083 8.82838 -6.85158
7.71848 8.95024 -6.85052
7.61482 8.97116 -6.8519
7.51116 8.99208 -6.85326
7.42135 9.11395 -6.8522
7.31768 9.13486 -6.85356
7.21402 9.15577 -6.85493
7.11037 9.17669 -6.85631
7.00671 9.19761 -6.85767
6.90304 9.21852 -6.85904
6.79938 9.23943 -6.8604
6.69572 9.26035 -6.86177
6.59206 9.28126 -6.86313
6.4884 9.30218 -6.8645
6.38474 9.32309 -6.86586
6.28108 9.34401 -6.86723
6.17742 9.36493 -6.86859
6.07376 9.38584 -6.86996
5.95626 9.30581 -6.87375
5.8526 9.32672 -6.87512
5.74894 9.34763 -6.87648
5.64528 9.36855 -6.87785
5.54162 9.38947 -6.87921
5.43796 9.41038 -6.88058
5.3343 9.43129 -6.88194
5.23064 9.45221 -6.88332
5.12698 9.47312 -6.88467
5.02332 9.49404 -6.88605
4.90581 9.414 -6.88983
4.80215 9.43492 -6.8912
4.69849 9.45583 -6.89256
4.58099 9.3758 -6.89635
4.47733 9.39671 -6.89772
4.37367 9.41763 -6.89909
4.27001 9.43854 -6.90045
4.16635 9.45946 -6.90182
4.04884 9.37942 -6.90561
3.94518 9.40034 -6.90697
3.82768 9.3203 -6.91077
3.71017 9.24026 -6.91455
3.60651 9.26118 -6.91592
3.48901 9.18114 -6.91971
3.37151 9.10111 -6.92349
3.254 9.02106 -6.92729
3.15034 9.04198 -6.92865
3.03284 8.96194 -6.93243
2.91533 8.88191 -6.93623
2.81167 8.90283 -6.93759
2.69417 8.82278 -6.94139
2.56282 8.6418 -6.9476
2.44531 8.56176 -6.95139
2.34165 8.58268 -6.95276
2.22415 8.50264 -6.95654
2.10664 8.4226 -6.96033
2.00298 8.44351 -6.9617
1.88548 8.36348 -6.96548
1.78182 8.3844 -6.96686
1.67816 8.40531 -6.96822
1.56065 8.32527 -6.972
1.45699 8.34619 -6.97337
1.33949 8.26615 -6.97716
1.22199 8.18612 -6.98096
1.10448 8.10608 -6.98474
0.973132 7.92509 -6.99095
7.35701 9.05023 -6.89827
7.2183 9.11086 -6.89722
7.11807 9.07714 -6.89859
6.97935 9.13778 -6.89752
6.84064 9.19841 -6.89647
6.70192 9.25904 -6.89542
6.5632 9.31967 -6.89436
6.386 9.47465 -6.89087
6.17031 9.72399 -6.88498
6.0316 9.78461 -6.88391
5.93137 9.7509 -6.88528
5.83114 9.71718 -6.88664
5.69242 9.77781 -6.88559
5.5537 9.83845 -6.88454
5.45347 9.80473 -6.88589
5.35324 9.77102 -6.88727
5.21453 9.83164 -6.88622
5.1143 9.79792 -6.88757
5.01407 9.76421 -6.88895
4.91384 9.73049 -6.8903
4.77512 9.79113 -6.88925
4.67489 9.75741 -6.89061
4.57466 9.72369 -6.89198
4.47443 9.68998 -6.89334
4.33572 9.75061 -6.89229
4.23549 9.71689 -6.89366
4.13526 9.68317 -6.89502
4.03503 9.64946 -6.89639
3.9348 9.61574 -6.89775
3.83457 9.58202 -6.89912
3.73434 9.5483 -6.90048
3.63411 9.51459 -6.90186
3.53388 9.48087 -6.90321
3.43365 9.44715 -6.90459
3.33342 9.41344 -6.90594
3.23319 9.37972 -6.90732
3.13296 9.346 -6.90868
3.03273 9.31229 -6.91005
2.9325 9.27857 -6.91141
2.83227 9.24485 -6.91278
2.69355 9.30548 -6.91173
2.59332 9.27177 -6.91309
2.49309 9.23805 -6.91446
2.39286 9.20433 -6.91582
2.29263 9.17061 -6.91719
2.1924 9.1369 -6.91855
2.13066 9.00883 -6.92235
2.03043 8.97512 -6.92371
1.9302 8.9414 -6.92508
1.82997 8.90768 -6.92644
1.72974 8.87396 -6.92781
1.62951 8.84025 -6.92917
1.52928 8.80653 -6.93054
1.42905 8.77282 -6.9319
1.32882 8.7391 -6.93327
1.22859 8.70538 -6.93463
1.12836 8.67166 -6.936
1.02813 8.63795 -6.93736
0.927898 8.60423 -6.93874
0.827669 8.57051 -6.94009
0.727438 8.53679 -6.94147
0.627208 8.50308 -6.94284
0.526978 8.46936 -6.9442
0.465235 8.34129 -6.94798
0.365006 8.30758 -6.94936
0.264775 8.27386 -6.95071
0.164544 8.24014 -6.95209
0.102802 8.11208 -6.95587
0.00257349 8.07836 -6.95724
-0.0976562 8.04464 -6.9586
-0.197886 8.01092 -6.95998
-0.298116 7.97721 -6.96133
-0.398347 7.94349 -6.96271
-0.460091 7.81543 -6.96649
-0.560322 7.78171 -6.96786
-0.622064 7.65364 -6.97165
-0.722294 7.61993 -6.97302
-0.784038 7.49186 -6.97681
-0.884266 7.45814 -6.97816
-0.946013 7.33008 -6.98196
-1.04624 7.29636 -6.98332
-1.10799 7.16829 -6.98712
-1.20822 7.13458 -6.98848
-1.30844 7.10086 -6.98985
-1.40868 7.06714 -6.99121
-1.47042 6.93908 -6.995
1.39232 9.46391 -6.9471
1.24187 9.44706 -6.94604
1.17193 9.36775 -6.9474
1.10199 9.28843 -6.94878
0.951538 9.27158 -6.94771
0.881595 9.19227 -6.94908
0.731147 9.17542 -6.94803
0.661205 9.0961 -6.94939
0.510757 9.07926 -6.94833
0.440814 8.99994 -6.94969
0.290365 8.98309 -6.94864
0.220422 8.90378 -6.95001
0.150481 8.82446 -6.95137
3.29018e-05 8.80761 -6.95032
-0.0699105 8.7283 -6.95168
-0.22036 8.71145 -6.95062
-0.290303 8.63214 -6.952
-0.360243 8.55282 -6.95335
-0.510692 8.53597 -6.9523
-0.580636 8.45666 -6.95366
-0.65058 8.37734 -6.95503
-0.720523 8.29803 -6.95639
-0.870969 8.28118 -6.95534
-0.940913 8.20186 -6.95671
-1.01086 8.12255 -6.95807
-1.0808 8.04323 -6.95944
-1.15074 7.96392 -6.9608
-1.22068 7.8846 -6.96217
-1.29063 7.80529 -6.96353
-1.36057 7.72598 -6.9649
-1.43052 7.64666 -6.96626
-1.50046 7.56734 -6.96764
-1.5704 7.48803 -6.96899
-1.64034 7.40872 -6.97037
-1.71029 7.3294 -6.97173
-1.86074 7.31256 -6.97067
-1.93068 7.23324 -6.97205
-2.00062 7.15392 -6.9734
-2.07057 7.07461 -6.97478
-2.14051 6.9953 -6.97614
-2.21045 6.91598 -6.97751
-2.2804 6.83667 -6.97887
-2.35034 6.75735 -6.98024
-2.42028 6.67804 -6.9816
-2.49023 6.59872 -6.98297
-2.56017 6.51941 -6.98433
-2.63011 6.44009 -6.9857
-2.70006 6.36078 -6.98706
-2.77 6.28146 -6.98843
-2.75944 6.13968 -6.99222
-2.82938 6.06037 -6.99359
-2.89932 5.98105 -6.99495
-2.96926 5.90174 -6.99632
-3.03921 5.82242 -6.99768
-3.10915 5.74311 -6.99905
-3.17909 5.66379 -7.00041
-3.24904 5.58448 -7.00179
-3.31898 5.50516 -7.00314
-3.38892 5.42585 -7.00452
-3.45887 5.34654 -7.00589
-3.52881 5.26722 -7.00725
-3.59875 5.1879 -7.00862
-3.6687 5.10859 -7.00998
-3.73864 5.02928 -7.01135
-3.72808 4.8875 -7.01514
-3.79802 4.80818 -7.01649
-3.86796 4.72887 -7.01787
-3.93791 4.64955 -7.01924
-3.92735 4.50777 -7.02303
-3.99729 4.42845 -7.02438
-3.98673 4.28668 -7.02818
-4.05667 4.20736 -7.02954
-3.96561 4.00312 -7.03575
-3.87454 3.79887 -7.04196
-3.86397 3.65709 -7.04576
-3.85342 3.51531 -7.04955
-3.76235 3.31106 -7.05576
-3.75179 3.16928 -7.05956
-3.74123 3.0275 -7.06334
-3.73066 2.88572 -7.06712
-3.35969 6.63222 -6.99033
-3.48155 6.5424 -6.98926
-3.50247 6.43874 -6.99063
-3.52338 6.33508 -6.99199
-3.5443 6.23142 -6.99336
-3.56521 6.12776 -6.99472
-3.58613 6.0241 -6.99609
-3.60704 5.92044 -6.99747
-3.72891 5.83063 -6.9964
-3.74983 5.72697 -6.99777
-3.77074 5.62331 -6.99913
-3.79165 5.51964 -7.0005
-3.81257 5.41599 -7.00186
-3.83349 5.31233 -7.00323
-3.8544 5.20867 -7.00459
-3.87531 5.10501 -7.00597
-3.89623 5.00134 -7.00732
-4.0181 4.91153 -7.00627
-4.03901 4.80787 -7.00764
-4.05993 4.70421 -7.009
-4.08084 4.60055 -7.01038
-4.10176 4.49689 -7.01173
-4.12267 4.39323 -7.01311
-4.14359 4.28957 -7.01447
-4.1645 4.18591 -7.01584
-4.18542 4.08225 -7.0172
-4.20633 3.97859 -7.01857
-4.22725 3.87493 -7.01993
-4.24816 3.77127 -7.0213
-4.37003 3.68145 -7.02025
-4.39094 3.57779 -7.02161
-4.41186 3.47413 -7.02298
-4.43278 3.37047 -7.02434
-4.45369 3.26681 -7.02571
-4.4746 3.16315 -7.02707
-4.39457 3.04565 -7.03087
-4.41548 2.94199 -7.03223
-4.4364 2.83833 -7.0336
-4.55827 2.74851 -7.03253
-4.57918 2.64485 -7.03391
-4.6001 2.54119 -7.03526
-4.62101 2.43753 -7.03664
-4.74288 2.34771 -7.03558
-4.7638 2.24405 -7.03694
-4.78471 2.14039 -7.03831
-4.80563 2.03673 -7.03967
-4.82654 1.93307 -7.04105
-4.84746 1.82941 -7.0424
-4.86837 1.72575 -7.04378
-4.88929 1.62209 -7.04514
-5.01115 1.53228 -7.04408
-5.03207 1.42862 -7.04546
-5.05299 1.32496 -7.04681
-5.0739 1.2213 -7.04819
-5.09481 1.11764 -7.04955
-5.01478 1.00013 -7.05333
-5.03569 0.896473 -7.0547
-5.05661 0.792811 -7.05606
-5.07752 0.689151 -7.05743
-4.99748 0.571646 -7.06122
-5.0184 0.467985 -7.06259
-5.03932 0.364325 -7.06395
-4.95928 0.246822 -7.06775
-5.08114 0.157005 -7.06668
-5.10206 0.0533459 -7.06805
-5.12298 -0.0503156 -7.06941
-5.14389 -0.153975 -7.07079
-5.1648 -0.257637 -7.07216
-5.18572 -0.361295 -7.07352
-5.20663 -0.464956 -7.07489
-5.22755 -0.568616 -7.07625
-5.14751 -0.686119 -7.08003
-5.16843 -0.789781 -7.08141
-5.18934 -0.893441 -7.08276
-5.21026 -0.9971 -7.08414
-5.23117 -1.10076 -7.08551
-5.25209 -1.20442 -7.08687
-5.17205 -1.32193 -7.09065
-5.19297 -1.42558 -7.09203
-5.21388 -1.52925 -7.09338
-5.2348 -1.6329 -7.09476
-5.15476 -1.75041 -7.09854
-5.17568 -1.85407 -7.09991
-5.19659 -1.95773 -7.10127
-5.21751 -2.06139 -7.10265
-5.23842 -2.16505 -7.104
-5.25934 -2.26871 -7.10538
-5.28025 -2.37237 -7.10674
-5.30117 -2.47603 -7.10811
-5.22113 -2.59354 -7.11189
-5.24205 -2.6972 -7.11327
-5.26296 -2.80086 -7.11462
-5.28388 -2.90452 -7.116
-5.71934 -0.63092 -7.02483
-5.77997 -0.769635 -7.02377
-5.8406 -0.908352 -7.02272
-5.90124 -1.04707 -7.02165
-5.86752 -1.1473 -7.02303
-5.8338 -1.24753 -7.02438
-5.80008 -1.34776 -7.02576
-5.76637 -1.44799 -7.02711
-5.827 -1.5867 -7.02606
-5.79328 -1.68694 -7.02744
-5.75956 -1.78716 -7.02879
-5.8202 -1.92588 -7.02774
-5.78648 -2.02611 -7.0291
-5.75276 -2.12634 -7.03047
-5.71905 -2.22657 -7.03183
-5.68533 -2.3268 -7.0332
-5.65161 -2.42703 -7.03458
-5.6179 -2.52726 -7.03593
-5.58418 -2.62749 -7.03731
-5.55046 -2.72772 -7.03867
-5.51674 -2.82795 -7.04004
-5.48303 -2.92818 -7.0414
-5.44931 -3.02841 -7.04277
-5.41559 -3.12864 -7.04413
-5.38187 -3.22887 -7.0455
-5.34816 -3.3291 -7.04686
-5.31444 -3.42933 -7.04823
-5.18638 -3.49107 -7.05202
-5.15266 -3.5913 -7.05339
-5.11894 -3.69153 -7.05475
-5.08523 -3.79176 -7.05612
-5.05151 -3.89199 -7.05748
-5.01779 -3.99222 -7.05885
-4.98408 -4.09245 -7.06021
-4.95036 -4.19268 -7.06158
-4.82229 -4.25443 -7.06537
-4.78857 -4.35466 -7.06674
-4.75486 -4.45489 -7.0681
-4.72114 -4.55511 -7.06947
-4.59307 -4.61686 -7.07326
-4.55936 -4.71709 -7.07462
-4.43129 -4.77883 -7.07841
-4.30323 -4.84058 -7.0822
-4.17516 -4.90232 -7.08598
-4.04709 -4.96406 -7.08978
-4.01338 -5.06429 -7.09114
-3.88531 -5.12604 -7.09494
-3.85159 -5.22627 -7.0963
-3.91223 -5.36498 -7.09525
-3.87851 -5.46521 -7.0966
-3.84479 -5.56544 -7.09798
-3.81108 -5.66567 -7.09933
-3.68301 -5.72742 -7.10313
-3.64929 -5.82764 -7.10449
-3.61557 -5.92788 -7.10587
-3.48751 -5.98962 -7.10965
-3.45379 -6.08985 -7.11102
-3.42008 -6.19008 -7.11238
-3.38636 -6.29031 -7.11375
-3.25829 -6.35205 -7.11754
-3.22458 -6.45228 -7.11891
-3.09651 -6.51403 -7.1227
-3.06279 -6.61426 -7.12405
3.51986 -11.1421 -6.15993
-5.91365 -3.50111 -6.99072
-5.8968 -3.65156 -6.98967
-5.81749 -3.7215 -6.99103
-5.73818 -3.79145 -6.9924
-5.72133 -3.9419 -6.99135
-5.64201 -4.01184 -6.99271
-5.5627 -4.08178 -6.99408
-5.54585 -4.23223 -6.99301
-5.46653 -4.30217 -6.99438
-5.38722 -4.37212 -6.99576
-5.30791 -4.44206 -6.99712
-5.22859 -4.512 -6.99849
-5.21174 -4.66245 -6.99742
-5.13243 -4.7324 -6.99879
-5.05311 -4.80234 -7.00015
-5.03626 -4.95278 -6.9991
-4.95695 -5.02273 -7.00047
-4.87763 -5.09267 -7.00183
-4.79832 -5.16261 -7.0032
-4.719 -5.23256 -7.00456
-4.63969 -5.3025 -7.00594
-4.56038 -5.37244 -7.00729
-4.54353 -5.52289 -7.00624
-4.46421 -5.59283 -7.0076
-4.44736 -5.74328 -7.00655
-4.36805 -5.81323 -7.00792
-4.28873 -5.88317 -7.00928
-4.20942 -5.95311 -7.01065
-4.13011 -6.02306 -7.01201
-4.05079 -6.093 -7.01338
-4.03394 -6.24344 -7.01233
-3.95462 -6.31339 -7.01369
-3.87531 -6.38333 -7.01506
-3.85846 -6.53378 -7.01399
-3.77914 -6.60372 -7.01537
-3.69983 -6.67367 -7.01672
-3.62052 -6.74361 -7.0181
-3.60367 -6.89406 -7.01704
-3.52435 -6.964 -7.0184
-3.44504 -7.03395 -7.01978
-3.36572 -7.10389 -7.02113
-3.28641 -7.17383 -7.02251
-3.2071 -7.24378 -7.02386
-3.12778 -7.31372 -7.02524
-3.04846 -7.38366 -7.0266
-3.03161 -7.53411 -7.02554
-2.9523 -7.60405 -7.0269
-2.87299 -7.67399 -7.02827
-2.79367 -7.74393 -7.02965
-2.71436 -7.81388 -7.03101
-2.63504 -7.88382 -7.03238
-2.61819 -8.03427 -7.03131
-2.53888 -8.10421 -7.03268
-2.45956 -8.17416 -7.03404
-2.38025 -8.2441 -7.03542
-2.30093 -8.31404 -7.03677
-2.22162 -8.38399 -7.03815
-2.1423 -8.45393 -7.03951
-2.06299 -8.52387 -7.04088
-1.98368 -8.59382 -7.04224
-1.90436 -8.66376 -7.04361
-1.82505 -8.7337 -7.04498
-1.74573 -8.80364 -7.04634
-1.66642 -8.87359 -7.04771
-1.5871 -8.94353 -7.04907
-1.50779 -9.01348 -7.05045
-1.42847 -9.08342 -7.0518
-1.34916 -9.15336 -7.05318
-1.26984 -9.2233 -7.05453
-1.19053 -9.29325 -7.05591
-1.11121 -9.36319 -7.05727
-1.0319 -9.43313 -7.05864
-0.952584 -9.50308 -7.06
-0.87327 -9.57302 -7.06137
-0.793956 -9.64296 -7.06273
-0.714641 -9.71291 -7.0641
-0.635325 -9.78285 -7.06546
-0.55601 -9.85279 -7.06683
-0.476697 -9.92274 -7.06819
-0.397384 -9.99268 -7.06956
-0.318068 -10.0626 -7.07092
-0.238752 -10.1326 -7.0723
-0.159437 -10.2025 -7.07367
-0.0801229 -10.2725 -7.07503
-0.000809193 -10.3424 -7.0764
0.0785046 -10.4123 -7.07776
0.157821 -10.4823 -7.07913
0.237136 -10.5522 -7.08049
0.31645 -10.6222 -7.08186
0.458231 -10.6116 -7.08565
0.537546 -10.6815 -7.08701
0.616861 -10.7515 -7.08838
0.696177 -10.8214 -7.08975
0.77549 -10.8914 -7.09111
0.854804 -10.9613 -7.09248
0.934122 -11.0313 -7.09384
1.0759 -11.0207 -7.09763
1.15521 -11.0906 -7.099
1.23453 -11.1606 -7.10036
1.31384 -11.2305 -7.10173
1.39316 -11.3005 -7.1031
1.47247 -11.3704 -7.10446
1.61425 -11.3599 -7.10825
1.69357 -11.4298 -7.10962
1.77288 -11.4997 -7.11098
1.8522 -11.5697 -7.11235
1.99398 -11.5591 -7.11613
2.07329 -11.6291 -7.11751
2.21507 -11.6185 -7.12129
2.41932 -11.5274 -7.1275
2.68603 -11.3559 -7.13614
2.82781 -11.3453 -7.13992
2.96959 -11.3347 -7.14372
3.11137 -11.3242 -7.14751
3.25315 -11.3136 -7.15129
