ply
format ascii 1.0
comment VCGLIB generated
element vertex 1112
property float x
property float y
property float z
element face 0
property list uchar int vertex_indices
end_header
3.81538 -12.1688 -5.82506
4.12683 -12.2769 -5.81915
4.35778 -12.3225 -5.81567
4.50823 -12.3057 -5.81462
4.65868 -12.2888 -5.81357
4.72862 -12.2095 -5.81493
4.87907 -12.1927 -5.81387
4.94901 -12.1134 -5.81523
5.09946 -12.0965 -5.81418
5.24991 -12.0797 -5.81313
5.40036 -12.0628 -5.81207
5.4703 -11.9835 -5.81343
5.62074 -11.9666 -5.81238
5.77119 -11.9498 -5.81133
5.84114 -11.8705 -5.81268
5.99159 -11.8536 -5.81163
6.06153 -11.7743 -5.81299
6.21198 -11.7575 -5.81194
6.28192 -11.6782 -5.81331
6.35186 -11.5988 -5.81467
6.50231 -11.582 -5.81361
6.57225 -11.5027 -5.81497
6.6422 -11.4234 -5.81635
6.79264 -11.4065 -5.81529
6.86259 -11.3272 -5.81665
7.01304 -11.3104 -5.8156
7.08298 -11.231 -5.81696
7.15292 -11.1517 -5.81833
7.30337 -11.1349 -5.81728
7.37331 -11.0556 -5.81863
7.44326 -10.9762 -5.82001
7.5132 -10.8969 -5.82137
7.58314 -10.8176 -5.82274
7.73359 -10.8008 -5.82167
7.80353 -10.7214 -5.82304
7.95398 -10.7046 -5.82199
8.02392 -10.6253 -5.82335
8.09387 -10.546 -5.82472
8.24432 -10.5291 -5.82365
8.31426 -10.4498 -5.82503
8.3842 -10.3705 -5.82639
8.45414 -10.2912 -5.82776
8.60459 -10.2743 -5.82671
8.75504 -10.2575 -5.82564
8.90549 -10.2406 -5.82458
8.97543 -10.1613 -5.82596
9.04537 -10.082 -5.82732
9.11532 -10.0027 -5.82869
9.26577 -9.98583 -5.82762
9.33571 -9.90652 -5.82899
9.40565 -9.8272 -5.83037
9.5561 -9.81035 -5.8293
9.70655 -9.79351 -5.82825
9.77649 -9.71419 -5.82961
9.92694 -9.69734 -5.82855
9.99688 -9.61803 -5.82993
10.1473 -9.60118 -5.82886
10.2173 -9.52186 -5.83023
10.3677 -9.50501 -5.82918
10.4377 -9.4257 -5.83054
10.5881 -9.40885 -5.82948
10.7386 -9.392 -5.82843
10.8085 -9.31269 -5.82979
10.8784 -9.23337 -5.83116
11.0289 -9.21652 -5.83009
11.0988 -9.13721 -5.83147
11.1688 -9.05789 -5.83282
11.2387 -8.97858 -5.8342
11.3892 -8.96173 -5.83315
11.4591 -8.88241 -5.8345
11.5291 -8.8031 -5.83588
11.6795 -8.78625 -5.83481
11.7494 -8.70694 -5.83618
11.8194 -8.62762 -5.83755
11.8893 -8.54831 -5.83891
11.9593 -8.46899 -5.84029
12.1097 -8.45214 -5.83922
12.1797 -8.37283 -5.84059
12.2496 -8.29351 -5.84195
12.3196 -8.2142 -5.84332
12.309 -8.07242 -5.84711
12.3789 -7.9931 -5.84848
12.4489 -7.91379 -5.84984
12.5188 -7.83447 -5.85121
12.5888 -7.75516 -5.85257
12.5782 -7.61338 -5.85637
12.6482 -7.53407 -5.85773
12.7181 -7.45475 -5.8591
12.7075 -7.31297 -5.86288
12.7775 -7.23366 -5.86426
12.8474 -7.15434 -5.86562
12.8369 -7.01256 -5.8694
12.9068 -6.93325 -5.87077
12.8962 -6.79146 -5.87456
12.9662 -6.71215 -5.87593
12.9556 -6.57037 -5.87971
13.0256 -6.49106 -5.88109
13.015 -6.34927 -5.88487
13.0044 -6.20749 -5.88866
12.9939 -6.06571 -5.89246
12.9833 -5.92393 -5.89624
13.0533 -5.84462 -5.8976
13.0427 -5.70284 -5.9014
12.9516 -5.49859 -5.90761
12.9411 -5.35682 -5.91139
12.9305 -5.21503 -5.91518
12.9199 -5.07326 -5.91898
12.8289 -4.86901 -5.92519
12.7378 -4.66476 -5.9314
12.7273 -4.52298 -5.93518
12.7972 -4.44367 -5.93655
12.7061 -4.23942 -5.94276
12.293 -3.78532 -5.95866
12.2825 -3.64353 -5.96246
12.2719 -3.50175 -5.96625
12.3419 -3.42244 -5.96762
12.3313 -3.28066 -5.97141
12.2402 -3.07641 -5.97762
12.1492 -2.87217 -5.98383
12.0581 -2.66792 -5.99004
12.0475 -2.52614 -5.99384
12.037 -2.38436 -5.99762
12.0264 -2.24258 -6.0014
6.05278 -11.7953 -5.84161
6.27559 -11.7194 -5.83813
6.70032 -11.6711 -5.8298
6.82218 -11.5813 -5.82875
7.045 -11.5053 -5.82527
7.16687 -11.4155 -5.82422
7.28873 -11.3256 -5.82317
7.4106 -11.2358 -5.8221
7.53247 -11.146 -5.82104
7.65433 -11.0562 -5.81999
7.7762 -10.9664 -5.81892
7.79712 -10.8627 -5.8203
7.91898 -10.7729 -5.81924
7.9399 -10.6692 -5.8206
8.06177 -10.5794 -5.81955
8.18363 -10.4896 -5.8185
8.3055 -10.3998 -5.81743
8.52832 -10.3238 -5.81395
8.65019 -10.234 -5.8129
8.87301 -10.158 -5.80942
8.99487 -10.0682 -5.80836
9.01579 -9.96457 -5.80972
9.13766 -9.87475 -5.80867
9.36047 -9.79878 -5.80519
9.58329 -9.72281 -5.80171
9.90706 -9.66068 -5.79581
9.92798 -9.55702 -5.79716
10.0498 -9.46721 -5.79611
10.1717 -9.37739 -5.79506
10.2936 -9.28757 -5.79401
10.5164 -9.2116 -5.79051
10.7392 -9.13563 -5.78703
10.962 -9.05966 -5.78355
11.1849 -8.98369 -5.78008
11.6096 -8.9354 -5.77176
11.7314 -8.84559 -5.77069
11.7524 -8.74193 -5.77206
11.7733 -8.63827 -5.77342
11.8951 -8.54845 -5.77237
11.9161 -8.44479 -5.77374
11.937 -8.34113 -5.7751
11.9579 -8.23747 -5.77647
12.0798 -8.14766 -5.77541
12.3026 -8.07168 -5.77193
12.4244 -7.98187 -5.77087
12.4454 -7.87821 -5.77223
12.4663 -7.77455 -5.77361
12.5881 -7.68473 -5.77255
12.6091 -7.58107 -5.77391
12.63 -7.47741 -5.77528
12.6509 -7.37375 -5.77664
12.7727 -7.28394 -5.77559
12.7937 -7.18027 -5.77696
12.8146 -7.07662 -5.77832
12.8355 -6.97296 -5.77969
12.9574 -6.88314 -5.77863
12.9783 -6.77948 -5.78
12.9992 -6.67582 -5.78136
13.0201 -6.57216 -5.78273
13.041 -6.4685 -5.78409
13.0619 -6.36484 -5.78546
13.0829 -6.26118 -5.78682
13.1038 -6.15752 -5.78819
13.1247 -6.05386 -5.78957
13.1456 -5.9502 -5.79092
13.1665 -5.84654 -5.7923
13.2884 -5.75672 -5.79123
13.2083 -5.63922 -5.79503
13.2293 -5.53556 -5.79639
13.2502 -5.4319 -5.79776
13.1701 -5.31439 -5.80154
13.1911 -5.21073 -5.8029
13.212 -5.10707 -5.80428
13.2329 -5.00341 -5.80565
13.1528 -4.88591 -5.80943
13.1738 -4.78225 -5.81079
13.0937 -4.66474 -5.81459
13.0137 -4.54724 -5.81837
13.0346 -4.44358 -5.81975
12.9546 -4.32607 -5.82353
12.9755 -4.22241 -5.82489
12.9964 -4.11875 -5.82626
13.0173 -4.01509 -5.82762
12.9373 -3.89759 -5.83142
12.8572 -3.78009 -5.83521
12.8782 -3.67642 -5.83658
12.7981 -3.55892 -5.84036
12.819 -3.45526 -5.84172
12.739 -3.33776 -5.84552
12.659 -3.22025 -5.8493
12.6799 -3.11659 -5.85068
12.5998 -2.99909 -5.85446
12.6208 -2.89542 -5.85583
12.5407 -2.77792 -5.85962
12.5616 -2.67426 -5.86098
12.4816 -2.55676 -5.86478
12.5025 -2.4531 -5.86613
12.4225 -2.33559 -5.86993
12.3424 -2.21809 -5.87372
12.3633 -2.11443 -5.87508
12.2833 -1.99692 -5.87888
12.3042 -1.89326 -5.88023
12.3251 -1.7896 -5.88161
12.3461 -1.68594 -5.88297
12.266 -1.56844 -5.88676
12.186 -1.45093 -5.89055
12.2069 -1.34727 -5.89191
12.1269 -1.22977 -5.89571
12.0468 -1.11227 -5.89949
12.0677 -1.00861 -5.90086
12.0887 -0.904944 -5.90222
12.0086 -0.787439 -5.90601
12.0295 -0.683777 -5.90738
11.9495 -0.566275 -5.91116
11.9704 -0.462614 -5.91254
11.8904 -0.345111 -5.91632
11.9113 -0.241452 -5.91769
11.8313 -0.123944 -5.92148
11.8522 -0.0202839 -5.92285
11.7721 0.0972192 -5.92664
11.793 0.200879 -5.92799
11.713 0.318382 -5.93179
11.7339 0.422044 -5.93315
11.6539 0.539549 -5.93695
11.6748 0.643211 -5.93831
11.5948 0.760712 -5.94209
11.5147 0.878216 -5.94589
11.5356 0.981878 -5.94725
11.4556 1.09938 -5.95105
11.4765 1.20304 -5.95241
11.4974 1.3067 -5.95378
11.4174 1.42421 -5.95757
11.4383 1.52787 -5.95892
11.3583 1.64537 -5.96272
11.2782 1.76288 -5.96651
11.2992 1.86653 -5.96788
11.2191 1.98404 -5.97166
11.24 2.0877 -5.97302
11.261 2.19136 -5.9744
11.2819 2.29502 -5.97577
11.2018 2.41252 -5.97955
10.9199 2.55772 -5.98819
10.9408 2.66138 -5.98955
10.9617 2.76504 -5.99092
10.8817 2.88254 -5.99471
10.9026 2.9862 -5.99608
10.9235 3.08986 -5.99744
10.9444 3.19352 -5.99881
10.9653 3.29718 -6.00017
10.8853 3.41469 -6.00397
10.9062 3.51835 -6.00533
10.8262 3.63585 -6.00911
10.7461 3.75336 -6.01291
10.6661 3.87086 -6.01669
10.687 3.97452 -6.01807
10.7079 4.07818 -6.01942
10.7289 4.18185 -6.0208
10.6488 4.29935 -6.02458
10.6697 4.40301 -6.02594
10.5897 4.52051 -6.02974
10.5097 4.63802 -6.03352
10.4296 4.75552 -6.03731
10.3496 4.87303 -6.04111
10.2696 4.99053 -6.04489
10.1895 5.10803 -6.04868
10.2104 5.21169 -6.05005
10.1304 5.3292 -6.05383
10.0504 5.4467 -6.05763
9.76842 5.5919 -6.06627
9.68838 5.7094 -6.07005
9.50739 5.84075 -6.07626
9.3264 5.9721 -6.08247
12.9526 -7.47495 -5.79056
13.0132 -7.33624 -5.78949
13.0738 -7.19752 -5.78844
13.1344 -7.05881 -5.78738
13.2894 -6.8816 -5.78391
13.3501 -6.74289 -5.78285
13.3163 -6.64266 -5.78421
13.377 -6.50394 -5.78316
13.532 -6.32674 -5.77968
13.5926 -6.18802 -5.77861
13.6532 -6.0493 -5.77756
13.6195 -5.94907 -5.77893
13.5858 -5.84885 -5.78029
13.6464 -5.71013 -5.77924
13.6127 -5.6099 -5.78059
13.6733 -5.47118 -5.77954
13.734 -5.33247 -5.77849
13.7002 -5.23224 -5.77985
13.6665 -5.13201 -5.78122
13.7272 -4.99329 -5.78017
13.6934 -4.89306 -5.78152
13.6597 -4.79283 -5.7829
13.626 -4.6926 -5.78426
13.5923 -4.59237 -5.78563
13.4642 -4.53063 -5.78941
13.4305 -4.4304 -5.79079
13.3968 -4.33017 -5.79214
13.4574 -4.19145 -5.79109
13.4237 -4.09122 -5.79245
13.39 -3.99099 -5.79382
13.3563 -3.89076 -5.79518
13.3226 -3.79053 -5.79655
13.2888 -3.6903 -5.79791
13.2551 -3.59007 -5.79929
13.2214 -3.48984 -5.80064
13.1877 -3.38961 -5.80202
13.154 -3.28938 -5.80339
13.1203 -3.18915 -5.80475
13.0865 -3.08892 -5.80612
13.0528 -2.98869 -5.80748
13.0191 -2.88846 -5.80885
12.9854 -2.78823 -5.81021
12.9517 -2.688 -5.81158
13.0123 -2.54929 -5.81052
12.9786 -2.44906 -5.81189
12.9449 -2.34883 -5.81325
12.9112 -2.2486 -5.81462
12.8774 -2.14837 -5.81598
12.8437 -2.04814 -5.81735
12.81 -1.94791 -5.81873
12.7763 -1.84768 -5.82008
12.7426 -1.74745 -5.82146
12.8032 -1.60873 -5.82039
12.7695 -1.5085 -5.82176
12.7358 -1.40827 -5.82312
12.702 -1.30804 -5.82449
12.6683 -1.20781 -5.82585
12.6346 -1.10758 -5.82722
12.6009 -1.00735 -5.82858
12.5672 -0.907122 -5.82996
12.5335 -0.806892 -5.83131
12.4997 -0.706662 -5.83269
12.466 -0.606432 -5.83406
12.4323 -0.506202 -5.83542
12.3986 -0.405973 -5.83679
12.3649 -0.305742 -5.83815
12.3312 -0.205513 -5.83952
12.2974 -0.105282 -5.84088
12.2637 -0.00505209 -5.84225
12.23 0.0951765 -5.84361
12.2906 0.233895 -5.84256
12.2569 0.334125 -5.84392
12.2232 0.434355 -5.84529
12.1895 0.534584 -5.84665
12.1558 0.634815 -5.84802
12.1221 0.735044 -5.8494
12.0883 0.835274 -5.85075
12.0546 0.935506 -5.85213
12.0209 1.03573 -5.85349
11.9872 1.13596 -5.85486
11.9535 1.23619 -5.85622
11.9198 1.33643 -5.85759
11.9804 1.47514 -5.85652
11.9467 1.57537 -5.85789
11.913 1.6756 -5.85925
11.8792 1.77583 -5.86063
11.8455 1.87606 -5.86198
11.8118 1.97629 -5.86336
11.7781 2.07652 -5.86473
11.7444 2.17675 -5.86609
11.7107 2.27698 -5.86746
11.6769 2.37721 -5.86882
11.6432 2.47744 -5.87019
11.6095 2.57767 -5.87155
11.5758 2.6779 -5.87292
11.5421 2.77813 -5.87428
11.5084 2.87836 -5.87566
11.569 3.01708 -5.87459
11.5353 3.1173 -5.87596
11.5016 3.21754 -5.87732
11.4678 3.31776 -5.87869
11.4341 3.418 -5.88007
11.4004 3.51823 -5.88142
11.3667 3.61845 -5.8828
11.333 3.71868 -5.88416
11.2993 3.81891 -5.88553
11.3599 3.95763 -5.88446
11.3262 4.05786 -5.88583
11.2924 4.15809 -5.88719
11.2587 4.25832 -5.88857
11.225 4.35855 -5.88992
11.1913 4.45878 -5.8913
11.1576 4.55901 -5.89265
11.1239 4.65924 -5.89403
11.0901 4.75947 -5.8954
11.0564 4.8597 -5.89676
11.0227 4.95993 -5.89813
10.989 5.06016 -5.89949
10.9553 5.16039 -5.90086
10.9216 5.26062 -5.90222
10.7935 5.32236 -5.90601
10.7598 5.4226 -5.90738
10.6317 5.48433 -5.91116
10.598 5.58457 -5.91254
10.5643 5.6848 -5.91389
10.5306 5.78503 -5.91527
10.4025 5.84677 -5.91905
10.3688 5.947 -5.92043
10.3351 6.04723 -5.92178
10.207 6.10897 -5.92558
10.1733 6.2092 -5.92694
10.0452 6.27095 -5.93073
10.0115 6.37118 -5.9321
9.88343 6.43292 -5.93588
9.75536 6.49466 -5.93968
9.53295 6.51792 -5.94589
9.40488 6.57967 -5.94968
9.18246 6.60292 -5.95589
9.0544 6.66467 -5.95969
8.92633 6.72641 -5.96347
8.89261 6.82664 -5.96483
8.76455 6.88838 -5.96863
8.63648 6.95012 -5.97241
8.60277 7.05035 -5.97379
8.4747 7.1121 -5.97757
8.44098 7.21233 -5.97893
8.31292 7.27407 -5.98273
8.2792 7.3743 -5.98409
8.15113 7.43605 -5.98788
8.11742 7.53628 -5.98924
7.98935 7.59802 -5.99303
7.95563 7.69825 -5.9944
7.82757 7.75999 -5.99818
7.6995 7.82173 -6.00198
7.66578 7.92196 -6.00334
7.53772 7.98371 -6.00713
7.40965 8.04545 -6.01093
7.28159 8.1072 -6.01471
13.8213 -4.55689 -5.86531
13.9918 -4.16493 -5.85698
13.975 -4.01448 -5.85593
13.9581 -3.86404 -5.85487
13.8788 -3.79409 -5.85623
13.7995 -3.72415 -5.8576
13.7202 -3.65421 -5.85898
13.7034 -3.50376 -5.85791
13.624 -3.43381 -5.85928
13.5447 -3.36387 -5.86064
13.4654 -3.29393 -5.86201
13.3861 -3.22399 -5.86337
13.3692 -3.07354 -5.86232
13.3524 -2.92309 -5.86127
13.3356 -2.77264 -5.8602
13.2562 -2.7027 -5.86157
13.2394 -2.55225 -5.86052
13.2225 -2.4018 -5.85945
13.1432 -2.33186 -5.86082
13.1264 -2.18141 -5.85977
13.1095 -2.03097 -5.8587
13.0927 -1.88051 -5.85765
13.0758 -1.73007 -5.8566
13.059 -1.57962 -5.85555
13.0421 -1.42917 -5.85448
13.0253 -1.27873 -5.85342
12.946 -1.20878 -5.8548
12.9291 -1.05833 -5.85373
12.8498 -0.988388 -5.8551
12.7705 -0.918444 -5.85646
12.7536 -0.767999 -5.85541
12.6743 -0.698055 -5.85678
12.6575 -0.547607 -5.85571
12.6406 -0.397159 -5.85466
12.6238 -0.246711 -5.85361
12.6069 -0.096262 -5.85254
12.5901 0.054183 -5.85149
12.5732 0.204632 -5.85043
12.4939 0.274575 -5.85179
12.4771 0.425024 -5.85074
12.4602 0.575469 -5.84969
12.4434 0.72592 -5.84863
12.364 0.795865 -5.84999
12.3472 0.946312 -5.84894
12.2679 1.01625 -5.8503
12.1886 1.0862 -5.85167
12.1093 1.15614 -5.85303
12.0924 1.30659 -5.85197
12.0131 1.37653 -5.85335
11.9962 1.52698 -5.85228
12.0419 1.75793 -5.8488
12.025 1.90838 -5.84775
12.0082 2.05883 -5.84669
11.9288 2.12877 -5.84805
11.8495 2.19871 -5.84943
11.8327 2.34916 -5.84836
11.7534 2.41911 -5.84973
11.799 2.65006 -5.84625
11.7197 2.72 -5.84761
11.7028 2.87045 -5.84656
11.686 3.0209 -5.8455
11.6691 3.17135 -5.84445
11.5898 3.24129 -5.84581
11.573 3.39173 -5.84476
11.4936 3.46168 -5.84612
11.4768 3.61213 -5.84506
11.3975 3.68207 -5.84644
11.3182 3.75202 -5.84779
11.1764 3.74145 -5.85158
11.0346 3.73089 -5.85538
10.9553 3.80083 -5.85674
11.2508 4.35381 -5.84357
11.2339 4.50425 -5.84251
11.2171 4.6547 -5.84145
11.1377 4.72465 -5.84282
11.1209 4.87509 -5.84177
11.0416 4.94504 -5.84312
10.9623 5.01498 -5.8445
10.9454 5.16542 -5.84343
10.8661 5.23537 -5.8448
10.8493 5.38582 -5.84375
10.7699 5.45576 -5.84511
10.7531 5.60621 -5.84406
10.6738 5.67615 -5.84541
10.6569 5.8266 -5.84436
10.5776 5.89654 -5.84573
10.5608 6.04699 -5.84467
10.4814 6.11693 -5.84604
10.4021 6.18688 -5.84741
10.3853 6.33732 -5.84634
10.306 6.40727 -5.84772
10.2267 6.47721 -5.84908
10.1473 6.54715 -5.85045
10.068 6.6171 -5.85181
10.0512 6.76755 -5.85075
9.97186 6.83749 -5.85213
9.89255 6.90743 -5.85349
9.81323 6.97738 -5.85486
9.73392 7.04732 -5.85622
9.71707 7.19777 -5.85516
9.63775 7.26771 -5.85652
9.55844 7.33765 -5.85789
9.47912 7.40759 -5.85925
9.39981 7.47754 -5.86063
9.3205 7.54748 -5.86198
9.24118 7.61743 -5.86336
9.0994 7.60686 -5.86714
9.02009 7.67681 -5.86852
8.94077 7.74675 -5.86987
8.86146 7.8167 -5.87125
8.78214 7.88664 -5.8726
8.64036 7.87607 -5.8764
8.56104 7.94602 -5.87776
8.48173 8.01596 -5.87914
8.40242 8.08591 -5.88049
8.3231 8.15585 -5.88187
8.24379 8.22579 -5.88322
8.16447 8.29573 -5.8846
8.08516 8.36568 -5.88596
7.94338 8.35512 -5.88976
7.86406 8.42506 -5.89111
7.78475 8.495 -5.89249
7.70543 8.56494 -5.89384
7.56365 8.55438 -5.89764
7.48434 8.62433 -5.899
7.34256 8.61376 -5.90279
7.26324 8.68371 -5.90416
7.12146 8.67315 -5.90794
7.04215 8.74309 -5.90932
6.90037 8.73253 -5.9131
6.82105 8.80247 -5.91447
6.67927 8.79191 -5.91826
6.53749 8.78135 -5.92204
6.45818 8.85129 -5.92342
6.3164 8.84073 -5.9272
6.23708 8.91067 -5.92857
6.0953 8.90011 -5.93236
6.01599 8.97006 -5.93373
5.87421 8.95949 -5.93752
5.73242 8.94893 -5.9413
5.52818 8.85786 -5.94751
5.3864 8.8473 -5.95131
5.24462 8.83674 -5.95509
4.97791 8.66517 -5.96373
4.89859 8.73511 -5.96509
4.75681 8.72455 -5.96889
4.61503 8.71399 -5.97267
4.53572 8.78393 -5.97404
4.33147 8.69287 -5.98026
3.87736 8.27978 -5.99615
3.73558 8.26922 -5.99994
3.65627 8.33916 -6.00131
3.57695 8.4091 -6.00267
3.43518 8.39855 -6.00647
10.3164 6.14368 -5.86559
10.2543 6.46745 -5.85968
10.1644 6.58932 -5.85863
10.0885 6.81213 -5.85515
9.99866 6.93401 -5.8541
9.90884 7.05587 -5.85303
9.81903 7.17774 -5.85197
9.72921 7.29961 -5.85092
9.62555 7.32052 -5.85228
9.53574 7.44239 -5.85123
9.44592 7.56425 -5.85017
9.34226 7.58517 -5.85153
9.25245 7.70704 -5.85048
9.16263 7.8289 -5.84943
9.07281 7.95077 -5.84836
8.96915 7.97169 -5.84973
8.87934 8.09355 -5.84868
8.78952 8.21542 -5.84761
8.69971 8.33729 -5.84656
8.60989 8.45916 -5.8455
8.50623 8.48007 -5.84686
8.41641 8.60194 -5.84581
8.31275 8.62285 -5.84718
8.22294 8.74472 -5.84612
8.11928 8.76563 -5.84749
8.01562 8.78655 -5.84885
7.9258 8.90842 -5.84779
7.82214 8.92933 -5.84917
7.71848 8.95024 -5.85052
7.61482 8.97116 -5.8519
7.51116 8.99208 -5.85326
7.4075 9.01299 -5.85463
7.30384 9.03391 -5.85599
7.20018 9.05482 -5.85736
7.11037 9.17669 -5.85631
7.00671 9.19761 -5.85767
6.90304 9.21852 -5.85904
6.79938 9.23943 -5.8604
6.69572 9.26035 -5.86177
6.59206 9.28126 -5.86313
6.4884 9.30218 -5.8645
6.38474 9.32309 -5.86586
6.28108 9.34401 -5.86723
6.17742 9.36493 -5.86859
6.07376 9.38584 -5.86996
5.95626 9.30581 -5.87375
5.8526 9.32672 -5.87512
5.74894 9.34763 -5.87648
5.64528 9.36855 -5.87785
5.54162 9.38947 -5.87921
5.43796 9.41038 -5.88058
5.3343 9.43129 -5.88194
5.23064 9.45221 -5.88332
5.12698 9.47312 -5.88467
5.02332 9.49404 -5.88605
4.90581 9.414 -5.88983
4.80215 9.43492 -5.8912
4.69849 9.45583 -5.89256
4.59483 9.47675 -5.89394
4.49117 9.49767 -5.89529
4.37367 9.41763 -5.89909
4.27001 9.43854 -5.90045
4.16635 9.45946 -5.90182
4.06269 9.48037 -5.90318
3.94518 9.40034 -5.90697
3.84152 9.42125 -5.90834
3.73786 9.44217 -5.9097
3.62036 9.36213 -5.9135
3.5167 9.38305 -5.91486
3.41304 9.40396 -5.91623
3.29553 9.32392 -5.92001
3.17803 9.24388 -5.9238
3.06053 9.16385 -5.9276
2.95686 9.18477 -5.92896
2.83936 9.10473 -5.93275
2.70801 8.92374 -5.93896
2.59051 8.8437 -5.94275
2.45916 8.66271 -5.94896
2.32781 8.48173 -5.95517
2.2103 8.40168 -5.95897
2.10664 8.4226 -5.96033
1.98914 8.34257 -5.96413
1.88548 8.36348 -5.96548
1.76797 8.28344 -5.96927
1.66431 8.30436 -5.97064
1.53297 8.12337 -5.97685
1.41546 8.04333 -5.98064
1.29796 7.9633 -5.98444
1.18045 7.88326 -5.98822
1.07679 7.90417 -5.98959
0.959288 7.82414 -5.99338
0.855627 7.84505 -5.99474
0.738123 7.76502 -5.99854
0.59293 7.48308 -6.00717
0.475426 7.40304 -6.01096
0.357921 7.323 -6.01474
6.90238 9.32647 -5.89268
6.76366 9.38711 -5.89163
6.62495 9.44774 -5.89056
6.52472 9.41402 -5.89194
6.386 9.47465 -5.89087
6.24728 9.53528 -5.88982
6.10857 9.59592 -5.88876
5.96985 9.65655 -5.88771
5.86962 9.62283 -5.88907
5.73091 9.68346 -5.88802
5.59219 9.74409 -5.88696
5.45347 9.80473 -5.88589
5.31476 9.86536 -5.88484
5.21453 9.83164 -5.88622
5.07581 9.89228 -5.88515
4.97558 9.85856 -5.88652
4.87535 9.82484 -5.88788
4.77512 9.79113 -5.88925
4.63641 9.85176 -5.8882
4.53618 9.81804 -5.88956
4.43595 9.78432 -5.89093
4.33572 9.75061 -5.89229
4.23549 9.71689 -5.89366
4.13526 9.68317 -5.89502
4.03503 9.64946 -5.89639
3.9348 9.61574 -5.89775
3.83457 9.58202 -5.89912
3.73434 9.5483 -5.90048
3.63411 9.51459 -5.90186
3.53388 9.48087 -5.90321
3.43365 9.44715 -5.90459
3.33342 9.41344 -5.90594
3.23319 9.37972 -5.90732
3.13296 9.346 -5.90868
2.99424 9.40663 -5.90762
2.89401 9.37292 -5.909
2.79378 9.3392 -5.91035
2.69355 9.30548 -5.91173
2.59332 9.27177 -5.91309
2.49309 9.23805 -5.91446
2.39286 9.20433 -5.91582
2.29263 9.17061 -5.91719
2.1924 9.1369 -5.91855
2.09217 9.10318 -5.91992
1.99194 9.06947 -5.92128
1.89171 9.03575 -5.92265
1.79148 9.00203 -5.92401
1.72974 8.87396 -5.92781
1.62951 8.84025 -5.92917
1.52928 8.80653 -5.93054
1.42905 8.77282 -5.9319
1.32882 8.7391 -5.93327
1.22859 8.70538 -5.93463
1.12836 8.67166 -5.936
1.02813 8.63795 -5.93736
0.927898 8.60423 -5.93874
0.827669 8.57051 -5.94009
0.727438 8.53679 -5.94147
0.627208 8.50308 -5.94284
0.526978 8.46936 -5.9442
0.426749 8.43564 -5.94557
0.32652 8.40193 -5.94693
0.264775 8.27386 -5.95071
0.164544 8.24014 -5.95209
0.0643146 8.20643 -5.95345
-0.0359137 8.17271 -5.95482
-0.136145 8.13899 -5.95618
-0.197886 8.01092 -5.95998
-0.298116 7.97721 -5.96133
-0.398347 7.94349 -5.96271
-0.498576 7.90977 -5.96407
-0.560322 7.78171 -5.96786
-0.622064 7.65364 -5.97165
-0.683808 7.52558 -5.97543
-0.784038 7.49186 -5.97681
-0.845782 7.3638 -5.98059
-0.946013 7.33008 -5.98196
-1.04624 7.29636 -5.98332
-1.10799 7.16829 -5.98712
-1.20822 7.13458 -5.98848
-1.30844 7.10086 -5.98985
-1.37019 6.97279 -5.99364
-1.47042 6.93908 -5.995
-1.53216 6.81101 -5.99879
0.440814 8.99994 -5.94969
0.370869 8.92063 -5.95107
0.220422 8.90378 -5.95001
0.0699768 8.88693 -5.94894
3.29018e-05 8.80761 -5.95032
-0.150414 8.79076 -5.94926
-0.22036 8.71145 -5.95062
-0.290303 8.63214 -5.952
-0.360243 8.55282 -5.95335
-0.430187 8.47351 -5.95473
-0.580636 8.45666 -5.95366
-0.65058 8.37734 -5.95503
-0.720523 8.29803 -5.95639
-0.790464 8.21871 -5.95776
-0.940913 8.20186 -5.95671
-1.01086 8.12255 -5.95807
-1.0808 8.04323 -5.95944
-1.15074 7.96392 -5.9608
-1.22068 7.8846 -5.96217
-1.29063 7.80529 -5.96353
-1.36057 7.72598 -5.9649
-1.43052 7.64666 -5.96626
-1.50046 7.56734 -5.96764
-1.5704 7.48803 -5.96899
-1.64034 7.40872 -5.97037
-1.71029 7.3294 -5.97173
-1.78023 7.25009 -5.9731
-1.85017 7.17077 -5.97446
-1.92012 7.09146 -5.97583
-1.99006 7.01214 -5.9772
-2.14051 6.9953 -5.97614
-2.21045 6.91598 -5.97751
-2.2804 6.83667 -5.97887
-2.35034 6.75735 -5.98024
-2.42028 6.67804 -5.9816
-2.49023 6.59872 -5.98297
-2.56017 6.51941 -5.98433
-2.63011 6.44009 -5.9857
-2.70006 6.36078 -5.98706
-2.77 6.28146 -5.98843
-2.83994 6.20215 -5.98979
-2.82938 6.06037 -5.99359
-2.89932 5.98105 -5.99495
-2.96926 5.90174 -5.99632
-3.03921 5.82242 -5.99768
-3.10915 5.74311 -5.99905
-3.17909 5.66379 -6.00041
-3.24904 5.58448 -6.00179
-3.31898 5.50516 -6.00314
-3.38892 5.42585 -6.00452
-3.45887 5.34654 -6.00589
-3.52881 5.26722 -6.00725
-3.59875 5.1879 -6.00862
-3.6687 5.10859 -6.00998
-3.73864 5.02928 -6.01135
-3.72808 4.8875 -6.01514
-3.79802 4.80818 -6.01649
-3.86796 4.72887 -6.01787
-3.8574 4.58709 -6.02165
-3.92735 4.50777 -6.02303
-3.67527 4.17859 -6.03409
-3.72891 5.83063 -5.9964
-3.74983 5.72697 -5.99777
-3.77074 5.62331 -5.99913
-3.79165 5.51964 -6.0005
-3.91352 5.42983 -5.99945
-3.93444 5.32617 -6.00081
-3.95535 5.22251 -6.00218
-3.97626 5.11885 -6.00354
-3.99718 5.01519 -6.00491
-4.0181 4.91153 -6.00627
-4.03901 4.80787 -6.00764
-4.05993 4.70421 -6.009
-4.08084 4.60055 -6.01038
-4.10176 4.49689 -6.01173
-4.12267 4.39323 -6.01311
-4.24454 4.30341 -6.01204
-4.26545 4.19975 -6.01341
-4.28637 4.09609 -6.01479
-4.30728 3.99243 -6.01614
-4.3282 3.88877 -6.01752
-4.34912 3.78511 -6.01888
-4.37003 3.68145 -6.02025
-4.39094 3.57779 -6.02161
-4.41186 3.47413 -6.02298
-4.43278 3.37047 -6.02434
-4.45369 3.26681 -6.02571
-4.4746 3.16315 -6.02707
-4.49552 3.05949 -6.02844
-4.51644 2.95583 -6.0298
-4.53735 2.85217 -6.03117
-4.55827 2.74851 -6.03253
-4.57918 2.64485 -6.03391
-4.6001 2.54119 -6.03526
-4.62101 2.43753 -6.03664
-4.64193 2.33387 -6.03799
-4.7638 2.24405 -6.03694
-4.78471 2.14039 -6.03831
-4.80563 2.03673 -6.03967
-4.82654 1.93307 -6.04105
-4.7465 1.81557 -6.04483
-4.76742 1.71191 -6.0462
-4.78833 1.60825 -6.04756
-4.9102 1.51843 -6.04651
-4.93112 1.41477 -6.04787
-4.95203 1.31111 -6.04924
-4.97295 1.20745 -6.0506
-4.99386 1.10379 -6.05197
-5.01478 1.00013 -6.05333
-5.03569 0.896473 -6.0547
-5.05661 0.792811 -6.05606
-5.07752 0.689151 -6.05743
-5.09844 0.585491 -6.05881
-5.11935 0.48183 -6.06017
-5.14027 0.37817 -6.06154
-5.16119 0.274512 -6.0629
-5.1821 0.170852 -6.06427
-5.20301 0.0671921 -6.06563
-5.22393 -0.0364693 -6.067
-5.14389 -0.153975 -6.07079
-5.1648 -0.257637 -6.07216
-5.18572 -0.361295 -6.07352
-5.20663 -0.464956 -6.07489
-5.22755 -0.568616 -6.07625
-5.24847 -0.672275 -6.07762
-5.26938 -0.775937 -6.07898
-5.2903 -0.879597 -6.08035
-5.31121 -0.983257 -6.08171
-5.33213 -1.08692 -6.08308
-5.35304 -1.19058 -6.08444
-5.37395 -1.29424 -6.08582
-5.29392 -1.41174 -6.0896
-5.31484 -1.5154 -6.09097
-5.33575 -1.61906 -6.09233
-5.35667 -1.72272 -6.0937
-5.37758 -1.82638 -6.09506
-5.29754 -1.94389 -6.09885
-5.31846 -2.04755 -6.10022
-5.33938 -2.15121 -6.10159
-5.36029 -2.25487 -6.10295
-5.28025 -2.37237 -6.10674
-5.30117 -2.47603 -6.10811
-5.32208 -2.57969 -6.10947
-5.24205 -2.6972 -6.11327
-5.94176 -0.607663 -6.01862
-6.00239 -0.746379 -6.01756
-5.96867 -0.846607 -6.01892
-6.0293 -0.985325 -6.01787
-5.99558 -1.08555 -6.01924
-5.96187 -1.18579 -6.0206
-5.92815 -1.28601 -6.02197
-5.98878 -1.42473 -6.0209
-5.95507 -1.52496 -6.02228
-5.92135 -1.62519 -6.02364
-5.88763 -1.72542 -6.02501
-5.85391 -1.82565 -6.02637
-5.8202 -1.92588 -6.02774
-5.78648 -2.02611 -6.0291
-5.75276 -2.12634 -6.03047
-5.71905 -2.22657 -6.03183
-5.68533 -2.3268 -6.0332
-5.65161 -2.42703 -6.03458
-5.6179 -2.52726 -6.03593
-5.58418 -2.62749 -6.03731
-5.55046 -2.72772 -6.03867
-5.51674 -2.82795 -6.04004
-5.48303 -2.92818 -6.0414
-5.44931 -3.02841 -6.04277
-5.41559 -3.12864 -6.04413
-5.38187 -3.22887 -6.0455
-5.34816 -3.3291 -6.04686
-5.31444 -3.42933 -6.04823
-5.28073 -3.52956 -6.04959
-5.24701 -3.62979 -6.05096
-5.21329 -3.73002 -6.05232
-5.17957 -3.83025 -6.0537
-5.05151 -3.89199 -6.05748
-5.11214 -4.03071 -6.05643
-5.07843 -4.13094 -6.05779
-5.0447 -4.23117 -6.05916
-5.01099 -4.3314 -6.06052
-4.88292 -4.39314 -6.06432
-4.84921 -4.49337 -6.06567
-4.81549 -4.5936 -6.06705
-4.78177 -4.69383 -6.06841
-4.65371 -4.75558 -6.0722
-4.52564 -4.81732 -6.07599
-4.49193 -4.91755 -6.07736
-4.36386 -4.97929 -6.08115
-4.33014 -5.07952 -6.0825
-4.29642 -5.17975 -6.08388
-4.26271 -5.27998 -6.08524
-4.13464 -5.34173 -6.08904
-4.10092 -5.44196 -6.09039
-3.97286 -5.5037 -6.09419
-3.84479 -5.56544 -6.09798
-3.81108 -5.66567 -6.09933
-3.68301 -5.72742 -6.10313
-3.55494 -5.78916 -6.10692
-3.42688 -5.8509 -6.1107
-3.39316 -5.95113 -6.11208
-3.26509 -6.01288 -6.11586
-3.23138 -6.11311 -6.11723
-3.19766 -6.21334 -6.11859
-3.06959 -6.27508 -6.12239
-3.03588 -6.37531 -6.12375
2.60671 -11.2859 -5.13478
2.93589 -11.0338 -5.14583
3.01521 -11.1038 -5.1472
3.15698 -11.0932 -5.15099
3.29877 -11.0827 -5.15479
3.44055 -11.0721 -5.15857
-5.69256 -3.5605 -5.99588
-5.67571 -3.71094 -5.99483
-5.65886 -3.86139 -5.99377
-5.57955 -3.93133 -5.99513
-5.50023 -4.00128 -5.99651
-5.48338 -4.15172 -5.99544
-5.40407 -4.22167 -5.99681
-5.32476 -4.29161 -5.99817
-5.30791 -4.44206 -5.99712
-5.22859 -4.512 -5.99849
-5.14928 -4.58195 -5.99985
-5.13243 -4.7324 -5.99879
-5.05311 -4.80234 -6.00015
-4.9738 -4.87228 -6.00153
-4.89448 -4.94222 -6.00288
-4.87763 -5.09267 -6.00183
-4.79832 -5.16261 -6.0032
-4.719 -5.23256 -6.00456
-4.63969 -5.3025 -6.00594
-4.56038 -5.37244 -6.00729
-4.48106 -5.44239 -6.00867
-4.40175 -5.51233 -6.01003
-4.32243 -5.58227 -6.0114
-4.30558 -5.73272 -6.01033
-4.22627 -5.80266 -6.0117
-4.14695 -5.87261 -6.01308
-4.06764 -5.94255 -6.01443
-3.98832 -6.01249 -6.01581
-3.97148 -6.16294 -6.01474
-3.89216 -6.23289 -6.01611
-3.87531 -6.38333 -6.01506
-3.79599 -6.45327 -6.01642
-3.71668 -6.52322 -6.01779
-3.69983 -6.67367 -6.01672
-3.62052 -6.74361 -6.0181
-3.5412 -6.81355 -6.01945
-3.46188 -6.88349 -6.02083
-3.38257 -6.95344 -6.02219
-3.30326 -7.02338 -6.02356
-3.28641 -7.17383 -6.02251
-3.2071 -7.24378 -6.02386
-3.12778 -7.31372 -6.02524
-3.04846 -7.38366 -6.0266
-3.03161 -7.53411 -6.02554
-2.9523 -7.60405 -6.0269
-2.87299 -7.67399 -6.02827
-2.79367 -7.74393 -6.02965
-2.71436 -7.81388 -6.03101
-2.63504 -7.88382 -6.03238
-2.61819 -8.03427 -6.03131
-2.53888 -8.10421 -6.03268
-2.45956 -8.17416 -6.03404
-2.38025 -8.2441 -6.03542
-2.30093 -8.31404 -6.03677
-2.22162 -8.38399 -6.03815
-2.1423 -8.45393 -6.03951
-2.06299 -8.52387 -6.04088
-1.98368 -8.59382 -6.04224
-1.90436 -8.66376 -6.04361
-1.82505 -8.7337 -6.04498
-1.74573 -8.80364 -6.04634
-1.66642 -8.87359 -6.04771
-1.5871 -8.94353 -6.04907
-1.50779 -9.01348 -6.05045
-1.42847 -9.08342 -6.0518
-1.34916 -9.15336 -6.05318
-1.26984 -9.2233 -6.05453
-1.19053 -9.29325 -6.05591
-1.11121 -9.36319 -6.05727
-1.0319 -9.43313 -6.05864
-0.952584 -9.50308 -6.06
-0.87327 -9.57302 -6.06137
-0.793956 -9.64296 -6.06273
-0.714641 -9.71291 -6.0641
-0.635325 -9.78285 -6.06546
-0.55601 -9.85279 -6.06683
-0.476697 -9.92274 -6.06819
-0.397384 -9.99268 -6.06956
-0.318068 -10.0626 -6.07092
-0.238752 -10.1326 -6.0723
-0.159437 -10.2025 -6.07367
-0.0801229 -10.2725 -6.07503
-0.000809193 -10.3424 -6.0764
0.0785046 -10.4123 -6.07776
0.157821 -10.4823 -6.07913
0.299603 -10.4717 -6.08292
0.378917 -10.5417 -6.08427
0.458231 -10.6116 -6.08565
0.537546 -10.6815 -6.08701
0.616861 -10.7515 -6.08838
0.696177 -10.8214 -6.08975
0.77549 -10.8914 -6.09111
0.854804 -10.9613 -6.09248
0.934122 -11.0313 -6.09384
1.0759 -11.0207 -6.09763
1.15521 -11.0906 -6.099
1.23453 -11.1606 -6.10036
1.37631 -11.15 -6.10416
1.45563 -11.22 -6.10551
1.53494 -11.2899 -6.10689
1.67672 -11.2794 -6.11067
1.75603 -11.3493 -6.11205
1.83535 -11.4192 -6.1134
1.91466 -11.4892 -6.11478
2.05644 -11.4786 -6.11856
2.13576 -11.5486 -6.11993
2.27754 -11.538 -6.12372
2.79411 -11.0444 -6.14204
2.87342 -11.1144 -6.14342
3.01521 -11.1038 -6.1472
3.09452 -11.1737 -6.14856
3.2363 -11.1632 -6.15236
3.31562 -11.2331 -6.15372
