ply
format ascii 1.0
comment VCGLIB generated
element vertex 1136
property float x
property float y
property float z
element face 0
property list uchar int vertex_indices
end_header
3.04201 -11.9695 -4.83792
3.27296 -12.0151 -4.83444
3.74543 -12.2481 -4.8237
3.97638 -12.2938 -4.82022
4.12683 -12.2769 -4.81915
4.43829 -12.385 -4.81325
4.58873 -12.3681 -4.81219
4.65868 -12.2888 -4.81357
4.80913 -12.272 -4.8125
4.87907 -12.1927 -4.81387
4.94901 -12.1134 -4.81523
5.09946 -12.0965 -4.81418
5.24991 -12.0797 -4.81313
5.40036 -12.0628 -4.81207
5.4703 -11.9835 -4.81343
5.62074 -11.9666 -4.81238
5.69069 -11.8873 -4.81374
5.84114 -11.8705 -4.81268
5.91108 -11.7912 -4.81406
6.06153 -11.7743 -4.81299
6.13147 -11.695 -4.81436
6.28192 -11.6782 -4.81331
6.35186 -11.5988 -4.81467
6.42181 -11.5195 -4.81604
6.57225 -11.5027 -4.81497
6.6422 -11.4234 -4.81635
6.79264 -11.4065 -4.81529
6.86259 -11.3272 -4.81665
7.01304 -11.3104 -4.8156
7.08298 -11.231 -4.81696
7.15292 -11.1517 -4.81833
7.22287 -11.0724 -4.81969
7.37331 -11.0556 -4.81863
7.44326 -10.9762 -4.82001
7.5132 -10.8969 -4.82137
7.58314 -10.8176 -4.82274
7.73359 -10.8008 -4.82167
7.80353 -10.7214 -4.82304
7.95398 -10.7046 -4.82199
8.02392 -10.6253 -4.82335
8.17437 -10.6084 -4.8223
8.24432 -10.5291 -4.82365
8.31426 -10.4498 -4.82503
8.46471 -10.433 -4.82397
8.53465 -10.3536 -4.82533
8.6851 -10.3368 -4.82428
8.75504 -10.2575 -4.82564
8.90549 -10.2406 -4.82458
8.97543 -10.1613 -4.82596
9.04537 -10.082 -4.82732
9.19582 -10.0651 -4.82626
9.26577 -9.98583 -4.82762
9.33571 -9.90652 -4.82899
9.48616 -9.88967 -4.82794
9.5561 -9.81035 -4.8293
9.70655 -9.79351 -4.82825
9.77649 -9.71419 -4.82961
9.84644 -9.63488 -4.83098
9.99688 -9.61803 -4.82993
10.0668 -9.53871 -4.83128
10.2173 -9.52186 -4.83023
10.2872 -9.44255 -4.83159
10.4377 -9.4257 -4.83054
10.5076 -9.34639 -4.83191
10.6581 -9.32953 -4.83084
10.728 -9.25022 -4.83221
10.7979 -9.17091 -4.83359
10.9484 -9.15405 -4.83252
11.0183 -9.07474 -4.83389
11.0883 -8.99543 -4.83525
11.1582 -8.91611 -4.83662
11.3087 -8.89927 -4.83557
11.3786 -8.81995 -4.83693
11.4486 -8.74064 -4.8383
11.599 -8.72379 -4.83723
11.6689 -8.64447 -4.83861
11.7389 -8.56516 -4.83997
11.8088 -8.48584 -4.84134
11.8788 -8.40653 -4.8427
11.9487 -8.32721 -4.84407
12.0187 -8.2479 -4.84543
12.0886 -8.16858 -4.8468
12.1585 -8.08927 -4.84816
12.2285 -8.00995 -4.84953
12.2984 -7.93064 -4.85091
12.3684 -7.85133 -4.85226
12.3578 -7.70954 -4.85605
12.4278 -7.63023 -4.85742
12.4977 -7.55091 -4.85878
12.5676 -7.4716 -4.86015
12.5571 -7.32982 -4.86394
12.627 -7.2505 -4.86531
12.697 -7.17119 -4.86667
12.6864 -7.02941 -4.87047
12.7563 -6.9501 -4.87183
12.7458 -6.80832 -4.87561
12.8157 -6.729 -4.87698
12.8052 -6.58722 -4.88077
12.8751 -6.5079 -4.88214
12.8646 -6.36613 -4.88593
12.9345 -6.28681 -4.8873
12.8434 -6.08256 -4.89351
12.8329 -5.94079 -4.89729
12.8223 -5.799 -4.90108
12.8117 -5.65723 -4.90488
12.8012 -5.51544 -4.90866
12.8711 -5.43613 -4.91003
12.8606 -5.29435 -4.91382
12.7695 -5.0901 -4.92003
12.7589 -4.94832 -4.92381
12.7484 -4.80654 -4.92761
12.6573 -4.6023 -4.93382
12.4857 -4.33559 -4.94246
12.4752 -4.1938 -4.94624
12.4646 -4.05203 -4.95003
12.3735 -3.84778 -4.95625
12.363 -3.706 -4.96004
12.2719 -3.50175 -4.96625
12.1809 -3.29751 -4.97246
12.2508 -3.21819 -4.97383
12.2402 -3.07641 -4.97762
12.1492 -2.87217 -4.98383
12.0581 -2.66792 -4.99004
12.0475 -2.52614 -4.99384
12.037 -2.38436 -4.99762
11.9459 -2.18011 -5.00383
11.4523 -1.66354 -5.02216
11.5223 -1.58423 -5.02353
11.5117 -1.44245 -5.02731
11.5011 -1.30067 -5.0311
5.78812 -12.0786 -4.84236
5.90999 -11.9888 -4.84131
6.03186 -11.899 -4.84026
6.15372 -11.8092 -4.83919
6.27559 -11.7194 -4.83813
6.49841 -11.6434 -4.83466
6.72123 -11.5674 -4.83118
6.8431 -11.4776 -4.83012
6.96496 -11.3878 -4.82906
7.08683 -11.298 -4.828
7.10775 -11.1943 -4.82938
7.22961 -11.1045 -4.82831
7.45243 -11.0285 -4.82483
7.5743 -10.9387 -4.82378
7.69617 -10.8489 -4.82272
7.81803 -10.7591 -4.82166
7.9399 -10.6692 -4.8206
8.06177 -10.5794 -4.81955
8.18363 -10.4896 -4.8185
8.20455 -10.386 -4.81985
8.22546 -10.2823 -4.82123
8.75114 -10.2479 -4.81047
8.97396 -10.1719 -4.80699
9.09583 -10.0821 -4.80594
9.31864 -10.0061 -4.80246
9.44051 -9.91628 -4.80141
9.56238 -9.82647 -4.80034
9.68425 -9.73665 -4.79929
9.80611 -9.64684 -4.79823
9.92798 -9.55702 -4.79716
10.2518 -9.49489 -4.79128
10.4746 -9.41892 -4.78778
10.5964 -9.32911 -4.78673
10.8193 -9.25313 -4.78325
10.9411 -9.16332 -4.7822
11.063 -9.0735 -4.78114
11.1849 -8.98369 -4.78008
11.3067 -8.89387 -4.77902
11.3276 -8.79021 -4.78038
11.4495 -8.70039 -4.77933
11.5714 -8.61058 -4.77827
11.6932 -8.52076 -4.77722
11.8151 -8.43095 -4.77615
11.937 -8.34113 -4.7751
11.9579 -8.23747 -4.77647
12.0798 -8.14766 -4.77541
12.1007 -8.044 -4.77678
12.2225 -7.95418 -4.77573
12.2435 -7.85052 -4.77708
12.3653 -7.7607 -4.77603
12.4872 -7.67089 -4.77498
12.5081 -7.56723 -4.77634
12.529 -7.46357 -4.77771
12.6509 -7.37375 -4.77664
12.6718 -7.27009 -4.77802
12.6927 -7.16643 -4.77937
12.7136 -7.06277 -4.78075
12.8355 -6.97296 -4.77969
12.8564 -6.8693 -4.78105
12.8773 -6.76563 -4.78242
12.8982 -6.66197 -4.78378
13.0201 -6.57216 -4.78273
13.041 -6.4685 -4.78409
13.0619 -6.36484 -4.78546
13.0829 -6.26118 -4.78682
13.1038 -6.15752 -4.78819
13.1247 -6.05386 -4.78957
13.1456 -5.9502 -4.79092
13.0656 -5.83269 -4.79471
13.0865 -5.72903 -4.79608
13.1074 -5.62537 -4.79744
13.0274 -5.50787 -4.80124
13.0483 -5.40421 -4.8026
13.0692 -5.30055 -4.80397
13.0901 -5.19689 -4.80533
13.111 -5.09323 -4.8067
13.031 -4.97572 -4.81049
13.0519 -4.87206 -4.81186
12.9719 -4.75456 -4.81564
12.9928 -4.6509 -4.81702
12.9127 -4.5334 -4.8208
12.8327 -4.41589 -4.82458
12.8536 -4.31223 -4.82596
12.7736 -4.19473 -4.82974
12.7945 -4.09107 -4.83112
12.8154 -3.98741 -4.83247
12.7354 -3.8699 -4.83626
12.7563 -3.76624 -4.83763
12.6762 -3.64873 -4.84142
12.6972 -3.54508 -4.84279
12.6171 -3.42757 -4.84657
12.638 -3.32391 -4.84795
12.659 -3.22025 -4.8493
12.5789 -3.10275 -4.85309
12.5998 -2.99909 -4.85446
12.6208 -2.89542 -4.85583
12.5407 -2.77792 -4.85962
12.4607 -2.66042 -4.8634
12.4816 -2.55676 -4.86478
12.4016 -2.43925 -4.86856
12.4225 -2.33559 -4.86993
12.3424 -2.21809 -4.87372
12.3633 -2.11443 -4.87508
12.2833 -1.99692 -4.87888
12.2033 -1.87942 -4.88266
12.2242 -1.77576 -4.88403
12.1442 -1.65825 -4.88782
12.1651 -1.55459 -4.88918
12.085 -1.43709 -4.89297
12.1059 -1.33343 -4.89433
12.1269 -1.22977 -4.89571
12.0468 -1.11227 -4.89949
12.0677 -1.00861 -4.90086
11.9877 -0.891099 -4.90465
11.9077 -0.773595 -4.90843
11.9286 -0.669933 -4.90981
11.8485 -0.552432 -4.91359
11.8695 -0.448771 -4.91496
11.7894 -0.331265 -4.91875
11.8103 -0.227605 -4.9201
11.7303 -0.1101 -4.9239
11.7512 -0.0064404 -4.92526
11.6712 0.111063 -4.92906
11.6921 0.214723 -4.93042
11.713 0.318382 -4.93179
11.633 0.43589 -4.93558
11.5529 0.553393 -4.93936
11.5739 0.657054 -4.94073
11.4938 0.774556 -4.94452
11.5147 0.878216 -4.94589
11.4347 0.995723 -4.94968
11.4556 1.09938 -4.95105
11.4765 1.20304 -4.95241
11.4974 1.3067 -4.95378
11.4174 1.42421 -4.95757
11.4383 1.52787 -4.95892
11.3583 1.64537 -4.96272
11.2782 1.76288 -4.96651
11.2992 1.86653 -4.96788
11.2191 1.98404 -4.97166
11.1391 2.10155 -4.97545
10.7562 2.26058 -4.98651
10.7771 2.36424 -4.98788
10.798 2.4679 -4.98924
10.718 2.58541 -4.99303
10.7389 2.68907 -4.9944
10.7598 2.79273 -4.99576
10.8817 2.88254 -4.99471
10.9026 2.9862 -4.99608
10.8226 3.10371 -4.99986
10.8435 3.20737 -5.00124
10.8644 3.31103 -5.00259
10.7844 3.42853 -5.00638
10.7043 3.54604 -5.01018
10.6243 3.66354 -5.01396
10.5442 3.78105 -5.01775
10.5652 3.88471 -5.01912
10.4851 4.00221 -5.0229
10.506 4.10587 -5.02428
10.426 4.22338 -5.02806
10.4469 4.32704 -5.02943
10.4678 4.4307 -5.03079
10.3878 4.5482 -5.03458
10.4087 4.65186 -5.03595
10.3287 4.76937 -5.03973
10.2486 4.88687 -5.04353
12.4202 -7.8061 -4.80373
12.4808 -7.66739 -4.80267
12.5414 -7.52867 -4.80161
12.9795 -7.23601 -4.79086
13.1344 -7.05881 -4.78738
13.1951 -6.92009 -4.78633
13.3501 -6.74289 -4.78285
13.4107 -6.60417 -4.78178
13.377 -6.50394 -4.78316
13.4376 -6.36522 -4.78209
13.4982 -6.22651 -4.78104
13.4645 -6.12628 -4.78241
13.5252 -5.98756 -4.78134
13.4914 -5.88733 -4.78271
13.5521 -5.74862 -4.78166
13.6127 -5.6099 -4.78059
13.579 -5.50967 -4.78197
13.6396 -5.37095 -4.78091
13.6059 -5.27072 -4.78227
13.5722 -5.17049 -4.78365
13.5385 -5.07026 -4.785
13.5991 -4.93155 -4.78395
13.471 -4.8698 -4.78773
13.4373 -4.76957 -4.78911
13.4036 -4.66934 -4.79047
13.3699 -4.56911 -4.79184
13.3362 -4.46888 -4.7932
13.3024 -4.36865 -4.79457
13.2687 -4.26842 -4.79593
13.235 -4.16819 -4.7973
13.2013 -4.06796 -4.79866
13.1676 -3.96773 -4.80003
13.2282 -3.82902 -4.79898
13.1945 -3.72879 -4.80034
13.1608 -3.62856 -4.80171
13.1271 -3.52833 -4.80307
13.0933 -3.4281 -4.80444
13.0596 -3.32787 -4.8058
13.0259 -3.22764 -4.80717
12.9922 -3.12741 -4.80853
13.0528 -2.98869 -4.80748
13.0191 -2.88846 -4.80885
12.9854 -2.78823 -4.81021
12.9517 -2.688 -4.81158
12.918 -2.58777 -4.81294
12.8842 -2.48754 -4.81432
12.8505 -2.38731 -4.81567
12.8168 -2.28708 -4.81705
12.8774 -2.14837 -4.81598
12.8437 -2.04814 -4.81735
12.81 -1.94791 -4.81873
12.7763 -1.84768 -4.82008
12.7426 -1.74745 -4.82146
12.7089 -1.64722 -4.82281
12.6751 -1.54699 -4.82419
12.6414 -1.44676 -4.82555
12.6077 -1.34653 -4.82692
12.574 -1.2463 -4.82828
12.5403 -1.14607 -4.82965
12.5066 -1.04584 -4.83101
12.4728 -0.945608 -4.83238
12.5335 -0.806892 -4.83131
12.4997 -0.706662 -4.83269
12.466 -0.606432 -4.83406
12.4323 -0.506202 -4.83542
12.3986 -0.405973 -4.83679
12.3649 -0.305742 -4.83815
12.3312 -0.205513 -4.83952
12.2974 -0.105282 -4.84088
12.2637 -0.00505209 -4.84225
12.23 0.0951765 -4.84361
12.1963 0.195407 -4.84499
12.1626 0.295638 -4.84634
12.1289 0.395867 -4.84772
12.0951 0.496097 -4.84908
12.0614 0.596327 -4.85045
12.0277 0.696557 -4.85181
11.994 0.796787 -4.85318
11.9603 0.897018 -4.85454
11.9266 0.997246 -4.85591
11.8928 1.09748 -4.85727
11.9535 1.23619 -4.85622
11.9198 1.33643 -4.85759
11.886 1.43665 -4.85895
11.8523 1.53688 -4.86032
11.8186 1.63711 -4.86168
11.7849 1.73734 -4.86305
11.7512 1.83757 -4.86441
11.7175 1.9378 -4.86578
11.6837 2.03803 -4.86714
11.7444 2.17675 -4.86609
11.7107 2.27698 -4.86746
11.6769 2.37721 -4.86882
11.6432 2.47744 -4.87019
11.6095 2.57767 -4.87155
11.5758 2.6779 -4.87292
11.5421 2.77813 -4.87428
11.5084 2.87836 -4.87566
11.4746 2.97859 -4.87701
11.4409 3.07882 -4.87839
11.4072 3.17905 -4.87975
11.4678 3.31776 -4.87869
11.4341 3.418 -4.88007
11.4004 3.51823 -4.88142
11.3667 3.61845 -4.8828
11.333 3.71868 -4.88416
11.2993 3.81891 -4.88553
11.2655 3.91915 -4.88689
11.2318 4.01937 -4.88826
11.1981 4.1196 -4.88962
11.1644 4.21983 -4.89099
11.1307 4.32006 -4.89235
11.097 4.42029 -4.89372
11.0632 4.52052 -4.89508
11.0295 4.62075 -4.89645
10.9958 4.72099 -4.89781
10.9621 4.82122 -4.89919
10.9284 4.92145 -4.90054
10.8946 5.02167 -4.90192
10.8609 5.1219 -4.90327
10.8272 5.22213 -4.90465
10.6991 5.28388 -4.90843
10.6654 5.38411 -4.90981
10.6317 5.48433 -4.91116
10.5036 5.54608 -4.91496
10.4699 5.64631 -4.91632
10.4362 5.74654 -4.91769
10.3081 5.80828 -4.92148
10.2744 5.90851 -4.92285
10.1464 5.97026 -4.92664
10.1126 6.07049 -4.92799
9.98458 6.13223 -4.93179
9.85651 6.19397 -4.93558
9.82279 6.2942 -4.93695
9.69473 6.35595 -4.94073
9.56666 6.41769 -4.94452
9.53295 6.51792 -4.94589
9.40488 6.57967 -4.94968
9.27682 6.64141 -4.95346
9.14875 6.70315 -4.95726
9.11503 6.80338 -4.95862
8.98696 6.86513 -4.96242
8.76455 6.88838 -4.96863
8.63648 6.95012 -4.97241
8.50842 7.01187 -4.9762
8.38035 7.07361 -4.98
8.34663 7.17384 -4.98135
8.21857 7.23559 -4.98514
8.18485 7.33581 -4.98651
8.15113 7.43605 -4.98788
8.02307 7.49779 -4.99167
7.98935 7.59802 -4.99303
7.86129 7.65976 -4.99683
7.82757 7.75999 -4.99818
7.79385 7.86022 -4.99956
7.66578 7.92196 -5.00334
7.53772 7.98371 -5.00713
7.40965 8.04545 -5.01093
13.7708 -4.10555 -4.86214
13.6914 -4.03561 -4.86351
13.6746 -3.88516 -4.86246
13.5953 -3.81522 -4.86382
13.5784 -3.66477 -4.86276
13.5616 -3.51432 -4.86171
13.5447 -3.36387 -4.86064
13.4654 -3.29393 -4.86201
13.4486 -3.14348 -4.86096
13.3692 -3.07354 -4.86232
13.2899 -3.00359 -4.86369
13.2731 -2.85315 -4.86263
13.2562 -2.7027 -4.86157
13.1769 -2.63276 -4.86295
13.1601 -2.48231 -4.86188
13.1432 -2.33186 -4.86082
13.1264 -2.18141 -4.85977
13.1095 -2.03097 -4.8587
13.0927 -1.88051 -4.85765
13.0134 -1.81057 -4.85902
12.9965 -1.66013 -4.85796
12.9797 -1.50968 -4.8569
12.9628 -1.35923 -4.85585
12.946 -1.20878 -4.8548
12.8666 -1.13884 -4.85616
12.8498 -0.988388 -4.8551
12.7705 -0.918444 -4.85646
12.6912 -0.848503 -4.85783
12.6119 -0.77856 -4.85919
12.595 -0.628111 -4.85814
12.5157 -0.558167 -4.85951
12.4988 -0.407719 -4.85844
12.482 -0.257274 -4.85739
12.4651 -0.106825 -4.85634
12.4483 0.0436249 -4.85527
12.4314 0.194071 -4.85422
12.4146 0.344516 -4.85316
12.3977 0.494967 -4.85211
12.3809 0.645413 -4.85104
12.3016 0.715357 -4.85242
12.2223 0.7853 -4.85378
12.2054 0.935749 -4.85272
12.1261 1.00569 -4.8541
12.1093 1.15614 -4.85303
12.0299 1.22608 -4.8544
12.0131 1.37653 -4.85335
11.9338 1.44647 -4.85471
11.9169 1.59692 -4.85365
11.9001 1.74737 -4.8526
11.8832 1.89782 -4.85153
11.8664 2.04827 -4.85048
11.7871 2.11821 -4.85185
11.7702 2.26866 -4.85078
11.7534 2.41911 -4.84973
11.799 2.65006 -4.84625
11.7821 2.80051 -4.8452
11.7028 2.87045 -4.84656
11.686 3.0209 -4.8455
11.6067 3.09084 -4.84686
11.5898 3.24129 -4.84581
11.5105 3.31123 -4.84718
11.4312 3.38117 -4.84854
11.4143 3.53162 -4.84749
11.3975 3.68207 -4.84644
11.3806 3.83252 -4.84537
11.3013 3.90246 -4.84674
11.2845 4.05291 -4.84569
11.2676 4.20336 -4.84462
11.2508 4.35381 -4.84357
11.1714 4.42375 -4.84494
11.1546 4.57419 -4.84387
11.0753 4.64414 -4.84525
10.996 4.71408 -4.8466
10.9791 4.86453 -4.84555
10.8998 4.93447 -4.84692
10.883 5.08492 -4.84586
10.8661 5.23537 -4.8448
10.7868 5.30531 -4.84618
10.7699 5.45576 -4.84511
10.6906 5.5257 -4.84648
10.6113 5.59565 -4.84784
10.532 5.66559 -4.84921
10.5151 5.81604 -4.84816
10.4358 5.88598 -4.84952
10.419 6.03643 -4.84846
10.4021 6.18688 -4.84741
10.3228 6.25682 -4.84877
10.2435 6.32676 -4.85014
10.1642 6.39671 -4.8515
10.0849 6.46665 -4.85287
10.068 6.6171 -4.85181
9.98871 6.68704 -4.85318
9.9094 6.75698 -4.85454
9.83008 6.82692 -4.85591
9.75077 6.89687 -4.85727
9.73392 7.04732 -4.85622
9.6546 7.11726 -4.85759
9.57529 7.18721 -4.85895
9.49597 7.25715 -4.86032
9.35419 7.24658 -4.86411
9.33735 7.39704 -4.86305
9.25803 7.46698 -4.86441
9.17872 7.53692 -4.86578
9.03693 7.52636 -4.86957
8.95762 7.5963 -4.87094
8.8783 7.66624 -4.8723
8.79899 7.73619 -4.87367
8.71968 7.80613 -4.87503
8.64036 7.87607 -4.8764
8.56104 7.94602 -4.87776
8.48173 8.01596 -4.87914
8.40242 8.08591 -4.88049
8.3231 8.15585 -4.88187
8.18132 8.14528 -4.88565
8.10201 8.21523 -4.88702
8.02269 8.28517 -4.88838
7.94338 8.35512 -4.88976
7.80159 8.34455 -4.89354
7.72228 8.41449 -4.89491
7.5805 8.40393 -4.8987
7.50119 8.47388 -4.90005
7.42187 8.54382 -4.90143
7.34256 8.61376 -4.90279
7.26324 8.68371 -4.90416
7.12146 8.67315 -4.90794
7.04215 8.74309 -4.90932
6.90037 8.73253 -4.9131
6.82105 8.80247 -4.91447
6.67927 8.79191 -4.91826
6.53749 8.78135 -4.92204
6.45818 8.85129 -4.92342
6.3164 8.84073 -4.9272
6.23708 8.91067 -4.92857
6.0953 8.90011 -4.93236
5.95352 8.88955 -4.93614
5.81174 8.87899 -4.93994
5.66996 8.86842 -4.94373
5.52818 8.85786 -4.94751
5.3864 8.8473 -4.95131
4.93229 8.43422 -4.96721
4.85298 8.50416 -4.96858
4.77366 8.5741 -4.96994
4.69435 8.64405 -4.97131
4.55257 8.63348 -4.9751
4.47325 8.70343 -4.97646
4.33147 8.69287 -4.98026
4.18969 8.6823 -4.98404
10.4477 6.32467 -4.85938
10.3579 6.44654 -4.85832
10.2681 6.5684 -4.85727
10.1644 6.58932 -4.85863
10.0746 6.71119 -4.85757
9.97097 6.7321 -4.85893
9.895 6.95492 -4.85545
9.80518 7.07679 -4.8544
9.70152 7.0977 -4.85576
9.61171 7.21957 -4.85471
9.50805 7.24048 -4.85608
9.41823 7.36235 -4.85501
9.32842 7.48422 -4.85396
9.2386 7.60609 -4.85291
9.14878 7.72795 -4.85185
9.05897 7.84982 -4.85078
8.95531 7.87073 -4.85216
8.86549 7.99261 -4.8511
8.77568 8.11447 -4.85004
8.67202 8.13538 -4.85141
8.56836 8.1563 -4.85277
8.47854 8.27816 -4.85172
8.38873 8.40004 -4.85066
8.29891 8.5219 -4.84959
8.19525 8.54282 -4.85097
8.10543 8.66468 -4.84991
8.00177 8.6856 -4.85127
7.89811 8.70651 -4.85265
7.8083 8.82838 -4.85158
7.70464 8.84929 -4.85295
7.60098 8.87021 -4.85432
7.49732 8.89113 -4.85568
7.39366 8.91204 -4.85706
7.29 8.93295 -4.85841
7.20018 9.05482 -4.85736
7.09652 9.07574 -4.85872
6.99286 9.09665 -4.86009
6.8892 9.11757 -4.86145
6.78554 9.13848 -4.86282
6.68188 9.1594 -4.86418
6.57822 9.18031 -4.86555
6.47456 9.20123 -4.86691
6.3709 9.22214 -4.86829
6.26724 9.24306 -4.86966
6.16358 9.26397 -4.87102
6.05992 9.28489 -4.87239
5.95626 9.30581 -4.87375
5.8526 9.32672 -4.87512
5.74894 9.34763 -4.87648
5.63143 9.2676 -4.88026
5.52777 9.28851 -4.88164
5.42412 9.30943 -4.883
5.32045 9.33034 -4.88437
5.21679 9.35126 -4.88574
5.11313 9.37217 -4.8871
5.00947 9.39309 -4.88847
4.90581 9.414 -4.88983
4.80215 9.43492 -4.8912
4.69849 9.45583 -4.89256
4.59483 9.47675 -4.89394
4.47733 9.39671 -4.89772
4.37367 9.41763 -4.89909
4.27001 9.43854 -4.90045
4.16635 9.45946 -4.90182
4.06269 9.48037 -4.90318
3.95903 9.50129 -4.90456
3.84152 9.42125 -4.90834
3.73786 9.44217 -4.9097
3.6342 9.46308 -4.91107
3.5167 9.38305 -4.91486
3.41304 9.40396 -4.91623
3.30938 9.42487 -4.91759
3.17803 9.24388 -4.9238
3.04668 9.0629 -4.93002
2.85995 8.4781 -4.94592
2.75629 8.49902 -4.94728
2.65263 8.51993 -4.94865
2.54897 8.54085 -4.95003
2.44531 8.56176 -4.95139
2.32781 8.48173 -4.95517
2.22415 8.50264 -4.95654
2.12049 8.52355 -4.9579
2.00298 8.44351 -4.9617
1.89932 8.46443 -4.96306
1.78182 8.3844 -4.96686
1.66431 8.30436 -4.97064
1.54681 8.22432 -4.97443
1.44315 8.24524 -4.9758
1.32565 8.16521 -4.97958
1.22199 8.18612 -4.98096
1.10448 8.10608 -4.98474
7.17981 9.20521 -4.89479
7.0411 9.26584 -4.89374
6.94087 9.23213 -4.89511
6.80215 9.29276 -4.89404
6.66343 9.35339 -4.89299
6.5632 9.31967 -4.89436
6.46297 9.28595 -4.89572
6.32426 9.34659 -4.89467
6.22403 9.31287 -4.89603
6.1238 9.27915 -4.8974
5.98508 9.33978 -4.89635
5.84637 9.40042 -4.89528
5.66916 9.5554 -4.8918
5.49196 9.71038 -4.88832
5.39173 9.67666 -4.88969
5.25301 9.7373 -4.88863
5.15278 9.70358 -4.89
5.01407 9.76421 -4.88895
4.91384 9.73049 -4.8903
4.77512 9.79113 -4.88925
4.67489 9.75741 -4.89061
4.57466 9.72369 -4.89198
4.43595 9.78432 -4.89093
4.33572 9.75061 -4.89229
4.23549 9.71689 -4.89366
4.13526 9.68317 -4.89502
4.03503 9.64946 -4.89639
3.9348 9.61574 -4.89775
3.83457 9.58202 -4.89912
3.73434 9.5483 -4.90048
3.63411 9.51459 -4.90186
3.53388 9.48087 -4.90321
3.43365 9.44715 -4.90459
3.33342 9.41344 -4.90594
3.23319 9.37972 -4.90732
3.13296 9.346 -4.90868
3.03273 9.31229 -4.91005
2.89401 9.37292 -4.909
2.79378 9.3392 -4.91035
2.69355 9.30548 -4.91173
2.59332 9.27177 -4.91309
2.49309 9.23805 -4.91446
2.39286 9.20433 -4.91582
2.29263 9.17061 -4.91719
2.1924 9.1369 -4.91855
2.09217 9.10318 -4.91992
1.99194 9.06947 -4.92128
1.9302 8.9414 -4.92508
1.82997 8.90768 -4.92644
1.72974 8.87396 -4.92781
1.62951 8.84025 -4.92917
1.52928 8.80653 -4.93054
1.42905 8.77282 -4.9319
1.32882 8.7391 -4.93327
1.22859 8.70538 -4.93463
1.12836 8.67166 -4.936
1.02813 8.63795 -4.93736
0.927898 8.60423 -4.93874
0.827669 8.57051 -4.94009
0.727438 8.53679 -4.94147
0.627208 8.50308 -4.94284
0.526978 8.46936 -4.9442
0.426749 8.43564 -4.94557
0.365006 8.30758 -4.94936
0.264775 8.27386 -4.95071
0.164544 8.24014 -4.95209
0.0643146 8.20643 -4.95345
-0.0359137 8.17271 -4.95482
-0.136145 8.13899 -4.95618
-0.197886 8.01092 -4.95998
-0.298116 7.97721 -4.96133
-0.398347 7.94349 -4.96271
-0.460091 7.81543 -4.96649
-0.560322 7.78171 -4.96786
-0.583578 7.55929 -4.97408
-0.645323 7.43123 -4.97786
-0.745553 7.39751 -4.97923
-0.845782 7.3638 -4.98059
-0.946013 7.33008 -4.98196
-1.00775 7.20201 -4.98575
-1.10799 7.16829 -4.98712
-1.20822 7.13458 -4.98848
-1.26996 7.00651 -4.99226
-1.37019 6.97279 -4.99364
0.97266 8.98802 -4.95529
0.822217 8.97117 -4.95424
0.671767 8.95433 -4.95317
0.521318 8.93748 -4.95212
0.290365 8.98309 -4.94864
0.139918 8.96624 -4.94759
-0.0105276 8.94939 -4.94653
-0.0804715 8.87008 -4.94789
-0.150414 8.79076 -4.94926
-0.22036 8.71145 -4.95062
-0.370808 8.6946 -4.94957
-0.440748 8.61528 -4.95093
-0.510692 8.53597 -4.9523
-0.580636 8.45666 -4.95366
-0.65058 8.37734 -4.95503
-0.720523 8.29803 -4.95639
-0.870969 8.28118 -4.95534
-0.940913 8.20186 -4.95671
-1.01086 8.12255 -4.95807
-1.0808 8.04323 -4.95944
-1.15074 7.96392 -4.9608
-1.22068 7.8846 -4.96217
-1.29063 7.80529 -4.96353
-1.36057 7.72598 -4.9649
-1.43052 7.64666 -4.96626
-1.50046 7.56734 -4.96764
-1.5704 7.48803 -4.96899
-1.64034 7.40872 -4.97037
-1.71029 7.3294 -4.97173
-1.78023 7.25009 -4.9731
-1.85017 7.17077 -4.97446
-1.92012 7.09146 -4.97583
-1.99006 7.01214 -4.9772
-2.14051 6.9953 -4.97614
-2.21045 6.91598 -4.97751
-2.2804 6.83667 -4.97887
-2.35034 6.75735 -4.98024
-2.42028 6.67804 -4.9816
-2.49023 6.59872 -4.98297
-2.56017 6.51941 -4.98433
-2.63011 6.44009 -4.9857
-2.70006 6.36078 -4.98706
-2.77 6.28146 -4.98843
-2.83994 6.20215 -4.98979
-2.90988 6.12283 -4.99117
-2.89932 5.98105 -4.99495
-2.96926 5.90174 -4.99632
-3.03921 5.82242 -4.99768
-3.10915 5.74311 -4.99905
-3.17909 5.66379 -5.00041
-3.24904 5.58448 -5.00179
-3.31898 5.50516 -5.00314
-3.38892 5.42585 -5.00452
-3.45887 5.34654 -5.00589
-3.52881 5.26722 -5.00725
-3.59875 5.1879 -5.00862
-3.6687 5.10859 -5.00998
-3.73864 5.02928 -5.01135
-3.80858 4.94996 -5.01271
-3.87852 4.87065 -5.01408
-3.86796 4.72887 -5.01787
-3.93791 4.64955 -5.01924
-4.00785 4.57024 -5.0206
-3.99729 4.42845 -5.02438
-5.36029 -2.25487 -4.10295
-5.3812 -2.35853 -4.10432
-5.30117 -2.47603 -4.10811
-4.81732 -2.64891 -4.12158
-4.73729 -2.76642 -4.12538
-3.68708 6.03795 -4.99367
-3.70799 5.93429 -4.99504
-3.72891 5.83063 -4.9964
-3.85078 5.74081 -4.99535
-3.87169 5.63715 -4.9967
-3.89261 5.53349 -4.99808
-3.91352 5.42983 -4.99945
-3.93444 5.32617 -5.00081
-3.95535 5.22251 -5.00218
-3.97626 5.11885 -5.00354
-3.99718 5.01519 -5.00491
-4.0181 4.91153 -5.00627
-4.03901 4.80787 -5.00764
-4.05993 4.70421 -5.009
-4.08084 4.60055 -5.01038
-4.10176 4.49689 -5.01173
-4.12267 4.39323 -5.01311
-4.24454 4.30341 -5.01204
-4.26545 4.19975 -5.01341
-4.28637 4.09609 -5.01479
-4.30728 3.99243 -5.01614
-4.3282 3.88877 -5.01752
-4.34912 3.78511 -5.01888
-4.37003 3.68145 -5.02025
-4.39094 3.57779 -5.02161
-4.41186 3.47413 -5.02298
-4.43278 3.37047 -5.02434
-4.45369 3.26681 -5.02571
-4.4746 3.16315 -5.02707
-4.49552 3.05949 -5.02844
-4.51644 2.95583 -5.0298
-4.53735 2.85217 -5.03117
-4.55827 2.74851 -5.03253
-4.57918 2.64485 -5.03391
-4.6001 2.54119 -5.03526
-4.62101 2.43753 -5.03664
-4.64193 2.33387 -5.03799
-4.66284 2.23021 -5.03937
-4.68376 2.12655 -5.04073
-4.70467 2.02289 -5.0421
-4.82654 1.93307 -5.04105
-4.84746 1.82941 -5.0424
-4.86837 1.72575 -5.04378
-4.88929 1.62209 -5.04514
-4.9102 1.51843 -5.04651
-4.93112 1.41477 -5.04787
-4.95203 1.31111 -5.04924
-4.97295 1.20745 -5.0506
-4.99386 1.10379 -5.05197
-5.01478 1.00013 -5.05333
-5.03569 0.896473 -5.0547
-5.05661 0.792811 -5.05606
-5.07752 0.689151 -5.05743
-5.09844 0.585491 -5.05881
-5.11935 0.48183 -5.06017
-5.14027 0.37817 -5.06154
-5.16119 0.274512 -5.0629
-5.1821 0.170852 -5.06427
-5.20301 0.0671921 -5.06563
-5.22393 -0.0364693 -5.067
-5.24485 -0.140129 -5.06836
-5.26576 -0.243791 -5.06973
-5.18572 -0.361295 -5.07352
-5.20663 -0.464956 -5.07489
-5.22755 -0.568616 -5.07625
-5.24847 -0.672275 -5.07762
-5.26938 -0.775937 -5.07898
-5.2903 -0.879597 -5.08035
-5.31121 -0.983257 -5.08171
-5.33213 -1.08692 -5.08308
-5.35304 -1.19058 -5.08444
-5.37395 -1.29424 -5.08582
-5.39487 -1.3979 -5.08717
-5.41579 -1.50156 -5.08855
-5.4367 -1.60522 -5.0899
-5.35667 -1.72272 -5.0937
-5.37758 -1.82638 -5.09506
-5.39849 -1.93004 -5.09644
-5.41941 -2.0337 -5.09779
-5.33938 -2.15121 -5.10159
-5.36029 -2.25487 -5.10295
-5.3812 -2.35853 -5.10432
-5.30117 -2.47603 -5.10811
-5.32208 -2.57969 -5.10947
-5.343 -2.68335 -5.11084
-5.36391 -2.78701 -5.1122
-5.38483 -2.89067 -5.11357
-5.30479 -3.00817 -5.11736
-5.38926 0.301609 -5.0298
-5.35555 0.201379 -5.03117
-5.41618 0.0626606 -5.03012
-5.47681 -0.0760539 -5.02905
-5.53744 -0.214771 -5.028
-5.69243 -0.391973 -5.02452
-5.75306 -0.53069 -5.02347
-5.81369 -0.669407 -5.0224
-5.87432 -0.808121 -5.02135
-5.93495 -0.946839 -5.02029
-5.90124 -1.04707 -5.02165
-5.96187 -1.18579 -5.0206
-5.92815 -1.28601 -5.02197
-5.89443 -1.38624 -5.02333
-5.86072 -1.48647 -5.0247
-5.827 -1.5867 -5.02606
-5.79328 -1.68694 -5.02744
-5.75956 -1.78716 -5.02879
-5.72585 -1.88739 -5.03017
-5.69213 -1.98762 -5.03152
-5.75276 -2.12634 -5.03047
-5.71905 -2.22657 -5.03183
-5.68533 -2.3268 -5.0332
-5.65161 -2.42703 -5.03458
-5.6179 -2.52726 -5.03593
-5.58418 -2.62749 -5.03731
-5.55046 -2.72772 -5.03867
-5.51674 -2.82795 -5.04004
-5.48303 -2.92818 -5.0414
-5.44931 -3.02841 -5.04277
-5.41559 -3.12864 -5.04413
-5.38187 -3.22887 -5.0455
-5.34816 -3.3291 -5.04686
-5.31444 -3.42933 -5.04823
-5.28073 -3.52956 -5.04959
-5.24701 -3.62979 -5.05096
-5.11894 -3.69153 -5.05475
-5.08523 -3.79176 -5.05612
-5.05151 -3.89199 -5.05748
-5.01779 -3.99222 -5.05885
-4.98408 -4.09245 -5.06021
-4.95036 -4.19268 -5.06158
-4.91664 -4.29291 -5.06294
-4.88292 -4.39314 -5.06432
-4.84921 -4.49337 -5.06567
-4.81549 -4.5936 -5.06705
-4.78177 -4.69383 -5.06841
-4.65371 -4.75558 -5.0722
-4.61999 -4.85581 -5.07356
-4.58627 -4.95604 -5.07494
-4.45821 -5.01778 -5.07872
-4.42449 -5.11801 -5.08009
-4.29642 -5.17975 -5.08388
-4.26271 -5.27998 -5.08524
-4.22899 -5.38021 -5.08661
-4.10092 -5.44196 -5.09039
-4.06721 -5.54219 -5.09177
-4.03349 -5.64242 -5.09312
-3.99977 -5.74265 -5.0945
-3.96606 -5.84288 -5.09586
-3.83799 -5.90462 -5.09966
-3.80427 -6.00485 -5.10101
-3.67621 -6.06659 -5.10481
-3.64249 -6.16682 -5.10617
-3.60878 -6.26705 -5.10754
-3.4807 -6.32879 -5.11133
-3.44699 -6.42903 -5.11269
-3.22458 -6.45228 -5.11891
-3.80427 -6.00485 -4.10101
-3.77056 -6.10508 -4.10239
-3.64249 -6.16682 -4.10617
-3.60878 -6.26705 -4.10754
-3.57506 -6.36728 -4.1089
-3.54134 -6.46751 -4.11028
-3.41327 -6.52925 -4.11406
-3.37955 -6.62949 -4.11542
-3.25149 -6.69123 -4.11922
-3.12343 -6.75297 -4.123
-2.99536 -6.81472 -4.12679
-2.96164 -6.91495 -4.12816
-2.83357 -6.97669 -4.13194
-2.79985 -7.07692 -4.13332
-2.76614 -7.17715 -4.13467
-2.63807 -7.23889 -4.13847
-2.51001 -7.30064 -4.14226
-2.38194 -7.36238 -4.14604
-2.25388 -7.42412 -4.14984
-2.22016 -7.52435 -4.1512
-2.18644 -7.62458 -4.15257
-2.05838 -7.68633 -4.15636
1.31384 -11.2305 -4.10173
1.45563 -11.22 -4.10551
1.5974 -11.2094 -4.10931
1.73918 -11.1989 -4.1131
1.8185 -11.2688 -4.11446
1.89781 -11.3387 -4.11583
2.03959 -11.3282 -4.11961
2.18137 -11.3176 -4.12341
2.32315 -11.307 -4.1272
2.46493 -11.2965 -4.13098
2.60671 -11.2859 -4.13478
2.7485 -11.2754 -4.13857
-5.3416 -4.14116 -4.99924
-5.26229 -4.21111 -5.0006
-5.24544 -4.36155 -4.99954
-5.16613 -4.4315 -5.0009
-5.14928 -4.58195 -4.99985
-5.06996 -4.65189 -5.00122
-4.99064 -4.72183 -5.00258
-4.91133 -4.79177 -5.00395
-4.83202 -4.86172 -5.00531
-4.7527 -4.93166 -5.00668
-4.73585 -5.08211 -5.00562
-4.65654 -5.15205 -5.00699
-4.63969 -5.3025 -5.00594
-4.56038 -5.37244 -5.00729
-4.48106 -5.44239 -5.00867
-4.46421 -5.59283 -5.0076
-4.38489 -5.66278 -5.00897
-4.30558 -5.73272 -5.01033
-4.22627 -5.80266 -5.0117
-4.20942 -5.95311 -5.01065
-4.19257 -6.10356 -5.00958
-4.11325 -6.1735 -5.01096
-4.0964 -6.32395 -5.0099
-4.01709 -6.39389 -5.01126
-3.93777 -6.46384 -5.01263
-3.85846 -6.53378 -5.01399
-3.84161 -6.68423 -5.01294
-3.7623 -6.75417 -5.01431
-3.68298 -6.82412 -5.01567
-3.60367 -6.89406 -5.01704
-3.52435 -6.964 -5.0184
-3.44504 -7.03395 -5.01978
-3.36572 -7.10389 -5.02113
-3.34887 -7.25433 -5.02008
-3.26956 -7.32428 -5.02144
-3.19024 -7.39422 -5.02281
-3.11093 -7.46416 -5.02417
-3.03161 -7.53411 -5.02554
-2.9523 -7.60405 -5.0269
-2.87299 -7.67399 -5.02827
-2.85614 -7.82444 -5.02722
-2.77682 -7.89438 -5.02858
-2.69751 -7.96433 -5.02995
-2.61819 -8.03427 -5.03131
-2.53888 -8.10421 -5.03268
-2.45956 -8.17416 -5.03404
-2.38025 -8.2441 -5.03542
-2.30093 -8.31404 -5.03677
-2.22162 -8.38399 -5.03815
-2.1423 -8.45393 -5.03951
-2.06299 -8.52387 -5.04088
-1.98368 -8.59382 -5.04224
-1.90436 -8.66376 -5.04361
-1.82505 -8.7337 -5.04498
-1.74573 -8.80364 -5.04634
-1.66642 -8.87359 -5.04771
-1.5871 -8.94353 -5.04907
-1.50779 -9.01348 -5.05045
-1.42847 -9.08342 -5.0518
-1.34916 -9.15336 -5.05318
-1.26984 -9.2233 -5.05453
-1.19053 -9.29325 -5.05591
-1.11121 -9.36319 -5.05727
-1.0319 -9.43313 -5.05864
-0.952584 -9.50308 -5.06
-0.87327 -9.57302 -5.06137
-0.793956 -9.64296 -5.06273
-0.714641 -9.71291 -5.0641
-0.635325 -9.78285 -5.06546
-0.55601 -9.85279 -5.06683
-0.476697 -9.92274 -5.06819
-0.397384 -9.99268 -5.06956
-0.318068 -10.0626 -5.07092
-0.238752 -10.1326 -5.0723
-0.159437 -10.2025 -5.07367
-0.0801229 -10.2725 -5.07503
-0.000809193 -10.3424 -5.0764
0.0785046 -10.4123 -5.07776
0.157821 -10.4823 -5.07913
0.299603 -10.4717 -5.08292
0.378917 -10.5417 -5.08427
0.458231 -10.6116 -5.08565
0.537546 -10.6815 -5.08701
0.616861 -10.7515 -5.08838
0.696177 -10.8214 -5.08975
0.77549 -10.8914 -5.09111
0.854804 -10.9613 -5.09248
0.996585 -10.9508 -5.09627
1.0759 -11.0207 -5.09763
1.15521 -11.0906 -5.099
1.23453 -11.1606 -5.10036
1.31384 -11.2305 -5.10173
1.45563 -11.22 -5.10551
1.53494 -11.2899 -5.10689
1.61425 -11.3599 -5.10825
1.75603 -11.3493 -5.11205
1.83535 -11.4192 -5.1134
1.97713 -11.4087 -5.1172
2.11891 -11.3981 -5.12099
2.26069 -11.3876 -5.12477
2.40247 -11.377 -5.12857
