ply
format ascii 1.0
comment VCGLIB generated
element vertex 1111
property float x
property float y
property float z
element face 0
property list uchar int vertex_indices
end_header
2.24753 -11.4866 -3.85837
2.39797 -11.4698 -3.85732
3.03145 -11.8277 -3.84172
3.1819 -11.8109 -3.84065
3.33235 -11.794 -3.8396
3.72431 -11.9646 -3.83127
4.19677 -12.1976 -3.82053
4.34722 -12.1808 -3.81947
4.49767 -12.1639 -3.81841
4.64812 -12.1471 -3.81735
4.87907 -12.1927 -3.81387
5.02951 -12.1758 -3.81282
5.17997 -12.159 -3.81175
5.24991 -12.0797 -3.81313
5.40036 -12.0628 -3.81207
5.5508 -12.046 -3.811
5.62074 -11.9666 -3.81238
5.77119 -11.9498 -3.81133
5.84114 -11.8705 -3.81268
5.99159 -11.8536 -3.81163
6.06153 -11.7743 -3.81299
6.21198 -11.7575 -3.81194
6.28192 -11.6782 -3.81331
6.43237 -11.6613 -3.81224
6.50231 -11.582 -3.81361
6.57225 -11.5027 -3.81497
6.7227 -11.4858 -3.81392
6.79264 -11.4065 -3.81529
6.86259 -11.3272 -3.81665
7.01304 -11.3104 -3.8156
7.08298 -11.231 -3.81696
7.15292 -11.1517 -3.81833
7.30337 -11.1349 -3.81728
7.37331 -11.0556 -3.81863
7.44326 -10.9762 -3.82001
7.5132 -10.8969 -3.82137
7.66365 -10.8801 -3.82031
7.73359 -10.8008 -3.82167
7.88404 -10.7839 -3.82062
7.95398 -10.7046 -3.82199
8.02392 -10.6253 -3.82335
8.09387 -10.546 -3.82472
8.24432 -10.5291 -3.82365
8.31426 -10.4498 -3.82503
8.3842 -10.3705 -3.82639
8.45414 -10.2912 -3.82776
8.60459 -10.2743 -3.82671
8.75504 -10.2575 -3.82564
8.82499 -10.1782 -3.82701
8.89493 -10.0988 -3.82837
9.04537 -10.082 -3.82732
9.11532 -10.0027 -3.82869
9.18526 -9.92337 -3.83005
9.33571 -9.90652 -3.82899
9.40565 -9.8272 -3.83037
9.4756 -9.74789 -3.83173
9.62604 -9.73104 -3.83067
9.69599 -9.65173 -3.83203
9.84644 -9.63488 -3.83098
9.91638 -9.55556 -3.83235
9.98632 -9.47625 -3.83371
10.1368 -9.4594 -3.83266
10.2067 -9.38008 -3.83401
10.3572 -9.36323 -3.83296
10.4271 -9.28392 -3.83434
10.5776 -9.26707 -3.83327
10.6475 -9.18776 -3.83464
10.7174 -9.10844 -3.836
10.7874 -9.02913 -3.83737
10.9378 -9.01228 -3.83632
11.0078 -8.93296 -3.83768
11.0777 -8.85365 -3.83905
11.2282 -8.8368 -3.83798
11.2981 -8.75748 -3.83936
11.368 -8.67817 -3.84071
11.5185 -8.66132 -3.83966
11.5884 -8.58201 -3.84103
11.6584 -8.50269 -3.84239
11.7283 -8.42338 -3.84377
11.7983 -8.34406 -3.84512
11.8682 -8.26475 -3.8465
11.9382 -8.18543 -3.84785
12.0081 -8.10612 -3.84923
12.078 -8.0268 -3.85059
12.148 -7.94749 -3.85196
12.1374 -7.80571 -3.85574
12.2074 -7.72639 -3.85712
12.2773 -7.64708 -3.85847
12.3472 -7.56776 -3.85985
12.3367 -7.42598 -3.86363
12.3261 -7.28421 -3.86742
12.3961 -7.20489 -3.86879
12.3855 -7.06311 -3.87257
12.4555 -6.98379 -3.87395
12.4449 -6.84201 -3.87773
12.5148 -6.7627 -3.8791
12.5848 -6.68339 -3.88046
12.5742 -6.5416 -3.88425
12.6442 -6.46229 -3.88562
12.7141 -6.38297 -3.88698
12.7035 -6.24119 -3.89078
12.693 -6.09941 -3.89456
12.7629 -6.0201 -3.89594
12.7524 -5.87832 -3.89972
12.7418 -5.73654 -3.9035
12.6507 -5.53229 -3.90971
12.5597 -5.32805 -3.91594
12.4686 -5.1238 -3.92215
12.458 -4.98202 -3.92593
12.4475 -4.84024 -3.92972
12.3564 -4.636 -3.93593
12.3458 -4.49422 -3.93973
12.4158 -4.4149 -3.94109
12.4052 -4.27312 -3.94489
12.4752 -4.1938 -3.94624
12.4646 -4.05203 -3.95003
12.4541 -3.91025 -3.95383
12.363 -3.706 -3.96004
12.3524 -3.56422 -3.96382
12.3419 -3.42244 -3.96762
12.1703 -3.15573 -3.97624
12.0792 -2.95148 -3.98247
12.0687 -2.8097 -3.98625
11.9776 -2.60546 -3.99246
11.967 -2.46368 -3.99625
11.715 -2.1345 -4.00731
5.9309 -11.8851 -3.84268
6.05278 -11.7953 -3.84161
6.17464 -11.7055 -3.84056
6.29651 -11.6157 -3.83951
6.41837 -11.5259 -3.83844
6.64119 -11.4499 -3.83496
6.86401 -11.3739 -3.83148
7.08683 -11.298 -3.828
7.2087 -11.2081 -3.82695
7.43151 -11.1322 -3.82347
7.55339 -11.0424 -3.82242
7.67525 -10.9525 -3.82135
7.89807 -10.8766 -3.81787
8.01994 -10.7868 -3.81682
8.1418 -10.6969 -3.81577
8.16272 -10.5933 -3.81712
8.38554 -10.5173 -3.81364
8.50741 -10.4275 -3.81259
8.62927 -10.3377 -3.81154
8.85209 -10.2617 -3.80804
8.97396 -10.1719 -3.80699
9.19678 -10.0959 -3.80351
9.31864 -10.0061 -3.80246
9.44051 -9.91628 -3.80141
9.56238 -9.82647 -3.80034
9.68425 -9.73665 -3.79929
9.80611 -9.64684 -3.79823
9.92798 -9.55702 -3.79716
10.1508 -9.48105 -3.79369
10.2727 -9.39123 -3.79263
10.3945 -9.30142 -3.79158
10.9202 -9.26698 -3.78082
10.9411 -9.16332 -3.7822
11.063 -9.0735 -3.78114
11.0839 -8.96984 -3.7825
11.2058 -8.88003 -3.78145
11.2267 -8.77637 -3.78281
11.3486 -8.68655 -3.78175
11.3695 -8.58289 -3.78313
11.4913 -8.49307 -3.78206
11.7142 -8.4171 -3.77858
11.836 -8.32729 -3.77753
11.9579 -8.23747 -3.77647
11.9788 -8.13381 -3.77783
11.9997 -8.03015 -3.77921
12.1216 -7.94034 -3.77814
12.1425 -7.83668 -3.77951
12.2644 -7.74686 -3.77846
12.2853 -7.6432 -3.77982
12.3062 -7.53954 -3.78119
12.4281 -7.44972 -3.78012
12.449 -7.34606 -3.78149
12.4699 -7.2424 -3.78285
12.5918 -7.15259 -3.7818
12.6127 -7.04893 -3.78317
12.6336 -6.94527 -3.78453
12.6545 -6.84161 -3.7859
12.7764 -6.75179 -3.78484
12.7973 -6.64813 -3.78621
12.8182 -6.54447 -3.78757
12.8391 -6.44081 -3.78894
12.86 -6.33715 -3.79031
12.8809 -6.23349 -3.79167
12.9019 -6.12983 -3.79305
12.9228 -6.02617 -3.7944
12.9437 -5.92251 -3.79578
12.9646 -5.81885 -3.79713
12.9855 -5.71519 -3.79851
13.0064 -5.61153 -3.79987
12.9264 -5.49402 -3.80367
12.9473 -5.39036 -3.80502
12.9682 -5.28671 -3.8064
12.9892 -5.18304 -3.80775
12.9091 -5.06554 -3.81154
12.93 -4.96188 -3.81291
12.85 -4.84437 -3.8167
12.77 -4.72687 -3.8205
12.7909 -4.62321 -3.82185
12.8118 -4.51955 -3.82323
12.7318 -4.40205 -3.82701
12.6517 -4.28454 -3.8308
12.6726 -4.18088 -3.83217
12.6935 -4.07722 -3.83353
12.6135 -3.95972 -3.83733
12.6344 -3.85606 -3.83868
12.5544 -3.73855 -3.84248
12.5753 -3.63489 -3.84384
12.4953 -3.51739 -3.84763
12.5162 -3.41373 -3.849
12.5371 -3.31007 -3.85036
12.4571 -3.19256 -3.85416
12.478 -3.0889 -3.85551
12.4989 -2.98524 -3.85689
12.4189 -2.86774 -3.86067
12.4398 -2.76408 -3.86205
12.3597 -2.64657 -3.86583
12.2797 -2.52907 -3.86961
12.3006 -2.42541 -3.87099
12.2206 -2.3079 -3.87477
12.2415 -2.20424 -3.87614
12.1614 -2.08674 -3.87993
12.1824 -1.98308 -3.88129
12.2033 -1.87942 -3.88266
12.1232 -1.76191 -3.88644
12.1442 -1.65825 -3.88782
12.1651 -1.55459 -3.88918
12.085 -1.43709 -3.89297
12.1059 -1.33343 -3.89433
12.1269 -1.22977 -3.89571
12.0468 -1.11227 -3.89949
12.0677 -1.00861 -3.90086
11.9877 -0.891099 -3.90465
12.0086 -0.787439 -3.90601
11.9286 -0.669933 -3.90981
11.8485 -0.552432 -3.91359
11.7685 -0.434925 -3.91737
11.7894 -0.331265 -3.91875
11.8103 -0.227605 -3.9201
11.7303 -0.1101 -3.9239
11.7512 -0.0064404 -3.92526
11.6712 0.111063 -3.92906
11.6921 0.214723 -3.93042
11.6121 0.332228 -3.9342
11.633 0.43589 -3.93558
11.5529 0.553393 -3.93936
11.5739 0.657054 -3.94073
11.4938 0.774556 -3.94452
11.5147 0.878216 -3.94589
11.5356 0.981878 -3.94725
11.4556 1.09938 -3.95105
11.3756 1.21689 -3.95483
11.2955 1.33439 -3.95862
11.1145 1.46574 -3.96483
11.0345 1.58324 -3.96863
11.0554 1.6869 -3.96999
11.0763 1.79056 -3.97136
11.1982 1.88038 -3.97029
11.1182 1.99788 -3.97409
11.1391 2.10155 -3.97545
11.16 2.2052 -3.97682
11.08 2.32271 -3.98061
11.1009 2.42637 -3.98198
11.0208 2.54387 -3.98576
10.9408 2.66138 -3.98955
10.9617 2.76504 -3.99092
10.8817 2.88254 -3.99471
10.8017 3.00005 -3.99849
10.7216 3.11755 -4.00229
10.6416 3.23506 -4.00607
10.6625 3.33872 -4.00745
10.5825 3.45622 -4.01123
10.5024 3.57373 -4.01501
10.4224 3.69123 -4.01881
10.3423 3.80874 -4.0226
10.2623 3.92624 -4.02638
10.2832 4.0299 -4.02776
10.2032 4.1474 -4.03154
10.2241 4.25107 -4.03291
10.245 4.35472 -4.03427
10.2659 4.45838 -4.03564
10.1859 4.57589 -4.03943
10.2068 4.67955 -4.0408
10.1268 4.79706 -4.04459
10.1477 4.90071 -4.04594
10.0677 5.01822 -4.04974
10.0886 5.12188 -4.0511
9.90757 5.25323 -4.05731
9.82754 5.37073 -4.06111
9.24274 5.55746 -4.07701
9.16271 5.67496 -4.0808
12.3595 -7.94482 -3.80478
12.4202 -7.8061 -3.80373
12.4808 -7.66739 -3.80267
12.4471 -7.56716 -3.80403
12.4134 -7.46693 -3.8054
12.9457 -7.13578 -3.79222
13.0064 -6.99706 -3.79117
13.067 -6.85835 -3.79012
13.1276 -6.71963 -3.78906
13.1883 -6.58091 -3.78799
13.1546 -6.48068 -3.78937
13.2152 -6.34197 -3.78831
13.1815 -6.24174 -3.78967
13.2421 -6.10302 -3.78862
13.2084 -6.00279 -3.78998
13.269 -5.86408 -3.78893
13.424 -5.68687 -3.78545
13.4846 -5.54815 -3.78439
13.5453 -5.40944 -3.78333
13.5115 -5.30921 -3.7847
13.4778 -5.20898 -3.78607
13.4441 -5.10875 -3.78743
13.4104 -5.00852 -3.7888
13.3767 -4.90829 -3.79016
13.343 -4.80806 -3.79153
13.3092 -4.70783 -3.79289
13.2755 -4.6076 -3.79427
13.2418 -4.50737 -3.79562
13.2081 -4.40714 -3.797
13.2687 -4.26842 -3.79593
13.235 -4.16819 -3.7973
13.2013 -4.06796 -3.79866
13.1676 -3.96773 -3.80003
13.1339 -3.8675 -3.80141
13.1001 -3.76727 -3.80276
13.0664 -3.66704 -3.80414
13.1271 -3.52833 -3.80307
12.999 -3.46658 -3.80687
12.9653 -3.36636 -3.80823
12.9316 -3.26612 -3.8096
12.8978 -3.16589 -3.81096
12.8641 -3.06566 -3.81233
12.9248 -2.92695 -3.81126
12.891 -2.82672 -3.81264
12.8573 -2.72649 -3.814
12.8236 -2.62626 -3.81537
12.7899 -2.52603 -3.81674
12.8505 -2.38731 -3.81567
12.8168 -2.28708 -3.81705
12.7831 -2.18685 -3.81841
12.7494 -2.08662 -3.81978
12.7157 -1.98639 -3.82114
12.6819 -1.88616 -3.82251
12.6482 -1.78593 -3.82387
12.7089 -1.64722 -3.82281
12.6751 -1.54699 -3.82419
12.6414 -1.44676 -3.82555
12.6077 -1.34653 -3.82692
12.574 -1.2463 -3.82828
12.5403 -1.14607 -3.82965
12.5066 -1.04584 -3.83101
12.4728 -0.945608 -3.83238
12.4391 -0.845378 -3.83374
12.4054 -0.745147 -3.83511
12.3717 -0.644918 -3.83647
12.338 -0.544688 -3.83784
12.3986 -0.405973 -3.83679
12.3649 -0.305742 -3.83815
12.3312 -0.205513 -3.83952
12.2974 -0.105282 -3.84088
12.2637 -0.00505209 -3.84225
12.23 0.0951765 -3.84361
12.1963 0.195407 -3.84499
12.1626 0.295638 -3.84634
12.1289 0.395867 -3.84772
12.0951 0.496097 -3.84908
12.0614 0.596327 -3.85045
12.0277 0.696557 -3.85181
11.994 0.796787 -3.85318
11.9603 0.897018 -3.85454
11.9266 0.997246 -3.85591
11.8928 1.09748 -3.85727
11.9535 1.23619 -3.85622
11.9198 1.33643 -3.85759
11.886 1.43665 -3.85895
11.8523 1.53688 -3.86032
11.8186 1.63711 -3.86168
11.7849 1.73734 -3.86305
11.7512 1.83757 -3.86441
11.7175 1.9378 -3.86578
11.6837 2.03803 -3.86714
11.65 2.13826 -3.86852
11.6163 2.23849 -3.86987
11.5826 2.33872 -3.87125
11.5489 2.43895 -3.8726
11.5152 2.53918 -3.87398
11.5758 2.6779 -3.87292
11.5421 2.77813 -3.87428
11.5084 2.87836 -3.87566
11.4746 2.97859 -3.87701
11.4409 3.07882 -3.87839
11.4072 3.17905 -3.87975
11.3735 3.27928 -3.88112
11.3398 3.37951 -3.88248
11.306 3.47974 -3.88385
11.2723 3.57997 -3.88521
11.2386 3.6802 -3.88658
11.2049 3.78043 -3.88794
11.1712 3.88066 -3.88931
11.1375 3.98089 -3.89067
11.1037 4.08112 -3.89204
11.1644 4.21983 -3.89099
11.1307 4.32006 -3.89235
11.097 4.42029 -3.89372
11.0632 4.52052 -3.89508
11.0295 4.62075 -3.89645
10.9958 4.72099 -3.89781
10.9621 4.82122 -3.89919
10.834 4.88296 -3.90297
10.8003 4.98319 -3.90434
10.7666 5.08342 -3.9057
10.6385 5.14516 -3.9095
10.6048 5.24539 -3.91086
10.4767 5.30714 -3.91464
10.443 5.40736 -3.91602
10.4093 5.50759 -3.91737
10.3756 5.60782 -3.91875
10.3419 5.70805 -3.9201
10.2138 5.7698 -3.9239
10.1801 5.87003 -3.92526
10.052 5.93177 -3.92906
10.0183 6.032 -3.93042
9.89023 6.09374 -3.9342
9.85651 6.19397 -3.93558
9.82279 6.2942 -3.93695
9.69473 6.35595 -3.94073
9.56666 6.41769 -3.94452
9.53295 6.51792 -3.94589
9.40488 6.57967 -3.94968
9.27682 6.64141 -3.95346
9.14875 6.70315 -3.95726
9.02068 6.7649 -3.96104
8.89261 6.82664 -3.96483
8.76455 6.88838 -3.96863
8.63648 6.95012 -3.97241
8.41407 6.97338 -3.97862
8.286 7.03513 -3.98241
8.25228 7.13535 -3.98378
8.21857 7.23559 -3.98514
8.0905 7.29733 -3.98894
8.05679 7.39756 -3.9903
7.92872 7.4593 -3.99409
12.4314 0.194071 -3.85422
12.4146 0.344516 -3.85316
12.3353 0.41446 -3.85452
12.3184 0.564912 -3.85347
12.3016 0.715357 -3.85242
12.2847 0.865807 -3.85136
12.2679 1.01625 -3.8503
12.1886 1.0862 -3.85167
12.1717 1.23664 -3.85062
12.1549 1.38709 -3.84955
12.0756 1.45704 -3.85092
11.9962 1.52698 -3.85228
11.9794 1.67743 -3.85123
11.9001 1.74737 -3.8526
11.8208 1.81731 -3.85396
11.8039 1.96776 -3.85291
11.7246 2.0377 -3.85426
11.6453 2.10765 -3.85564
11.6284 2.2581 -3.85458
11.6116 2.40854 -3.85352
11.5947 2.55899 -3.85246
11.6403 2.78994 -3.84898
11.6235 2.94039 -3.84793
11.6067 3.09084 -3.84686
11.5273 3.16078 -3.84824
11.448 3.23073 -3.84959
11.4312 3.38117 -3.84854
11.4143 3.53162 -3.84749
11.3975 3.68207 -3.84644
11.3182 3.75202 -3.84779
11.3013 3.90246 -3.84674
11.222 3.9724 -3.8481
11.1427 4.04235 -3.84947
11.1258 4.1928 -3.84842
11.109 4.34324 -3.84735
11.0921 4.49369 -3.8463
11.0753 4.64414 -3.84525
11.0584 4.79459 -3.84419
10.9791 4.86453 -3.84555
10.9623 5.01498 -3.8445
10.883 5.08492 -3.84586
10.8036 5.15487 -3.84723
10.7243 5.22481 -3.84859
10.7075 5.37525 -3.84753
10.6282 5.4452 -3.84891
10.6113 5.59565 -3.84784
10.532 5.66559 -3.84921
10.5151 5.81604 -3.84816
10.4358 5.88598 -3.84952
10.3565 5.95592 -3.85089
10.2772 6.02587 -3.85225
10.1979 6.09581 -3.85362
10.1186 6.16575 -3.85498
10.1017 6.3162 -3.85393
10.0224 6.38614 -3.85529
9.9431 6.45609 -3.85666
9.92625 6.60654 -3.85561
9.84693 6.67648 -3.85696
9.76762 6.74642 -3.85834
9.75077 6.89687 -3.85727
9.67145 6.96681 -3.85864
9.59214 7.03676 -3.86
9.51282 7.1067 -3.86137
9.43351 7.17664 -3.86275
9.35419 7.24658 -3.86411
9.27488 7.31653 -3.86548
9.19556 7.38647 -3.86684
9.11625 7.45642 -3.86821
9.03693 7.52636 -3.86957
8.95762 7.5963 -3.87094
8.8783 7.66624 -3.8723
8.79899 7.73619 -3.87367
8.71968 7.80613 -3.87503
8.64036 7.87607 -3.8764
8.49858 7.86551 -3.88019
8.41927 7.93546 -3.88156
8.33995 8.0054 -3.88292
8.19817 7.99484 -3.8867
8.11886 8.06478 -3.88808
8.03954 8.13472 -3.88943
7.96023 8.20467 -3.89081
7.88091 8.27461 -3.89218
7.80159 8.34455 -3.89354
7.72228 8.41449 -3.89491
7.5805 8.40393 -3.8987
7.50119 8.47388 -3.90005
7.42187 8.54382 -3.90143
7.34256 8.61376 -3.90279
7.26324 8.68371 -3.90416
7.12146 8.67315 -3.90794
7.04215 8.74309 -3.90932
6.90037 8.73253 -3.9131
6.82105 8.80247 -3.91447
6.49188 8.5504 -3.92552
6.41256 8.62034 -3.9269
6.33325 8.69028 -3.92825
6.19147 8.67972 -3.93205
6.11215 8.74966 -3.93341
5.97037 8.7391 -3.93721
5.89105 8.80904 -3.93857
5.74928 8.79848 -3.94235
5.60749 8.78792 -3.94615
5.46571 8.77736 -3.94994
5.26147 8.68629 -3.95615
5.11969 8.67573 -3.95995
4.97791 8.66517 -3.96373
4.89859 8.73511 -3.96509
4.75681 8.72455 -3.96889
4.6775 8.79449 -3.97025
4.53572 8.78393 -3.97404
4.39394 8.77337 -3.97783
10.2543 6.46745 -3.85968
10.1644 6.58932 -3.85863
10.0608 6.61023 -3.86
9.97097 6.7321 -3.85893
9.86731 6.75302 -3.86031
9.7775 6.87488 -3.85925
9.67384 6.8958 -3.86061
9.57018 6.91671 -3.86198
9.48036 7.03858 -3.86092
9.3767 7.0595 -3.86229
9.28688 7.18136 -3.86124
9.19707 7.30323 -3.86017
9.10725 7.4251 -3.85912
9.01744 7.54696 -3.85806
8.92762 7.66883 -3.85699
8.82396 7.68975 -3.85837
8.73414 7.81161 -3.85732
8.64433 7.93348 -3.85625
8.5822 8.25725 -3.85034
8.49239 8.37912 -3.84929
8.38873 8.40004 -3.85066
8.29891 8.5219 -3.84959
8.19525 8.54282 -3.85097
8.09159 8.56373 -3.85233
8.00177 8.6856 -3.85127
7.89811 8.70651 -3.85265
7.79445 8.72743 -3.854
7.70464 8.84929 -3.85295
7.60098 8.87021 -3.85432
7.49732 8.89113 -3.85568
7.39366 8.91204 -3.85706
7.29 8.93295 -3.85841
7.18634 8.95387 -3.85979
7.08268 8.97479 -3.86115
6.97902 8.9957 -3.86252
6.8892 9.11757 -3.86145
6.78554 9.13848 -3.86282
6.68188 9.1594 -3.86418
6.57822 9.18031 -3.86555
6.47456 9.20123 -3.86691
6.3709 9.22214 -3.86829
6.26724 9.24306 -3.86966
6.16358 9.26397 -3.87102
6.05992 9.28489 -3.87239
5.95626 9.30581 -3.87375
5.8526 9.32672 -3.87512
5.74894 9.34763 -3.87648
5.63143 9.2676 -3.88026
5.52777 9.28851 -3.88164
5.42412 9.30943 -3.883
5.32045 9.33034 -3.88437
5.21679 9.35126 -3.88574
5.11313 9.37217 -3.8871
5.00947 9.39309 -3.88847
4.90581 9.414 -3.88983
4.80215 9.43492 -3.8912
4.69849 9.45583 -3.89256
4.59483 9.47675 -3.89394
4.49117 9.49767 -3.89529
4.37367 9.41763 -3.89909
4.27001 9.43854 -3.90045
4.16635 9.45946 -3.90182
4.06269 9.48037 -3.90318
3.95903 9.50129 -3.90456
3.84152 9.42125 -3.90834
3.73786 9.44217 -3.9097
3.6342 9.46308 -3.91107
3.5167 9.38305 -3.91486
3.39919 9.30301 -3.91866
3.254 9.02106 -3.92729
3.1365 8.94103 -3.93108
3.01899 8.86099 -3.93486
2.84611 8.37715 -3.94835
2.7286 8.29711 -3.95213
2.62495 8.31802 -3.95351
2.52128 8.33894 -3.95486
2.41762 8.35986 -3.95624
2.31396 8.38077 -3.9576
2.2103 8.40168 -3.95897
2.10664 8.4226 -3.96033
2.00298 8.44351 -3.9617
1.88548 8.36348 -3.96548
1.78182 8.3844 -3.96686
1.67816 8.40531 -3.96822
1.56065 8.32527 -3.972
1.44315 8.24524 -3.9758
1.32565 8.16521 -3.97958
1.20814 8.08517 -3.98337
1.09064 8.00513 -3.98717
7.05632 8.94908 -3.90237
6.91761 9.00971 -3.90132
6.81738 8.97599 -3.90268
6.67866 9.03662 -3.90163
6.57843 9.00291 -3.90298
6.43972 9.06354 -3.90193
6.301 9.12417 -3.90088
6.1238 9.27915 -3.8974
5.98508 9.33978 -3.89635
5.80788 9.49477 -3.89285
5.63068 9.64975 -3.88937
5.49196 9.71038 -3.88832
5.35324 9.77102 -3.88727
5.25301 9.7373 -3.88863
5.1143 9.79792 -3.88757
5.01407 9.76421 -3.88895
4.87535 9.82484 -3.88788
4.77512 9.79113 -3.88925
4.67489 9.75741 -3.89061
4.57466 9.72369 -3.89198
4.47443 9.68998 -3.89334
4.33572 9.75061 -3.89229
4.23549 9.71689 -3.89366
4.13526 9.68317 -3.89502
4.03503 9.64946 -3.89639
3.9348 9.61574 -3.89775
3.83457 9.58202 -3.89912
3.73434 9.5483 -3.90048
3.63411 9.51459 -3.90186
3.53388 9.48087 -3.90321
3.43365 9.44715 -3.90459
3.33342 9.41344 -3.90594
3.23319 9.37972 -3.90732
3.13296 9.346 -3.90868
3.03273 9.31229 -3.91005
2.9325 9.27857 -3.91141
2.83227 9.24485 -3.91278
2.73204 9.21113 -3.91415
2.63181 9.17742 -3.91551
2.49309 9.23805 -3.91446
2.39286 9.20433 -3.91582
2.29263 9.17061 -3.91719
2.1924 9.1369 -3.91855
2.09217 9.10318 -3.91992
2.03043 8.97512 -3.92371
1.9302 8.9414 -3.92508
1.82997 8.90768 -3.92644
1.72974 8.87396 -3.92781
1.62951 8.84025 -3.92917
1.52928 8.80653 -3.93054
1.42905 8.77282 -3.9319
1.32882 8.7391 -3.93327
1.22859 8.70538 -3.93463
1.12836 8.67166 -3.936
1.02813 8.63795 -3.93736
0.927898 8.60423 -3.93874
0.827669 8.57051 -3.94009
0.727438 8.53679 -3.94147
0.627208 8.50308 -3.94284
0.526978 8.46936 -3.9442
0.465235 8.34129 -3.94798
0.365006 8.30758 -3.94936
0.264775 8.27386 -3.95071
0.164544 8.24014 -3.95209
0.0643146 8.20643 -3.95345
-0.0359137 8.17271 -3.95482
-0.0976562 8.04464 -3.9586
-0.197886 8.01092 -3.95998
-0.298116 7.97721 -3.96133
-0.398347 7.94349 -3.96271
-0.460091 7.81543 -3.96649
-0.560322 7.78171 -3.96786
-0.660552 7.74799 -3.96922
-0.722294 7.61993 -3.97302
-0.784038 7.49186 -3.97681
-0.845782 7.3638 -3.98059
-0.907526 7.23573 -3.98439
-0.969268 7.10766 -3.98817
-1.0695 7.07394 -3.98953
-1.13124 6.94588 -3.99333
-1.19298 6.81781 -3.99712
-1.29322 6.7841 -3.99849
-1.35496 6.65603 -4.00227
-1.45519 6.62231 -4.00363
-1.51693 6.49424 -4.00743
-1.61716 6.46053 -4.00879
-1.67891 6.33246 -4.01259
1.263 9.1635 -3.95361
1.11255 9.14665 -3.95256
0.962102 9.1298 -3.95151
0.892158 9.05049 -3.95287
0.741709 9.03364 -3.95181
0.591262 9.01679 -3.95076
0.521318 8.93748 -3.95212
0.370869 8.92063 -3.95107
0.220422 8.90378 -3.95001
0.150481 8.82446 -3.95137
3.29018e-05 8.80761 -3.95032
-0.0699105 8.7283 -3.95168
-0.139855 8.64898 -3.95305
-0.290303 8.63214 -3.952
-0.360243 8.55282 -3.95335
-0.430187 8.47351 -3.95473
-0.500131 8.39419 -3.95609
-0.570075 8.31488 -3.95746
-0.720523 8.29803 -3.95639
-0.790464 8.21871 -3.95776
-0.860409 8.1394 -3.95912
-0.930351 8.06008 -3.96049
-1.0003 7.98077 -3.96187
-1.15074 7.96392 -3.9608
-1.22068 7.8846 -3.96217
-1.29063 7.80529 -3.96353
-1.36057 7.72598 -3.9649
-1.43052 7.64666 -3.96626
-1.50046 7.56734 -3.96764
-1.5704 7.48803 -3.96899
-1.64034 7.40872 -3.97037
-1.71029 7.3294 -3.97173
-1.78023 7.25009 -3.9731
-1.85017 7.17077 -3.97446
-1.92012 7.09146 -3.97583
-1.99006 7.01214 -3.9772
-2.14051 6.9953 -3.97614
-2.21045 6.91598 -3.97751
-2.2804 6.83667 -3.97887
-2.35034 6.75735 -3.98024
-2.42028 6.67804 -3.9816
-2.49023 6.59872 -3.98297
-2.56017 6.51941 -3.98433
-2.63011 6.44009 -3.9857
-2.70006 6.36078 -3.98706
-2.77 6.28146 -3.98843
-2.83994 6.20215 -3.98979
-2.90988 6.12283 -3.99117
-2.97983 6.04352 -3.99254
-3.04977 5.9642 -3.9939
-3.03921 5.82242 -3.99768
-3.10915 5.74311 -3.99905
-3.17909 5.66379 -4.00041
-3.24904 5.58448 -4.00179
-3.31898 5.50516 -4.00314
-3.38892 5.42585 -4.00452
-3.45887 5.34654 -4.00589
-3.52881 5.26722 -4.00725
-3.59875 5.1879 -4.00862
-3.6687 5.10859 -4.00998
-3.73864 5.02928 -4.01135
-3.80858 4.94996 -4.01271
-3.79802 4.80818 -4.01649
-3.86796 4.72887 -4.01787
-3.93791 4.64955 -4.01924
-3.92735 4.50777 -4.02303
-3.99729 4.42845 -4.02438
-3.74521 4.09928 -4.03545
-3.65415 3.89503 -4.04166
-3.72409 3.81572 -4.04303
-3.71353 3.67394 -4.04681
-3.78347 3.59462 -4.04819
-3.77291 3.45284 -4.05197
-3.76235 3.31106 -4.05576
-3.67128 3.10682 -4.06197
-5.1648 -0.257637 -3.07216
-5.18572 -0.361295 -3.07352
-5.20663 -0.464956 -3.07489
-5.22755 -0.568616 -3.07625
-5.24847 -0.672275 -3.07762
-5.26938 -0.775937 -3.07898
-5.2903 -0.879597 -3.08035
-5.31121 -0.983257 -3.08171
-5.33213 -1.08692 -3.08308
-5.35304 -1.19058 -3.08444
-5.37395 -1.29424 -3.08582
-5.39487 -1.3979 -3.08717
-5.41579 -1.50156 -3.08855
-5.4367 -1.60522 -3.0899
-5.35667 -1.72272 -3.0937
-5.37758 -1.82638 -3.09506
-5.39849 -1.93004 -3.09644
-5.41941 -2.0337 -3.09779
-5.33938 -2.15121 -3.10159
-5.36029 -2.25487 -3.10295
-5.3812 -2.35853 -3.10432
-3.62796 5.81678 -3.99883
-3.74983 5.72697 -3.99777
-3.77074 5.62331 -3.99913
-3.89261 5.53349 -3.99808
-3.91352 5.42983 -3.99945
-3.93444 5.32617 -4.00081
-3.95535 5.22251 -4.00218
-3.97626 5.11885 -4.00354
-4.09813 5.02903 -4.00249
-4.11905 4.92537 -4.00385
-4.13996 4.82171 -4.00522
-4.16088 4.71805 -4.00658
-4.18179 4.61439 -4.00795
-4.20271 4.51073 -4.00931
-4.22362 4.40707 -4.01068
-4.24454 4.30341 -4.01204
-4.26545 4.19975 -4.01341
-4.28637 4.09609 -4.01479
-4.30728 3.99243 -4.01614
-4.3282 3.88877 -4.01752
-4.34912 3.78511 -4.01888
-4.37003 3.68145 -4.02025
-4.39094 3.57779 -4.02161
-4.41186 3.47413 -4.02298
-4.43278 3.37047 -4.02434
-4.45369 3.26681 -4.02571
-4.4746 3.16315 -4.02707
-4.49552 3.05949 -4.02844
-4.51644 2.95583 -4.0298
-4.53735 2.85217 -4.03117
-4.55827 2.74851 -4.03253
-4.57918 2.64485 -4.03391
-4.6001 2.54119 -4.03526
-4.62101 2.43753 -4.03664
-4.64193 2.33387 -4.03799
-4.66284 2.23021 -4.03937
-4.68376 2.12655 -4.04073
-4.70467 2.02289 -4.0421
-4.82654 1.93307 -4.04105
-4.84746 1.82941 -4.0424
-4.86837 1.72575 -4.04378
-4.88929 1.62209 -4.04514
-4.9102 1.51843 -4.04651
-4.93112 1.41477 -4.04787
-4.95203 1.31111 -4.04924
-4.97295 1.20745 -4.0506
-4.99386 1.10379 -4.05197
-5.01478 1.00013 -4.05333
-5.03569 0.896473 -4.0547
-5.05661 0.792811 -4.05606
-5.07752 0.689151 -4.05743
-5.09844 0.585491 -4.05881
-5.11935 0.48183 -4.06017
-5.14027 0.37817 -4.06154
-5.16119 0.274512 -4.0629
-5.1821 0.170852 -4.06427
-5.20301 0.0671921 -4.06563
-5.12298 -0.0503156 -4.06941
-5.14389 -0.153975 -4.07079
-5.1648 -0.257637 -4.07216
-5.18572 -0.361295 -4.07352
-5.20663 -0.464956 -4.07489
-5.22755 -0.568616 -4.07625
-5.24847 -0.672275 -4.07762
-5.26938 -0.775937 -4.07898
-5.2903 -0.879597 -4.08035
-5.31121 -0.983257 -4.08171
-5.33213 -1.08692 -4.08308
-5.35304 -1.19058 -4.08444
-5.37395 -1.29424 -4.08582
-5.39487 -1.3979 -4.08717
-5.41579 -1.50156 -4.08855
-5.4367 -1.60522 -4.0899
-5.35667 -1.72272 -4.0937
-5.37758 -1.82638 -4.09506
-5.39849 -1.93004 -4.09644
-5.41941 -2.0337 -4.09779
-5.44033 -2.13736 -4.09917
-5.22748 0.139635 -4.03496
-5.38246 -0.037568 -4.03148
-5.4431 -0.176285 -4.03043
-5.50373 -0.314999 -4.02936
-5.56436 -0.453719 -4.02831
-5.90804 -0.707893 -4.01999
-5.96867 -0.846607 -4.01892
-5.93495 -0.946839 -4.02029
-5.90124 -1.04707 -4.02165
-5.96187 -1.18579 -4.0206
-5.92815 -1.28601 -4.02197
-5.89443 -1.38624 -4.02333
-5.86072 -1.48647 -4.0247
-5.827 -1.5867 -4.02606
-5.79328 -1.68694 -4.02744
-5.75956 -1.78716 -4.02879
-5.72585 -1.88739 -4.03017
-5.69213 -1.98762 -4.03152
-5.75276 -2.12634 -4.03047
-5.71905 -2.22657 -4.03183
-5.68533 -2.3268 -4.0332
-5.65161 -2.42703 -4.03458
-5.6179 -2.52726 -4.03593
-5.58418 -2.62749 -4.03731
-5.55046 -2.72772 -4.03867
-5.51674 -2.82795 -4.04004
-5.48303 -2.92818 -4.0414
-5.44931 -3.02841 -4.04277
-5.41559 -3.12864 -4.04413
-5.38187 -3.22887 -4.0455
-5.34816 -3.3291 -4.04686
-5.31444 -3.42933 -4.04823
-5.28073 -3.52956 -4.04959
-5.24701 -3.62979 -4.05096
-5.11894 -3.69153 -4.05475
-5.08523 -3.79176 -4.05612
-5.05151 -3.89199 -4.05748
-5.01779 -3.99222 -4.05885
-4.98408 -4.09245 -4.06021
-4.95036 -4.19268 -4.06158
-4.91664 -4.29291 -4.06294
-4.88292 -4.39314 -4.06432
-4.84921 -4.49337 -4.06567
-4.81549 -4.5936 -4.06705
-4.68742 -4.65534 -4.07083
-4.65371 -4.75558 -4.0722
-4.61999 -4.85581 -4.07356
-4.58627 -4.95604 -4.07494
-4.45821 -5.01778 -4.07872
-4.42449 -5.11801 -4.08009
-4.39077 -5.21824 -4.08145
-4.35706 -5.31847 -4.08282
-4.22899 -5.38021 -4.08661
-4.19527 -5.48044 -4.08797
-4.16156 -5.58067 -4.08934
-4.03349 -5.64242 -4.09312
-3.99977 -5.74265 -4.0945
-3.96606 -5.84288 -4.09586
-3.83799 -5.90462 -4.09966
-4.61999 -4.85581 -3.07356
-4.58627 -4.95604 -3.07494
-4.55255 -5.05626 -3.07629
-4.42449 -5.11801 -3.08009
-4.39077 -5.21824 -3.08145
-4.35706 -5.31847 -3.08282
-4.32334 -5.4187 -3.08418
-4.19527 -5.48044 -3.08797
-4.16156 -5.58067 -3.08934
-4.03349 -5.64242 -3.09312
-3.90543 -5.70416 -3.09692
-3.77736 -5.7659 -3.10071
-3.74364 -5.86613 -3.10207
-3.70992 -5.96636 -3.10344
-3.67621 -6.06659 -3.10481
-3.64249 -6.16682 -3.10617
-3.60878 -6.26705 -3.10754
-3.57506 -6.36728 -3.1089
-3.44699 -6.42903 -3.11269
-3.41327 -6.52925 -3.11406
-3.28521 -6.591 -3.11784
-3.25149 -6.69123 -3.11922
-3.12343 -6.75297 -3.123
-2.90101 -6.77623 -3.12921
-2.77294 -6.83797 -3.13301
-2.73923 -6.9382 -3.13437
-2.70551 -7.03843 -3.13574
-0.142588 -10.353 -3.0726
-0.0632739 -10.4229 -3.07397
0.0160398 -10.4928 -3.07533
0.095356 -10.5628 -3.07671
0.237136 -10.5522 -3.08049
0.31645 -10.6222 -3.08186
0.395764 -10.6921 -3.08322
0.475081 -10.7621 -3.08459
0.554394 -10.832 -3.08595
0.633709 -10.9019 -3.08733
0.713023 -10.9719 -3.08868
0.854804 -10.9613 -3.09248
0.934122 -11.0313 -3.09384
1.01344 -11.1012 -3.09521
1.09275 -11.1711 -3.09657
1.23453 -11.1606 -3.10036
1.31384 -11.2305 -3.10173
1.51809 -11.1395 -3.10794
-5.45955 -3.08803 -4.00664
-5.4427 -3.23848 -4.00557
-5.42585 -3.38892 -4.00452
-5.409 -3.53937 -4.00346
-5.39215 -3.68982 -4.0024
-5.31283 -3.75976 -4.00377
-5.29599 -3.91021 -4.00272
-5.27914 -4.06066 -4.00165
-5.19982 -4.1306 -4.00302
-5.18297 -4.28105 -4.00197
-5.10366 -4.35099 -4.00333
-5.08681 -4.50144 -4.00227
-5.0075 -4.57139 -4.00363
-4.99064 -4.72183 -4.00258
-4.91133 -4.79177 -4.00395
-4.89448 -4.94222 -4.00288
-4.81517 -5.01217 -4.00426
-4.73585 -5.08211 -4.00562
-4.719 -5.23256 -4.00456
-4.63969 -5.3025 -4.00594
-4.56038 -5.37244 -4.00729
-4.48106 -5.44239 -4.00867
-4.46421 -5.59283 -4.0076
-4.38489 -5.66278 -4.00897
-4.36805 -5.81323 -4.00792
-4.28873 -5.88317 -4.00928
-4.27188 -6.03362 -4.00822
-4.19257 -6.10356 -4.00958
-4.17572 -6.254 -4.00853
-4.0964 -6.32395 -4.0099
-4.07956 -6.4744 -4.00883
-4.00024 -6.54434 -4.01021
-3.92092 -6.61429 -4.01157
-3.84161 -6.68423 -4.01294
-3.82476 -6.83467 -4.01189
-3.74545 -6.90462 -4.01324
-3.66613 -6.97456 -4.01462
-3.58682 -7.0445 -4.01598
-3.5075 -7.11445 -4.01735
-3.42819 -7.18439 -4.01871
-3.34887 -7.25433 -4.02008
-3.26956 -7.32428 -4.02144
-3.19024 -7.39422 -4.02281
-3.11093 -7.46416 -4.02417
-3.03161 -7.53411 -4.02554
-3.01477 -7.68456 -4.02449
-2.93545 -7.7545 -4.02585
-2.85614 -7.82444 -4.02722
-2.77682 -7.89438 -4.02858
-2.69751 -7.96433 -4.02995
-2.61819 -8.03427 -4.03131
-2.53888 -8.10421 -4.03268
-2.45956 -8.17416 -4.03404
-2.38025 -8.2441 -4.03542
-2.30093 -8.31404 -4.03677
-2.22162 -8.38399 -4.03815
-2.20477 -8.53443 -4.03709
-2.12545 -8.60438 -4.03845
-2.04614 -8.67432 -4.03983
-1.96683 -8.74427 -4.04118
-1.88751 -8.81421 -4.04256
-1.8082 -8.88415 -4.04391
-1.72888 -8.95409 -4.04529
-1.64957 -9.02404 -4.04665
-1.57025 -9.09398 -4.04802
-1.49094 -9.16392 -4.04938
-1.41162 -9.23386 -4.05075
-1.33231 -9.30381 -4.05211
-1.25299 -9.37375 -4.05348
-1.17368 -9.4437 -4.05484
-1.09436 -9.51364 -4.05621
-1.01505 -9.58358 -4.05757
-0.935735 -9.65352 -4.05894
-0.856421 -9.72347 -4.06032
-0.777106 -9.79341 -4.06168
-0.69779 -9.86335 -4.06305
-0.618474 -9.9333 -4.06441
-0.539162 -10.0032 -4.06578
-0.459848 -10.0732 -4.06714
-0.380533 -10.1431 -4.06851
-0.301217 -10.2131 -4.06987
-0.159437 -10.2025 -4.07367
-0.0801229 -10.2725 -4.07503
-0.000809193 -10.3424 -4.0764
0.0785046 -10.4123 -4.07776
0.157821 -10.4823 -4.07913
0.237136 -10.5522 -4.08049
0.31645 -10.6222 -4.08186
0.395764 -10.6921 -4.08322
0.475081 -10.7621 -4.08459
0.554394 -10.832 -4.08595
0.633709 -10.9019 -4.08733
0.713023 -10.9719 -4.08868
0.854804 -10.9613 -4.09248
0.934122 -11.0313 -4.09384
1.01344 -11.1012 -4.09521
1.09275 -11.1711 -4.09657
1.17206 -11.2411 -4.09795
