ply
format ascii 1.0
comment VCGLIB generated
element vertex 1089
property float x
property float y
property float z
element face 0
property list uchar int vertex_indices
end_header
2.40854 -11.6116 -2.85352
2.55898 -11.5947 -2.85246
3.11195 -11.8902 -2.83929
3.34291 -11.9358 -2.83582
3.57386 -11.9814 -2.83234
3.80481 -12.0271 -2.82886
4.11627 -12.1351 -2.82295
4.34722 -12.1808 -2.81947
4.49767 -12.1639 -2.81841
4.64812 -12.1471 -2.81735
4.71806 -12.0677 -2.81873
4.86851 -12.0509 -2.81766
5.01896 -12.034 -2.8166
5.1694 -12.0172 -2.81555
5.31985 -12.0003 -2.81448
5.3898 -11.921 -2.81586
5.54024 -11.9042 -2.8148
5.69069 -11.8873 -2.81374
5.76063 -11.808 -2.81511
5.91108 -11.7912 -2.81406
5.98102 -11.7119 -2.81541
6.05097 -11.6325 -2.81679
6.12091 -11.5532 -2.81815
6.27136 -11.5364 -2.81709
6.3413 -11.4571 -2.81845
6.49175 -11.4402 -2.8174
6.56169 -11.3609 -2.81877
6.63164 -11.2816 -2.82013
6.78208 -11.2647 -2.81908
6.85203 -11.1854 -2.82043
7.00247 -11.1686 -2.81938
7.07242 -11.0893 -2.82076
7.22287 -11.0724 -2.81969
7.29281 -10.9931 -2.82106
7.44326 -10.9762 -2.82001
7.5132 -10.8969 -2.82137
7.58314 -10.8176 -2.82274
7.73359 -10.8008 -2.82167
7.80353 -10.7214 -2.82304
7.87348 -10.6421 -2.8244
8.02392 -10.6253 -2.82335
8.09387 -10.546 -2.82472
8.24432 -10.5291 -2.82365
8.31426 -10.4498 -2.82503
8.46471 -10.433 -2.82397
8.53465 -10.3536 -2.82533
8.60459 -10.2743 -2.82671
8.75504 -10.2575 -2.82564
8.82499 -10.1782 -2.82701
8.89493 -10.0988 -2.82837
9.04537 -10.082 -2.82732
9.11532 -10.0027 -2.82869
9.18526 -9.92337 -2.83005
9.33571 -9.90652 -2.82899
9.40565 -9.8272 -2.83037
9.5561 -9.81035 -2.8293
9.62604 -9.73104 -2.83067
9.77649 -9.71419 -2.82961
9.84644 -9.63488 -2.83098
9.99688 -9.61803 -2.82993
10.0668 -9.53871 -2.83128
10.1368 -9.4594 -2.83266
10.2872 -9.44255 -2.83159
10.3572 -9.36323 -2.83296
10.4271 -9.28392 -2.83434
10.5776 -9.26707 -2.83327
10.6475 -9.18776 -2.83464
10.7174 -9.10844 -2.836
10.8679 -9.09159 -2.83495
10.9378 -9.01228 -2.83632
11.0078 -8.93296 -2.83768
11.0777 -8.85365 -2.83905
11.1477 -8.77433 -2.84041
11.2176 -8.69502 -2.84178
11.368 -8.67817 -2.84071
11.438 -8.59885 -2.84209
11.5079 -8.51954 -2.84344
11.5779 -8.44023 -2.84482
11.6478 -8.36091 -2.84618
11.7178 -8.2816 -2.84755
11.7877 -8.20228 -2.84891
11.8576 -8.12297 -2.85028
11.9276 -8.04365 -2.85165
11.9975 -7.96434 -2.85301
12.0675 -7.88502 -2.85439
12.1374 -7.80571 -2.85574
12.1269 -7.66393 -2.85953
12.1968 -7.58461 -2.8609
12.2667 -7.5053 -2.86226
12.3367 -7.42598 -2.86363
12.3261 -7.28421 -2.86742
12.3961 -7.20489 -2.86879
12.3855 -7.06311 -2.87257
12.4555 -6.98379 -2.87395
12.5254 -6.90448 -2.87531
12.5148 -6.7627 -2.8791
12.5848 -6.68339 -2.88046
12.5742 -6.5416 -2.88425
12.5637 -6.39982 -2.88805
12.5531 -6.25804 -2.89183
12.5425 -6.11626 -2.89561
12.532 -5.97448 -2.89941
12.4409 -5.77024 -2.90562
12.4303 -5.62846 -2.90941
12.4198 -5.48668 -2.91319
12.4092 -5.3449 -2.91699
12.4792 -5.26558 -2.91835
12.4686 -5.1238 -2.92215
12.458 -4.98202 -2.92593
12.4475 -4.84024 -2.92972
12.3564 -4.636 -2.93593
12.3458 -4.49422 -2.93973
12.3353 -4.35243 -2.94351
12.4052 -4.27312 -2.94489
12.3947 -4.13134 -2.94867
12.3841 -3.98956 -2.95245
12.3735 -3.84778 -2.95625
12.363 -3.706 -2.96004
12.2719 -3.50175 -2.96625
12.2614 -3.35997 -2.97003
12.1703 -3.15573 -2.97624
12.1597 -3.01394 -2.98004
12.1492 -2.87217 -2.98383
12.1386 -2.73039 -2.98761
12.0475 -2.52614 -2.99384
11.7955 -2.19696 -3.00488
11.3824 -1.74285 -3.0208
11.3718 -1.60108 -3.02458
11.3613 -1.4593 -3.02837
11.3507 -1.31752 -3.03217
11.3401 -1.17573 -3.03595
11.2491 -0.971488 -3.04216
11.2385 -0.82971 -2.04594
5.44706 -11.7123 -2.85616
5.66988 -11.6363 -2.85268
5.99365 -11.5742 -2.84677
6.31742 -11.512 -2.84087
6.43929 -11.4222 -2.83981
6.66211 -11.3462 -2.83633
7.08683 -11.298 -2.828
7.10775 -11.1943 -2.82938
7.22961 -11.1045 -2.82831
7.25053 -11.0008 -2.82968
7.27144 -10.8972 -2.83104
7.89807 -10.8766 -2.81787
8.12089 -10.8006 -2.81439
8.24275 -10.7108 -2.81334
8.46557 -10.6348 -2.80986
8.48649 -10.5311 -2.81122
8.60836 -10.4413 -2.81017
8.73022 -10.3515 -2.80911
8.85209 -10.2617 -2.80804
8.87301 -10.158 -2.80942
8.99487 -10.0682 -2.80836
9.31864 -10.0061 -2.80246
9.44051 -9.91628 -2.80141
9.56238 -9.82647 -2.80034
9.58329 -9.72281 -2.80171
9.60421 -9.61915 -2.80307
9.72608 -9.52933 -2.80202
9.84794 -9.43952 -2.80096
10.2727 -9.39123 -2.79263
10.4955 -9.31526 -2.78915
10.7183 -9.23929 -2.78568
10.8402 -9.14947 -2.78462
10.962 -9.05966 -2.78355
11.0839 -8.96984 -2.7825
11.2058 -8.88003 -2.78145
11.2267 -8.77637 -2.78281
11.3486 -8.68655 -2.78175
11.3695 -8.58289 -2.78313
11.4913 -8.49307 -2.78206
11.6132 -8.40326 -2.78101
11.6341 -8.2996 -2.78236
11.756 -8.20978 -2.78131
11.8779 -8.11997 -2.78026
11.8988 -8.01631 -2.78162
12.0206 -7.92649 -2.78056
12.1425 -7.83668 -2.77951
12.1634 -7.73301 -2.78087
12.1843 -7.62935 -2.78224
12.3062 -7.53954 -2.78119
12.3271 -7.43588 -2.78255
12.348 -7.33222 -2.78392
12.4699 -7.2424 -2.78285
12.4908 -7.13874 -2.78423
12.5117 -7.03508 -2.78558
12.6336 -6.94527 -2.78453
12.6545 -6.84161 -2.7859
12.6754 -6.73795 -2.78726
12.6963 -6.63429 -2.78864
12.7173 -6.53063 -2.78999
12.7382 -6.42697 -2.79137
12.7591 -6.32331 -2.79272
12.78 -6.21965 -2.7941
12.8009 -6.11598 -2.79546
12.8218 -6.01232 -2.79683
12.8427 -5.90867 -2.79819
12.7627 -5.79116 -2.80199
12.7836 -5.6875 -2.80334
12.8045 -5.58384 -2.80472
12.8255 -5.48018 -2.80608
12.8464 -5.37652 -2.80745
12.8673 -5.27286 -2.80881
12.8882 -5.1692 -2.81018
12.8082 -5.05169 -2.81396
12.8291 -4.94804 -2.81534
12.85 -4.84437 -2.8167
12.77 -4.72687 -2.8205
12.7909 -4.62321 -2.82185
12.7108 -4.50571 -2.82564
12.6308 -4.3882 -2.82944
12.6517 -4.28454 -2.8308
12.6726 -4.18088 -2.83217
12.5926 -4.06338 -2.83595
12.6135 -3.95972 -2.83733
12.5335 -3.84221 -2.84111
12.5544 -3.73855 -2.84248
12.4743 -3.62105 -2.84627
12.4953 -3.51739 -2.84763
12.5162 -3.41373 -2.849
12.5371 -3.31007 -2.85036
12.4571 -3.19256 -2.85416
12.478 -3.0889 -2.85551
12.4989 -2.98524 -2.85689
12.4189 -2.86774 -2.86067
12.4398 -2.76408 -2.86205
12.4607 -2.66042 -2.8634
12.3806 -2.54291 -2.86719
12.4016 -2.43925 -2.86856
12.4225 -2.33559 -2.86993
12.4434 -2.23193 -2.87129
12.3633 -2.11443 -2.87508
12.1824 -1.98308 -2.88129
12.1023 -1.86558 -2.88509
12.1232 -1.76191 -2.88644
12.1442 -1.65825 -2.88782
12.0641 -1.54075 -2.8916
12.085 -1.43709 -2.89297
12.1059 -1.33343 -2.89433
12.0259 -1.21593 -2.89813
12.0468 -1.11227 -2.89949
11.9668 -0.99476 -2.90327
11.9877 -0.891099 -2.90465
11.9077 -0.773595 -2.90843
11.9286 -0.669933 -2.90981
11.9495 -0.566275 -2.91116
11.8695 -0.448771 -2.91496
11.7894 -0.331265 -2.91875
11.8103 -0.227605 -2.9201
11.8313 -0.123944 -2.92148
11.7512 -0.0064404 -2.92526
11.6712 0.111063 -2.92906
11.6921 0.214723 -2.93042
11.6121 0.332228 -2.9342
11.633 0.43589 -2.93558
11.5529 0.553393 -2.93936
11.5739 0.657054 -2.94073
11.4938 0.774556 -2.94452
11.5147 0.878216 -2.94589
11.4347 0.995723 -2.94968
11.4556 1.09938 -2.95105
11.3756 1.21689 -2.95483
11.3965 1.32055 -2.95619
11.3164 1.43805 -2.95999
11.2364 1.55556 -2.96378
11.1564 1.67306 -2.96756
11.1773 1.77672 -2.96893
11.0973 1.89422 -2.97272
11.0172 2.01173 -2.97652
11.0381 2.11539 -2.97787
10.9581 2.23289 -2.98166
10.979 2.33655 -2.98303
10.899 2.45406 -2.98682
10.8189 2.57156 -2.99062
10.8399 2.67522 -2.99197
10.7598 2.79273 -2.99576
10.7807 2.89639 -2.99713
10.7007 3.01389 -3.00092
10.7216 3.11755 -3.00229
10.6416 3.23506 -3.00607
10.6625 3.33872 -3.00745
10.5825 3.45622 -3.01123
10.6034 3.55988 -3.0126
10.5233 3.67739 -3.01639
10.4433 3.79489 -3.02017
10.2623 3.92624 -3.02638
10.1823 4.04374 -3.03018
10.1022 4.16125 -3.03397
10.1231 4.26491 -3.03532
10.1441 4.36857 -3.0367
10.165 4.47223 -3.03807
10.0849 4.58973 -3.04185
10.1059 4.69339 -3.04321
10.1268 4.79706 -3.04459
10.0467 4.91456 -3.04837
10.0677 5.01822 -3.04974
9.98762 5.13572 -3.05353
9.60472 5.29476 -3.06459
12.6021 -7.38995 -2.80055
12.6627 -7.25124 -2.7995
12.7233 -7.11252 -2.79845
12.8783 -6.93532 -2.79497
12.9389 -6.7966 -2.7939
12.9996 -6.65789 -2.79285
12.9659 -6.55766 -2.7942
13.0265 -6.41894 -2.79315
12.9928 -6.31871 -2.79453
13.0534 -6.17999 -2.79346
13.2084 -6.00279 -2.78998
13.269 -5.86408 -2.78893
13.3297 -5.72536 -2.78787
13.2959 -5.62513 -2.78923
13.2622 -5.5249 -2.7906
13.2285 -5.42467 -2.79196
13.2891 -5.28595 -2.79091
13.2554 -5.18572 -2.79228
13.2217 -5.08549 -2.79364
13.188 -4.98526 -2.79501
13.2486 -4.84655 -2.79395
13.2149 -4.74632 -2.79532
13.1812 -4.64609 -2.79668
13.2418 -4.50737 -2.79562
13.2081 -4.40714 -2.797
13.1744 -4.30691 -2.79836
13.1407 -4.20668 -2.79973
13.1069 -4.10645 -2.80109
13.0732 -4.00622 -2.80246
13.0395 -3.90599 -2.80382
13.1001 -3.76727 -2.80276
13.0664 -3.66704 -2.80414
13.0327 -3.56681 -2.8055
12.999 -3.46658 -2.80687
12.9653 -3.36636 -2.80823
12.9316 -3.26612 -2.8096
12.8978 -3.16589 -2.81096
12.8641 -3.06566 -2.81233
12.8304 -2.96543 -2.81369
12.7967 -2.86521 -2.81506
12.8573 -2.72649 -2.814
12.8236 -2.62626 -2.81537
12.7899 -2.52603 -2.81674
12.7562 -2.4258 -2.8181
12.7225 -2.32557 -2.81947
12.6887 -2.22534 -2.82083
12.655 -2.12511 -2.8222
12.6213 -2.02488 -2.82356
12.6819 -1.88616 -2.82251
12.6482 -1.78593 -2.82387
12.6145 -1.6857 -2.82524
12.5808 -1.58547 -2.8266
12.5471 -1.48524 -2.82797
12.5134 -1.38501 -2.82933
12.4796 -1.28478 -2.8307
12.4459 -1.18456 -2.83208
12.4122 -1.08432 -2.83344
12.3785 -0.984095 -2.83481
12.3448 -0.883865 -2.83617
12.3111 -0.783634 -2.83754
12.2773 -0.683405 -2.8389
12.2436 -0.583175 -2.84027
12.2099 -0.482945 -2.84163
12.1762 -0.382715 -2.843
12.2368 -0.243998 -2.84193
12.2031 -0.143768 -2.84331
12.1694 -0.0435379 -2.84467
12.1357 0.0566905 -2.84604
12.1019 0.156921 -2.84741
12.0682 0.257152 -2.84877
12.1289 0.395867 -2.84772
12.0951 0.496097 -2.84908
12.0614 0.596327 -2.85045
12.0277 0.696557 -2.85181
11.994 0.796787 -2.85318
11.9603 0.897018 -2.85454
11.9266 0.997246 -2.85591
11.8928 1.09748 -2.85727
11.8591 1.19771 -2.85864
11.8254 1.29794 -2.86
11.7917 1.39817 -2.86137
11.758 1.4984 -2.86275
11.7243 1.59863 -2.86411
11.6905 1.69886 -2.86548
11.6568 1.79909 -2.86684
11.7175 1.9378 -2.86578
11.6837 2.03803 -2.86714
11.65 2.13826 -2.86852
11.6163 2.23849 -2.86987
11.5826 2.33872 -2.87125
11.5489 2.43895 -2.8726
11.5152 2.53918 -2.87398
11.4814 2.63941 -2.87534
11.4477 2.73964 -2.87671
11.414 2.83987 -2.87808
11.4746 2.97859 -2.87701
11.4409 3.07882 -2.87839
11.4072 3.17905 -2.87975
11.3735 3.27928 -2.88112
11.3398 3.37951 -2.88248
11.306 3.47974 -2.88385
11.2723 3.57997 -2.88521
11.2386 3.6802 -2.88658
11.2049 3.78043 -2.88794
11.1712 3.88066 -2.88931
11.1375 3.98089 -2.89067
11.1037 4.08112 -2.89204
11.07 4.18135 -2.89342
11.0363 4.28158 -2.89478
10.9083 4.34332 -2.89856
10.8745 4.44355 -2.89993
10.8408 4.54378 -2.90129
10.8071 4.64401 -2.90266
10.7734 4.74424 -2.90402
10.6453 4.80598 -2.90782
10.6116 4.90621 -2.90918
10.5779 5.00644 -2.91055
10.5442 5.10668 -2.91191
10.5104 5.2069 -2.91328
10.4767 5.30714 -2.91464
10.3487 5.36888 -2.91844
10.3149 5.46911 -2.9198
10.2812 5.56934 -2.92117
10.1532 5.63108 -2.92496
10.1194 5.73131 -2.92633
10.0857 5.83154 -2.92769
9.95766 5.89328 -2.93147
9.92395 5.99352 -2.93285
9.79588 6.05526 -2.93663
9.66781 6.117 -2.94043
9.63409 6.21723 -2.94179
9.50603 6.27898 -2.94557
9.47232 6.37921 -2.94695
9.34425 6.44095 -2.95073
9.21618 6.50269 -2.95453
9.18246 6.60292 -2.95589
9.0544 6.66467 -2.95969
8.92633 6.72641 -2.96347
8.70392 6.74966 -2.96968
8.6702 6.84989 -2.97104
8.54213 6.91164 -2.97484
8.50842 7.01187 -2.9762
8.4747 7.1121 -2.97757
8.34663 7.17384 -2.98135
8.21857 7.23559 -2.98514
8.18485 7.33581 -2.98651
8.05679 7.39756 -2.9903
8.02307 7.49779 -2.99167
7.895 7.55953 -2.99545
7.86129 7.65976 -2.99683
7.73322 7.72151 -3.00061
7.60515 7.78325 -3.00439
7.57144 7.88348 -3.00577
7.44337 7.94522 -3.00955
7.3153 8.00697 -3.01335
7.18724 8.06871 -3.01714
7.15352 8.16894 -3.01849
6.45936 7.99976 -3.03683
6.23694 8.02302 -3.04305
12.3065 0.0330615 -2.85907
12.2897 0.18351 -2.85802
12.2728 0.333956 -2.85695
12.256 0.484404 -2.8559
12.1766 0.554348 -2.85727
12.1598 0.704798 -2.8562
12.0805 0.77474 -2.85757
12.0636 0.925185 -2.85651
11.9843 0.995129 -2.85788
11.9675 1.14558 -2.85683
11.9506 1.29603 -2.85576
11.9338 1.44647 -2.85471
11.8545 1.51642 -2.85608
11.8376 1.66687 -2.85501
11.8208 1.81731 -2.85396
11.7414 1.88726 -2.85533
11.7246 2.0377 -2.85426
11.6453 2.10765 -2.85564
11.566 2.17759 -2.85699
11.5491 2.32804 -2.85594
11.5323 2.47849 -2.85489
11.5779 2.70944 -2.85141
11.561 2.85989 -2.85034
11.4817 2.92983 -2.85172
11.4649 3.08028 -2.85066
11.3856 3.15022 -2.85202
11.3062 3.22016 -2.85339
11.2894 3.37061 -2.85233
11.2725 3.52106 -2.85127
11.2557 3.67151 -2.85022
11.1764 3.74145 -2.85158
11.0971 3.81139 -2.85295
11.0802 3.96184 -2.8519
11.0634 4.11229 -2.85083
11.109 4.34324 -2.84735
11.0297 4.41319 -2.84872
11.0128 4.56364 -2.84767
10.9335 4.63358 -2.84903
10.9167 4.78403 -2.84798
10.8373 4.85397 -2.84933
10.8205 5.00442 -2.84828
10.7412 5.07436 -2.84966
10.7243 5.22481 -2.84859
10.645 5.29475 -2.84996
10.5657 5.36469 -2.85132
10.5488 5.51514 -2.85027
10.4695 5.58508 -2.85164
10.4527 5.73553 -2.85057
10.3734 5.80548 -2.85194
10.3565 5.95592 -2.85089
10.2772 6.02587 -2.85225
10.1979 6.09581 -2.85362
10.181 6.24626 -2.85255
10.1017 6.3162 -2.85393
10.0224 6.38614 -2.85529
9.9431 6.45609 -2.85666
9.86378 6.52603 -2.85802
9.78447 6.59597 -2.85939
9.70515 6.66592 -2.86075
9.62584 6.73586 -2.86212
9.60899 6.88631 -2.86107
9.52967 6.95625 -2.86243
9.45036 7.0262 -2.8638
9.37104 7.09614 -2.86516
9.29173 7.16608 -2.86653
9.21241 7.23602 -2.86789
9.1331 7.30597 -2.86926
9.05378 7.37591 -2.87062
8.97447 7.44585 -2.87199
8.89515 7.5158 -2.87335
8.81584 7.58574 -2.87473
8.73652 7.65568 -2.8761
8.65721 7.72563 -2.87746
8.57789 7.79557 -2.87883
8.49858 7.86551 -2.88019
8.3568 7.85495 -2.88397
8.27748 7.9249 -2.88535
8.19817 7.99484 -2.8867
8.11886 8.06478 -2.88808
7.97707 8.05422 -2.89186
7.89776 8.12416 -2.89323
7.81845 8.19411 -2.89459
7.73913 8.26405 -2.89597
7.65982 8.33399 -2.89732
7.5805 8.40393 -2.8987
7.43872 8.39337 -2.90248
7.35941 8.46332 -2.90385
7.28009 8.53326 -2.90521
7.20078 8.6032 -2.90659
7.05899 8.59264 -2.91037
6.97968 8.66258 -2.91174
6.8379 8.65203 -2.91553
6.69612 8.64146 -2.91931
6.55434 8.6309 -2.92311
6.47502 8.70084 -2.92447
6.39571 8.77079 -2.92584
6.3164 8.84073 -2.9272
6.17462 8.83017 -2.931
6.0953 8.90011 -2.93236
5.89105 8.80904 -2.93857
5.74928 8.79848 -2.94235
5.60749 8.78792 -2.94615
5.52818 8.85786 -2.94751
5.32393 8.7668 -2.95372
5.18215 8.75624 -2.95752
5.04038 8.74568 -2.9613
4.89859 8.73511 -2.96509
4.75681 8.72455 -2.96889
4.61503 8.71399 -2.97267
4.47325 8.70343 -2.97646
3.89421 8.12933 -2.99721
3.75243 8.11877 -3.00101
3.67312 8.18871 -3.00237
3.46887 8.09765 -3.00858
8.34719 8.09718 -2.85793
8.25738 8.21904 -2.85687
8.16756 8.34091 -2.85582
8.0639 8.36182 -2.85718
7.97409 8.4837 -2.85612
7.88427 8.60556 -2.85507
7.78061 8.62648 -2.85643
7.67695 8.64739 -2.8578
7.58713 8.76926 -2.85674
7.48347 8.79017 -2.85811
7.37981 8.81109 -2.85947
7.27615 8.832 -2.86084
7.17249 8.85292 -2.8622
7.06883 8.87383 -2.86357
6.97902 8.9957 -2.86252
6.87536 9.01661 -2.86388
6.7717 9.03753 -2.86525
6.66804 9.05845 -2.86661
6.56438 9.07936 -2.86798
6.46072 9.10028 -2.86934
6.35706 9.12119 -2.87071
6.25339 9.14211 -2.87207
6.14973 9.16302 -2.87344
6.04607 9.18394 -2.8748
5.94242 9.20485 -2.87617
5.83876 9.22577 -2.87753
5.73509 9.24668 -2.87891
5.63143 9.2676 -2.88026
5.52777 9.28851 -2.88164
5.42412 9.30943 -2.883
5.32045 9.33034 -2.88437
5.21679 9.35126 -2.88574
5.11313 9.37217 -2.8871
5.00947 9.39309 -2.88847
4.89197 9.31305 -2.89226
4.78831 9.33397 -2.89362
4.68465 9.35488 -2.89499
4.58099 9.3758 -2.89635
4.47733 9.39671 -2.89772
4.37367 9.41763 -2.89909
4.27001 9.43854 -2.90045
4.1525 9.35851 -2.90424
4.04884 9.37942 -2.90561
3.94518 9.40034 -2.90697
3.84152 9.42125 -2.90834
3.72402 9.34121 -2.91212
3.62036 9.36213 -2.9135
3.50285 9.28209 -2.91728
3.34382 8.8992 -2.92834
3.22631 8.81916 -2.93213
3.10881 8.73913 -2.93593
3.00515 8.76004 -2.93729
2.90149 8.78096 -2.93866
2.78398 8.70092 -2.94244
2.68032 8.72183 -2.9438
2.57666 8.74275 -2.94518
2.45916 8.66271 -2.94896
2.3555 8.68363 -2.95033
2.23799 8.60359 -2.95412
2.13433 8.62451 -2.95549
2.01683 8.54447 -2.95927
1.91317 8.56539 -2.96063
1.79566 8.48535 -2.96443
1.67816 8.40531 -2.96822
1.5745 8.42623 -2.96959
1.45699 8.34619 -2.97337
1.33949 8.26615 -2.97716
1.22199 8.18612 -2.98096
1.10448 8.10608 -2.98474
0.986977 8.02604 -2.98853
0.883315 8.04696 -2.9899
6.81738 8.97599 -2.90268
6.71715 8.94227 -2.90405
6.57843 9.00291 -2.90298
6.4782 8.96919 -2.90436
6.33949 9.02983 -2.90331
6.23926 8.99611 -2.90466
6.06206 9.15109 -2.90118
5.96182 9.11737 -2.90256
5.82311 9.178 -2.90149
5.68439 9.23864 -2.90044
5.50719 9.39362 -2.89696
5.32999 9.54859 -2.89348
5.15278 9.70358 -2.89
5.05255 9.66986 -2.89136
4.91384 9.73049 -2.8903
4.81361 9.69678 -2.89168
4.71338 9.66306 -2.89304
4.61315 9.62934 -2.89441
4.47443 9.68998 -2.89334
4.3742 9.65626 -2.89471
4.27397 9.62254 -2.89607
4.17374 9.58882 -2.89745
4.07351 9.55511 -2.89882
3.97328 9.52139 -2.90018
3.87305 9.48767 -2.90155
3.77282 9.45395 -2.90291
3.67259 9.42024 -2.90428
3.57236 9.38652 -2.90564
3.47213 9.35281 -2.90701
3.3719 9.31909 -2.90837
3.27167 9.28537 -2.90974
3.17144 9.25165 -2.9111
3.07121 9.21794 -2.91248
2.97098 9.18422 -2.91383
2.87075 9.15051 -2.91521
2.73204 9.21113 -2.91415
2.63181 9.17742 -2.91551
2.53158 9.1437 -2.91689
2.43135 9.10999 -2.91824
2.33112 9.07627 -2.91962
2.23089 9.04255 -2.92097
2.13066 9.00883 -2.92235
2.03043 8.97512 -2.92371
1.9302 8.9414 -2.92508
1.86845 8.81333 -2.92886
1.76822 8.77962 -2.93024
1.66799 8.7459 -2.93159
1.56776 8.71218 -2.93297
1.46753 8.67847 -2.93433
1.36731 8.64475 -2.9357
1.26707 8.61103 -2.93706
1.16684 8.57731 -2.93843
1.06661 8.5436 -2.93979
0.966384 8.50988 -2.94116
0.866155 8.47616 -2.94252
0.765924 8.44245 -2.94389
0.665695 8.40873 -2.94525
0.565464 8.37501 -2.94662
0.465235 8.34129 -2.94798
0.365006 8.30758 -2.94936
0.264775 8.27386 -2.95071
0.164544 8.24014 -2.95209
0.102802 8.11208 -2.95587
0.00257349 8.07836 -2.95724
-0.0976562 8.04464 -2.9586
-0.197886 8.01092 -2.95998
-0.259631 7.88286 -2.96376
-0.359863 7.84915 -2.96513
-0.421604 7.72107 -2.96892
-0.444863 7.49866 -2.97513
-0.506606 7.37059 -2.97891
-0.568348 7.24253 -2.98271
-0.630093 7.11446 -2.9865
-0.691836 6.9864 -2.99028
-0.792067 6.95268 -2.99165
-0.892296 6.91896 -2.99301
-0.992528 6.88525 -2.99438
-1.09276 6.85153 -2.99576
-1.19298 6.81781 -2.99712
-1.29322 6.7841 -2.99849
-1.39345 6.75038 -2.99985
-1.45519 6.62231 -3.00363
-1.55542 6.58859 -3.005
1.3435 9.10103 -2.95604
1.19305 9.08419 -2.95499
1.0426 9.06734 -2.95392
0.892158 9.05049 -2.95287
0.741709 9.03364 -2.95181
0.671767 8.95433 -2.95317
0.601823 8.87501 -2.95454
0.531878 8.7957 -2.9559
0.461935 8.71638 -2.95728
0.472502 8.5746 -2.96106
0.322051 8.55775 -2.96001
0.0910988 8.60337 -2.95653
-0.0593505 8.58652 -2.95547
-0.209799 8.56967 -2.95441
-0.279739 8.49035 -2.95578
-0.430187 8.47351 -2.95473
-0.500131 8.39419 -2.95609
-0.570075 8.31488 -2.95746
-0.640018 8.23556 -2.95882
-0.790464 8.21871 -2.95776
-0.860409 8.1394 -2.95912
-0.930351 8.06008 -2.96049
-1.0003 7.98077 -2.96187
-1.15074 7.96392 -2.9608
-1.22068 7.8846 -2.96217
-1.29063 7.80529 -2.96353
-1.36057 7.72598 -2.9649
-1.43052 7.64666 -2.96626
-1.50046 7.56734 -2.96764
-1.5704 7.48803 -2.96899
-1.64034 7.40872 -2.97037
-1.71029 7.3294 -2.97173
-1.78023 7.25009 -2.9731
-1.93068 7.23324 -2.97205
-2.00062 7.15392 -2.9734
-2.07057 7.07461 -2.97478
-2.14051 6.9953 -2.97614
-2.21045 6.91598 -2.97751
-2.2804 6.83667 -2.97887
-2.35034 6.75735 -2.98024
-2.42028 6.67804 -2.9816
-2.49023 6.59872 -2.98297
-2.56017 6.51941 -2.98433
-2.63011 6.44009 -2.9857
-2.70006 6.36078 -2.98706
-2.77 6.28146 -2.98843
-2.83994 6.20215 -2.98979
-2.90988 6.12283 -2.99117
-2.97983 6.04352 -2.99254
-3.04977 5.9642 -2.9939
-3.11971 5.88489 -2.99527
-3.18966 5.80558 -2.99663
-3.2596 5.72626 -2.998
-3.32954 5.64694 -2.99936
-3.39949 5.56763 -3.00073
-3.46943 5.48832 -3.00209
-3.53937 5.409 -3.00346
-3.60932 5.32969 -3.00482
-3.67926 5.25037 -3.0062
-3.6687 5.10859 -3.00998
-3.73864 5.02928 -3.01135
-3.80858 4.94996 -3.01271
-3.87852 4.87065 -3.01408
-3.94847 4.79133 -3.01544
-3.93791 4.64955 -3.01924
-3.92735 4.50777 -3.02303
-4.86837 1.72575 -2.04378
-4.88929 1.62209 -2.04514
-4.9102 1.51843 -2.04651
-4.93112 1.41477 -2.04787
-4.95203 1.31111 -2.04924
-4.97295 1.20745 -2.0506
-4.99386 1.10379 -2.05197
-5.01478 1.00013 -2.05333
-5.03569 0.896473 -2.0547
-5.05661 0.792811 -2.05606
-5.07752 0.689151 -2.05743
-5.09844 0.585491 -2.05881
-5.11935 0.48183 -2.06017
-5.14027 0.37817 -2.06154
-5.16119 0.274512 -2.0629
-5.1821 0.170852 -2.06427
-5.20301 0.0671921 -2.06563
-5.22393 -0.0364693 -2.067
-5.24485 -0.140129 -2.06836
-5.26576 -0.243791 -2.06973
-5.28667 -0.347449 -2.07109
-5.30759 -0.45111 -2.07246
-5.32851 -0.55477 -2.07382
-5.24847 -0.672275 -2.07762
-5.26938 -0.775937 -2.07898
-5.2903 -0.879597 -2.08035
-5.31121 -0.983257 -2.08171
-5.33213 -1.08692 -2.08308
-5.35304 -1.19058 -2.08444
-5.37395 -1.29424 -2.08582
-5.39487 -1.3979 -2.08717
-5.41579 -1.50156 -2.08855
-5.4367 -1.60522 -2.0899
-5.35667 -1.72272 -2.0937
-5.37758 -1.82638 -2.09506
-5.29754 -1.94389 -2.09885
-3.81257 5.41599 -3.00186
-3.93444 5.32617 -3.00081
-3.95535 5.22251 -3.00218
-3.97626 5.11885 -3.00354
-4.09813 5.02903 -3.00249
-4.11905 4.92537 -3.00385
-4.13996 4.82171 -3.00522
-4.16088 4.71805 -3.00658
-4.18179 4.61439 -3.00795
-4.20271 4.51073 -3.00931
-4.22362 4.40707 -3.01068
-4.3455 4.31726 -3.00963
-4.36641 4.2136 -3.01099
-4.38732 4.10994 -3.01236
-4.40824 4.00628 -3.01372
-4.42916 3.90262 -3.01509
-4.45007 3.79896 -3.01645
-4.47098 3.6953 -3.01782
-4.4919 3.59164 -3.01918
-4.51282 3.48798 -3.02055
-4.53373 3.38432 -3.02191
-4.55465 3.28066 -3.02328
-4.57556 3.177 -3.02464
-4.59648 3.07333 -3.02602
-4.61739 2.96967 -3.02737
-4.63831 2.86602 -3.02875
-4.65922 2.76235 -3.03012
-4.68014 2.65869 -3.03148
-4.70105 2.55503 -3.03285
-4.72197 2.45137 -3.03421
-4.74288 2.34771 -3.03558
-4.7638 2.24405 -3.03694
-4.68376 2.12655 -3.04073
-4.70467 2.02289 -3.0421
-4.72559 1.91923 -3.04347
-4.7465 1.81557 -3.04483
-4.76742 1.71191 -3.0462
-4.88929 1.62209 -3.04514
-4.9102 1.51843 -3.04651
-4.93112 1.41477 -3.04787
-4.95203 1.31111 -3.04924
-4.97295 1.20745 -3.0506
-4.99386 1.10379 -3.05197
-5.01478 1.00013 -3.05333
-5.03569 0.896473 -3.0547
-5.05661 0.792811 -3.05606
-5.07752 0.689151 -3.05743
-5.09844 0.585491 -3.05881
-5.11935 0.48183 -3.06017
-5.14027 0.37817 -3.06154
-5.06023 0.260666 -3.06532
-5.08114 0.157005 -3.06668
-5.10206 0.0533459 -3.06805
-5.12298 -0.0503156 -3.06941
-5.14389 -0.153975 -3.07079
-5.94176 -0.607663 -3.01862
-6.00239 -0.746379 -3.01756
-5.96867 -0.846607 -3.01892
-6.0293 -0.985325 -3.01787
-5.99558 -1.08555 -3.01924
-5.96187 -1.18579 -3.0206
-5.92815 -1.28601 -3.02197
-5.89443 -1.38624 -3.02333
-5.86072 -1.48647 -3.0247
-5.827 -1.5867 -3.02606
-5.79328 -1.68694 -3.02744
-5.75956 -1.78716 -3.02879
-5.72585 -1.88739 -3.03017
-5.78648 -2.02611 -3.0291
-5.75276 -2.12634 -3.03047
-5.71905 -2.22657 -3.03183
-5.68533 -2.3268 -3.0332
-5.65161 -2.42703 -3.03458
-5.6179 -2.52726 -3.03593
-5.58418 -2.62749 -3.03731
-5.55046 -2.72772 -3.03867
-5.51674 -2.82795 -3.04004
-5.48303 -2.92818 -3.0414
-5.44931 -3.02841 -3.04277
-5.41559 -3.12864 -3.04413
-5.38187 -3.22887 -3.0455
-5.34816 -3.3291 -3.04686
-5.31444 -3.42933 -3.04823
-5.28073 -3.52956 -3.04959
-5.24701 -3.62979 -3.05096
-5.21329 -3.73002 -3.05232
-5.08523 -3.79176 -3.05612
-5.05151 -3.89199 -3.05748
-5.01779 -3.99222 -3.05885
-4.98408 -4.09245 -3.06021
-4.95036 -4.19268 -3.06158
-4.91664 -4.29291 -3.06294
-4.88292 -4.39314 -3.06432
-4.84921 -4.49337 -3.06567
-4.81549 -4.5936 -3.06705
-4.78177 -4.69383 -3.06841
-4.74806 -4.79406 -3.06978
-5.38187 -3.22887 -2.0455
-5.34816 -3.3291 -2.04686
-5.31444 -3.42933 -2.04823
-5.28073 -3.52956 -2.04959
-5.24701 -3.62979 -2.05096
-5.21329 -3.73002 -2.05232
-5.17957 -3.83025 -2.0537
-5.14586 -3.93048 -2.05505
-5.11214 -4.03071 -2.05643
-5.07843 -4.13094 -2.05779
-5.0447 -4.23117 -2.05916
-5.01099 -4.3314 -2.06052
-4.97727 -4.43163 -2.06189
-4.94356 -4.53186 -2.06325
-4.81549 -4.5936 -2.06705
-4.78177 -4.69383 -2.06841
-4.74806 -4.79406 -2.06978
-4.71434 -4.89429 -2.07114
-4.58627 -4.95604 -2.07494
-4.55255 -5.05626 -2.07629
-4.51884 -5.15649 -2.07767
-4.39077 -5.21824 -2.08145
-4.26271 -5.27998 -2.08524
-4.22899 -5.38021 -2.08661
-4.10092 -5.44196 -2.09039
-4.06721 -5.54219 -2.09177
-4.03349 -5.64242 -2.09312
-3.90543 -5.70416 -2.09692
-3.87171 -5.80439 -2.09828
-3.74364 -5.86613 -2.10207
-3.70992 -5.96636 -2.10344
-3.58186 -6.02811 -2.10722
-1.79135 -9.0346 -2.04286
-1.71203 -9.10454 -2.04422
-1.63272 -9.17448 -2.04559
-1.55341 -9.24443 -2.04697
-1.47409 -9.31437 -2.04832
-1.39477 -9.38431 -2.0497
-1.31546 -9.45426 -2.05106
-1.23615 -9.5242 -2.05243
-1.15683 -9.59414 -2.05379
-1.07752 -9.66409 -2.05516
-0.998201 -9.73403 -2.05652
-0.918888 -9.80397 -2.05789
-0.839572 -9.87392 -2.05925
-0.760256 -9.94386 -2.06062
-0.680941 -10.0138 -2.06198
-0.601628 -10.0837 -2.06335
-0.459848 -10.0732 -2.06714
-0.380533 -10.1431 -2.06851
-0.301217 -10.2131 -2.06987
-0.221902 -10.283 -2.07124
-0.142588 -10.353 -2.0726
-0.0632739 -10.4229 -2.07397
0.0160398 -10.4928 -2.07533
0.095356 -10.5628 -2.07671
0.174671 -10.6327 -2.07806
0.253985 -10.7027 -2.07944
0.333299 -10.7726 -2.0808
0.412617 -10.8426 -2.08217
0.554394 -10.832 -2.08595
0.633709 -10.9019 -2.08733
0.713023 -10.9719 -2.08868
0.792337 -11.0418 -2.09006
0.934122 -11.0313 -2.09384
1.01344 -11.1012 -2.09521
1.09275 -11.1711 -2.09657
1.23453 -11.1606 -2.10036
1.31384 -11.2305 -2.10173
1.45563 -11.22 -2.10551
1.5974 -11.2094 -2.10931
1.80165 -11.1183 -2.11552
2.00589 -11.0273 -2.12173
2.14767 -11.0167 -2.12552
2.22699 -11.0867 -2.12689
2.36877 -11.0761 -2.13068
2.51055 -11.0655 -2.13446
2.65233 -11.055 -2.13826
-5.65188 -2.64725 -3.00601
-5.63503 -2.79769 -3.00496
-5.61818 -2.94814 -3.00391
-5.60133 -3.09859 -3.00284
-5.58448 -3.24904 -3.00179
-5.56763 -3.39949 -3.00073
-5.48832 -3.46943 -3.00209
-5.47147 -3.61988 -3.00104
-5.39215 -3.68982 -3.0024
-5.3753 -3.84027 -3.00134
-5.35845 -3.99072 -3.00029
-5.27914 -4.06066 -3.00165
-5.26229 -4.21111 -3.0006
-5.18297 -4.28105 -3.00197
-5.10366 -4.35099 -3.00333
-5.02434 -4.42093 -3.0047
-5.0075 -4.57139 -3.00363
-4.99064 -4.72183 -3.00258
-4.9738 -4.87228 -3.00153
-4.89448 -4.94222 -3.00288
-4.87763 -5.09267 -3.00183
-4.79832 -5.16261 -3.0032
-4.719 -5.23256 -3.00456
-4.70215 -5.383 -3.00351
-4.62284 -5.45295 -3.00487
-4.54353 -5.52289 -3.00624
-4.46421 -5.59283 -3.0076
-4.38489 -5.66278 -3.00897
-4.30558 -5.73272 -3.01033
-4.22627 -5.80266 -3.0117
-4.14695 -5.87261 -3.01308
-4.06764 -5.94255 -3.01443
-4.05079 -6.093 -3.01338
-3.97148 -6.16294 -3.01474
-4.01709 -6.39389 -3.01126
-3.93777 -6.46384 -3.01263
-3.92092 -6.61429 -3.01157
-3.84161 -6.68423 -3.01294
-3.7623 -6.75417 -3.01431
-3.68298 -6.82412 -3.01567
-3.60367 -6.89406 -3.01704
-3.58682 -7.0445 -3.01598
-3.5075 -7.11445 -3.01735
-3.42819 -7.18439 -3.01871
-3.34887 -7.25433 -3.02008
-3.26956 -7.32428 -3.02144
-3.25271 -7.47473 -3.02039
-3.1734 -7.54467 -3.02176
-3.09408 -7.61461 -3.02312
-3.01477 -7.68456 -3.02449
-2.93545 -7.7545 -3.02585
-2.85614 -7.82444 -3.02722
-2.77682 -7.89438 -3.02858
-2.69751 -7.96433 -3.02995
-2.61819 -8.03427 -3.03131
-2.53888 -8.10421 -3.03268
-2.45956 -8.17416 -3.03404
-2.38025 -8.2441 -3.03542
-2.30093 -8.31404 -3.03677
-2.22162 -8.38399 -3.03815
-2.20477 -8.53443 -3.03709
-2.12545 -8.60438 -3.03845
-2.04614 -8.67432 -3.03983
-1.96683 -8.74427 -3.04118
-1.88751 -8.81421 -3.04256
-1.8082 -8.88415 -3.04391
-1.72888 -8.95409 -3.04529
-1.64957 -9.02404 -3.04665
-1.57025 -9.09398 -3.04802
-1.49094 -9.16392 -3.04938
-1.41162 -9.23386 -3.05075
-1.33231 -9.30381 -3.05211
-1.25299 -9.37375 -3.05348
-1.17368 -9.4437 -3.05484
-1.09436 -9.51364 -3.05621
-1.01505 -9.58358 -3.05757
-0.935735 -9.65352 -3.05894
-0.856421 -9.72347 -3.06032
-0.777106 -9.79341 -3.06168
-0.69779 -9.86335 -3.06305
-0.618474 -9.9333 -3.06441
-0.539162 -10.0032 -3.06578
-0.459848 -10.0732 -3.06714
-0.380533 -10.1431 -3.06851
-0.301217 -10.2131 -3.06987
-0.221902 -10.283 -3.07124
