ply
format ascii 1.0
comment VCGLIB generated
element vertex 1165
property float x
property float y
property float z
element face 0
property list uchar int vertex_indices
end_header
2.881 -11.8446 -1.84277
3.11195 -11.8902 -1.83929
3.2624 -11.8734 -1.83823
3.41285 -11.8565 -1.83717
4.04632 -12.2145 -1.82158
4.19677 -12.1976 -1.82053
4.34722 -12.1808 -1.81947
4.49767 -12.1639 -1.81841
4.64812 -12.1471 -1.81735
4.79857 -12.1302 -1.8163
4.86851 -12.0509 -1.81766
5.01896 -12.034 -1.8166
5.0889 -11.9547 -1.81796
5.23935 -11.9379 -1.81691
5.3898 -11.921 -1.81586
5.54024 -11.9042 -1.8148
5.69069 -11.8873 -1.81374
5.76063 -11.808 -1.81511
5.91108 -11.7912 -1.81406
5.98102 -11.7119 -1.81541
6.13147 -11.695 -1.81436
6.20142 -11.6157 -1.81572
6.35186 -11.5988 -1.81467
6.42181 -11.5195 -1.81604
6.57225 -11.5027 -1.81497
6.6422 -11.4234 -1.81635
6.79264 -11.4065 -1.81529
6.86259 -11.3272 -1.81665
7.01304 -11.3104 -1.8156
7.08298 -11.231 -1.81696
7.15292 -11.1517 -1.81833
7.30337 -11.1349 -1.81728
7.37331 -11.0556 -1.81863
7.44326 -10.9762 -1.82001
7.5937 -10.9594 -1.81894
7.66365 -10.8801 -1.82031
7.73359 -10.8008 -1.82167
7.88404 -10.7839 -1.82062
7.95398 -10.7046 -1.82199
8.02392 -10.6253 -1.82335
8.17437 -10.6084 -1.8223
8.24432 -10.5291 -1.82365
8.39476 -10.5123 -1.8226
8.54521 -10.4954 -1.82155
8.61515 -10.4161 -1.82291
8.7656 -10.3993 -1.82185
8.83554 -10.3199 -1.82323
8.90549 -10.2406 -1.82458
8.97543 -10.1613 -1.82596
9.12588 -10.1445 -1.82489
9.19582 -10.0651 -1.82626
9.34627 -10.0483 -1.82521
9.41621 -9.96899 -1.82657
9.48616 -9.88967 -1.82794
9.63661 -9.87282 -1.82687
9.70655 -9.79351 -1.82825
9.77649 -9.71419 -1.82961
9.92694 -9.69734 -1.82855
9.99688 -9.61803 -1.82993
10.0668 -9.53871 -1.83128
10.2173 -9.52186 -1.83023
10.2872 -9.44255 -1.83159
10.3572 -9.36323 -1.83296
10.4271 -9.28392 -1.83434
10.5776 -9.26707 -1.83327
10.6475 -9.18776 -1.83464
10.7174 -9.10844 -1.836
10.7874 -9.02913 -1.83737
10.9378 -9.01228 -1.83632
11.0078 -8.93296 -1.83768
11.0777 -8.85365 -1.83905
11.1477 -8.77433 -1.84041
11.2176 -8.69502 -1.84178
11.2875 -8.6157 -1.84314
11.3575 -8.53639 -1.84451
11.4274 -8.45707 -1.84587
11.4974 -8.37776 -1.84724
11.5673 -8.29844 -1.8486
11.6373 -8.21913 -1.84998
11.7072 -8.13982 -1.85133
11.7771 -8.0605 -1.85271
11.7666 -7.91872 -1.85649
11.8365 -7.83941 -1.85786
11.9065 -7.76009 -1.85922
11.9764 -7.68078 -1.8606
12.0464 -7.60146 -1.86195
12.1163 -7.52215 -1.86333
12.1862 -7.44283 -1.86469
12.2562 -7.36352 -1.86606
12.2456 -7.22174 -1.86984
12.3156 -7.14242 -1.87122
12.305 -7.00064 -1.875
12.3749 -6.92133 -1.87637
12.3644 -6.77955 -1.88016
12.4343 -6.70023 -1.88152
12.5043 -6.62092 -1.88289
12.4937 -6.47914 -1.88667
12.5637 -6.39982 -1.88805
12.5531 -6.25804 -1.89183
12.5425 -6.11626 -1.89561
12.532 -5.97448 -1.89941
12.4409 -5.77024 -1.90562
12.4303 -5.62846 -1.90941
12.4198 -5.48668 -1.91319
12.4092 -5.3449 -1.91699
12.3987 -5.20312 -1.92078
12.3881 -5.06133 -1.92456
12.3775 -4.91956 -1.92836
12.367 -4.77778 -1.93214
12.3564 -4.636 -1.93593
12.3458 -4.49422 -1.93973
12.4158 -4.4149 -1.94109
12.4052 -4.27312 -1.94489
12.3142 -4.06888 -1.9511
12.2231 -3.86463 -1.95731
12.132 -3.66038 -1.96352
12.1215 -3.5186 -1.9673
12.1109 -3.37682 -1.9711
12.1004 -3.23504 -1.97488
12.0898 -3.09326 -1.97867
11.9182 -2.82655 -1.9873
11.9077 -2.68477 -1.9911
11.8971 -2.54299 -1.99489
11.7255 -2.27628 -2.00352
11.715 -2.1345 -2.00731
11.6239 -1.93025 -2.01352
11.3718 -1.60108 -2.02458
11.3613 -1.4593 -2.02837
11.3507 -1.31752 -2.03217
11.3401 -1.17573 -2.03595
11.2491 -0.971488 -2.04216
11.323 -1.96395 -1.01564
11.3124 -1.82217 -1.01942
11.3019 -1.68039 -1.02321
11.2913 -1.53861 -1.02701
11.2808 -1.39683 -1.03079
11.1897 -1.19259 -1.037
11.0986 -0.988338 -1.04321
11.0881 -0.846558 -1.04701
11.0775 -0.704778 -1.0508
10.7449 -0.313138 -1.06429
10.7344 -0.171356 -1.06807
10.7238 -0.0295749 -1.07185
10.3806 3.48391 -1.01608
10.4015 3.58757 -1.01744
10.3214 3.70508 -1.02122
10.3423 3.80874 -1.0226
10.2623 3.92624 -1.02638
10.2832 4.0299 -1.02776
10.2032 4.1474 -1.03154
10.2241 4.25107 -1.03291
10.245 4.35472 -1.03427
10.165 4.47223 -1.03807
10.0849 4.58973 -1.04185
10.0049 4.70724 -1.04564
9.92487 4.82474 -1.04942
9.44103 4.99762 -1.06291
9.46194 5.10128 -1.06429
6.11552 -11.4843 -1.84572
6.74215 -11.4637 -1.83255
6.76306 -11.3601 -1.83391
6.88493 -11.2703 -1.83286
7.0068 -11.1805 -1.83179
7.22961 -11.1045 -1.82831
7.45243 -11.0285 -1.82483
7.87716 -10.9802 -1.81651
7.99902 -10.8904 -1.81544
8.12089 -10.8006 -1.81439
8.24275 -10.7108 -1.81334
8.36462 -10.621 -1.81229
8.58744 -10.545 -1.80879
8.70931 -10.4552 -1.80774
8.83118 -10.3654 -1.80669
8.95304 -10.2755 -1.80563
9.07491 -10.1857 -1.80457
9.19678 -10.0959 -1.80351
9.6215 -10.0476 -1.79518
9.74337 -9.95782 -1.79413
9.86523 -9.868 -1.79308
9.9871 -9.77818 -1.79202
10.109 -9.68837 -1.79095
10.2308 -9.59855 -1.7899
10.2518 -9.49489 -1.79128
10.3736 -9.40508 -1.79021
10.4955 -9.31526 -1.78915
10.5164 -9.2116 -1.79051
10.6383 -9.12178 -1.78946
10.7601 -9.03197 -1.78841
10.882 -8.94215 -1.78735
11.0039 -8.85234 -1.78629
11.1257 -8.76252 -1.78523
11.2476 -8.67271 -1.78418
11.2685 -8.56905 -1.78554
11.2894 -8.46539 -1.78691
11.4113 -8.37557 -1.78586
11.5332 -8.28575 -1.78479
11.655 -8.19594 -1.78374
11.7769 -8.10612 -1.78268
11.7978 -8.00246 -1.78404
11.9197 -7.91265 -1.78299
11.9406 -7.80899 -1.78436
12.0625 -7.71917 -1.78329
12.0834 -7.61551 -1.78467
12.2052 -7.52569 -1.7836
12.2262 -7.42203 -1.78497
12.348 -7.33222 -1.78392
12.3689 -7.22856 -1.78528
12.3899 -7.1249 -1.78665
12.4108 -7.02124 -1.78801
12.4317 -6.91758 -1.78938
12.4526 -6.81392 -1.79074
12.5745 -6.7241 -1.78969
12.5954 -6.62044 -1.79106
12.6163 -6.51678 -1.79242
12.6372 -6.41312 -1.79379
12.6581 -6.30946 -1.79515
12.679 -6.2058 -1.79652
12.7 -6.10214 -1.79788
12.7209 -5.99848 -1.79926
12.7418 -5.89482 -1.80061
12.7627 -5.79116 -1.80199
12.7836 -5.6875 -1.80334
12.7036 -5.57 -1.80714
12.7245 -5.46634 -1.8085
12.7454 -5.36268 -1.80988
12.7663 -5.25902 -1.81123
12.6863 -5.14151 -1.81503
12.7072 -5.03785 -1.81639
12.6272 -4.92035 -1.82018
12.6481 -4.81669 -1.82155
12.5681 -4.69918 -1.82533
12.589 -4.59552 -1.82671
12.5089 -4.47802 -1.83049
12.5298 -4.37436 -1.83186
12.4498 -4.25685 -1.83565
12.4707 -4.15319 -1.83701
12.4916 -4.04953 -1.83838
12.4116 -3.93203 -1.84216
12.4325 -3.82837 -1.84354
12.4534 -3.72471 -1.84489
12.4743 -3.62105 -1.84627
12.3943 -3.50354 -1.85005
12.4152 -3.39988 -1.85143
12.4361 -3.29622 -1.85278
12.3561 -3.17872 -1.85658
12.377 -3.07506 -1.85794
12.297 -2.95755 -1.86172
12.3179 -2.85389 -1.8631
12.3388 -2.75023 -1.86446
12.2588 -2.63273 -1.86826
12.2797 -2.52907 -1.86961
12.1997 -2.41156 -1.87341
12.2206 -2.3079 -1.87477
12.1405 -2.1904 -1.87856
12.0605 -2.07289 -1.88235
12.0814 -1.96924 -1.88371
12.1023 -1.86558 -1.88509
12.0223 -1.74807 -1.88887
12.0432 -1.64441 -1.89024
11.9632 -1.52691 -1.89403
11.9841 -1.42324 -1.8954
11.904 -1.30574 -1.89919
11.824 -1.18824 -1.90297
11.8449 -1.08458 -1.90434
11.7649 -0.967073 -1.90813
11.7858 -0.863412 -1.9095
11.8067 -0.759752 -1.91086
11.8276 -0.65609 -1.91223
11.8485 -0.552432 -1.91359
11.7685 -0.434925 -1.91737
11.7894 -0.331265 -1.91875
11.8103 -0.227605 -1.9201
11.8313 -0.123944 -1.92148
11.7512 -0.0064404 -1.92526
11.7721 0.0972192 -1.92664
11.6921 0.214723 -1.93042
11.713 0.318382 -1.93179
11.633 0.43589 -1.93558
11.5529 0.553393 -1.93936
11.5739 0.657054 -1.94073
11.4938 0.774556 -1.94452
11.5147 0.878216 -1.94589
11.4347 0.995723 -1.94968
11.4556 1.09938 -1.95105
11.2746 1.23073 -1.95726
11.1946 1.34824 -1.96104
11.1145 1.46574 -1.96483
11.1355 1.5694 -1.9662
11.1564 1.67306 -1.96756
11.0763 1.79056 -1.97136
10.9963 1.90807 -1.97514
10.8153 2.03942 -1.98135
12.1371 -7.92156 -1.81099
12.2921 -7.74436 -1.80751
12.3527 -7.60564 -1.80646
12.7908 -7.31298 -1.79572
12.8514 -7.17426 -1.79465
12.8177 -7.07403 -1.79602
12.8783 -6.93532 -1.79497
12.8446 -6.83509 -1.79633
12.8109 -6.73486 -1.7977
12.8715 -6.59614 -1.79663
13.0265 -6.41894 -1.79315
13.0871 -6.28022 -1.7921
13.1478 -6.14151 -1.79105
13.2084 -6.00279 -1.78998
13.1747 -5.90256 -1.79135
13.2353 -5.76384 -1.7903
13.2016 -5.66361 -1.79166
13.2622 -5.5249 -1.7906
13.2285 -5.42467 -1.79196
13.2891 -5.28595 -1.79091
13.2554 -5.18572 -1.79228
13.2217 -5.08549 -1.79364
13.188 -4.98526 -1.79501
13.1543 -4.88503 -1.79637
13.1206 -4.7848 -1.79774
13.0868 -4.68457 -1.7991
13.1475 -4.54586 -1.79805
13.1137 -4.44563 -1.79941
13.08 -4.3454 -1.80078
13.0463 -4.24517 -1.80215
13.0126 -4.14494 -1.80351
12.9789 -4.04471 -1.80489
12.9452 -3.94448 -1.80624
12.9114 -3.84425 -1.80762
12.9721 -3.70553 -1.80655
12.9384 -3.6053 -1.80792
12.9046 -3.50507 -1.80928
12.8709 -3.40484 -1.81065
12.9316 -3.26612 -1.8096
12.8978 -3.16589 -1.81096
12.8641 -3.06566 -1.81233
12.8304 -2.96543 -1.81369
12.7967 -2.86521 -1.81506
12.763 -2.76498 -1.81642
12.7293 -2.66474 -1.81779
12.6955 -2.56451 -1.81915
12.6618 -2.46429 -1.82053
12.7225 -2.32557 -1.81947
12.6887 -2.22534 -1.82083
12.655 -2.12511 -1.8222
12.6213 -2.02488 -1.82356
12.5876 -1.92465 -1.82494
12.5539 -1.82442 -1.82629
12.5202 -1.72419 -1.82767
12.4864 -1.62396 -1.82903
12.4527 -1.52373 -1.8304
12.419 -1.4235 -1.83176
12.3853 -1.32327 -1.83313
12.4459 -1.18456 -1.83208
12.4122 -1.08432 -1.83344
12.3785 -0.984095 -1.83481
12.3448 -0.883865 -1.83617
12.3111 -0.783634 -1.83754
12.2773 -0.683405 -1.8389
12.2436 -0.583175 -1.84027
12.2099 -0.482945 -1.84163
12.1762 -0.382715 -1.843
12.1425 -0.282485 -1.84436
12.1087 -0.182254 -1.84573
12.075 -0.0820248 -1.84709
12.1357 0.0566905 -1.84604
12.1019 0.156921 -1.84741
12.0682 0.257152 -1.84877
12.0345 0.357382 -1.85014
12.0008 0.457611 -1.8515
11.9671 0.557841 -1.85287
11.9334 0.658071 -1.85423
11.8996 0.758301 -1.85561
11.8659 0.858532 -1.85696
11.8322 0.95876 -1.85834
11.7985 1.05899 -1.8597
11.7648 1.15922 -1.86107
11.8254 1.29794 -1.86
11.7917 1.39817 -1.86137
11.758 1.4984 -1.86275
11.7243 1.59863 -1.86411
11.6905 1.69886 -1.86548
11.6568 1.79909 -1.86684
11.6231 1.89932 -1.86821
11.5894 1.99955 -1.86957
11.5557 2.09978 -1.87094
11.522 2.20001 -1.8723
11.4882 2.30024 -1.87367
11.4545 2.40047 -1.87503
11.4208 2.50069 -1.8764
11.3871 2.60093 -1.87776
11.4477 2.73964 -1.87671
11.414 2.83987 -1.87808
11.3803 2.9401 -1.87944
11.3466 3.04033 -1.88081
11.3129 3.14056 -1.88217
11.2791 3.24079 -1.88354
11.2454 3.34102 -1.8849
11.2117 3.44125 -1.88628
11.178 3.54148 -1.88763
11.1443 3.64171 -1.88901
11.1106 3.74194 -1.89037
11.0768 3.84217 -1.89174
11.0431 3.9424 -1.8931
11.0094 4.04263 -1.89447
10.9757 4.14286 -1.89583
10.942 4.24309 -1.8972
10.8139 4.30484 -1.90099
10.7802 4.40506 -1.90236
10.7465 4.50529 -1.90372
10.7127 4.60553 -1.90509
10.679 4.70576 -1.90645
10.6453 4.80598 -1.90782
10.6116 4.90621 -1.90918
10.4835 4.96796 -1.91298
10.4498 5.06819 -1.91434
10.3217 5.12993 -1.91812
10.288 5.23016 -1.91949
10.2543 5.33039 -1.92087
10.2206 5.43062 -1.92223
10.1869 5.53085 -1.9236
10.1532 5.63108 -1.92496
10.0251 5.69283 -1.92874
9.99138 5.79306 -1.93011
9.95766 5.89328 -1.93147
9.8296 5.95503 -1.93527
9.79588 6.05526 -1.93663
9.66781 6.117 -1.94043
9.53975 6.17875 -1.94421
9.41168 6.24049 -1.948
9.37797 6.34072 -1.94937
9.2499 6.40246 -1.95316
9.12183 6.4642 -1.95694
8.99376 6.52595 -1.96074
8.96005 6.62618 -1.9621
8.83198 6.68792 -1.9659
8.60957 6.71118 -1.97211
8.57585 6.81141 -1.97346
8.44779 6.87315 -1.97726
8.41407 6.97338 -1.97862
8.286 7.03513 -1.98241
8.06359 7.05838 -1.98863
7.93552 7.12013 -1.99242
7.9018 7.22035 -1.99377
7.86808 7.32059 -1.99515
7.83437 7.42082 -1.99651
7.7063 7.48256 -2.00031
7.67258 7.58279 -2.00166
7.63887 7.68302 -2.00304
7.51081 7.74476 -2.00682
7.38274 7.80651 -2.0106
7.25467 7.86825 -2.0144
7.03226 7.89151 -2.02061
7.16032 7.82976 -1.01683
7.1266 7.92999 -1.01819
6.99854 7.99174 -1.02197
13.1966 -5.36194 -1.88954
13.4921 -4.80897 -1.87637
13.5377 -4.57802 -1.87289
13.5209 -4.42757 -1.87184
13.504 -4.27712 -1.87077
13.4872 -4.12667 -1.86972
13.4703 -3.97623 -1.86867
13.4535 -3.82578 -1.8676
13.4366 -3.67533 -1.86655
13.3573 -3.60539 -1.86792
13.3405 -3.45494 -1.86685
13.2612 -3.38499 -1.86823
13.2443 -3.23455 -1.86717
13.165 -3.16461 -1.86853
13.1482 -3.01415 -1.86748
13.1313 -2.86371 -1.86642
13.1145 -2.71326 -1.86536
13.0976 -2.56281 -1.8643
13.0183 -2.49287 -1.86568
12.939 -2.42292 -1.86703
12.8597 -2.35298 -1.86841
12.8428 -2.20254 -1.86734
12.7635 -2.13259 -1.86871
12.6842 -2.06265 -1.87007
12.7298 -1.83169 -1.86659
12.7754 -1.60074 -1.86311
12.7586 -1.4503 -1.86206
12.7417 -1.29985 -1.86101
12.7249 -1.1494 -1.85994
12.708 -0.998951 -1.85889
12.6912 -0.848503 -1.85783
12.6119 -0.77856 -1.85919
12.595 -0.628111 -1.85814
12.5782 -0.477664 -1.85709
12.4988 -0.407719 -1.85844
12.482 -0.257274 -1.85739
12.4651 -0.106825 -1.85634
12.4483 0.0436249 -1.85527
12.4314 0.194071 -1.85422
12.4146 0.344516 -1.85316
12.3977 0.494967 -1.85211
12.3809 0.645413 -1.85104
12.364 0.795865 -1.84999
12.2847 0.865807 -1.85136
12.2679 1.01625 -1.8503
12.1886 1.0862 -1.85167
12.1093 1.15614 -1.85303
12.0299 1.22608 -1.8544
11.9506 1.29603 -1.85576
11.9338 1.44647 -1.85471
11.8545 1.51642 -1.85608
11.7751 1.58636 -1.85744
11.6958 1.65631 -1.85881
11.8039 1.96776 -1.85291
11.7246 2.0377 -1.85426
11.7077 2.18815 -1.85321
11.6284 2.2581 -1.85458
11.6116 2.40854 -1.85352
11.5323 2.47849 -1.85489
11.3905 2.46792 -1.85867
11.4986 2.77938 -1.85277
11.4817 2.92983 -1.85172
11.4649 3.08028 -1.85066
11.3856 3.15022 -1.85202
11.3687 3.30067 -1.85097
11.2894 3.37061 -1.85233
11.2725 3.52106 -1.85127
11.1932 3.59101 -1.85265
11.1764 3.74145 -1.85158
11.0971 3.81139 -1.85295
11.0802 3.96184 -1.8519
11.1258 4.1928 -1.84842
11.109 4.34324 -1.84735
11.0921 4.49369 -1.8463
11.0128 4.56364 -1.84767
10.996 4.71408 -1.8466
10.9167 4.78403 -1.84798
10.8373 4.85397 -1.84933
10.8205 5.00442 -1.84828
10.7412 5.07436 -1.84966
10.6619 5.14431 -1.85101
10.645 5.29475 -1.84996
10.5657 5.36469 -1.85132
10.5488 5.51514 -1.85027
10.4695 5.58508 -1.85164
10.4527 5.73553 -1.85057
10.3734 5.80548 -1.85194
10.2941 5.87542 -1.8533
10.2147 5.94536 -1.85468
10.1354 6.01531 -1.85603
10.0561 6.08525 -1.85741
10.0393 6.2357 -1.85635
9.95994 6.30564 -1.85771
9.9431 6.45609 -1.85666
9.86378 6.52603 -1.85802
9.78447 6.59597 -1.85939
9.70515 6.66592 -1.86075
9.62584 6.73586 -1.86212
9.54652 6.8058 -1.86349
9.46721 6.87575 -1.86485
9.45036 7.0262 -1.8638
9.37104 7.09614 -1.86516
9.29173 7.16608 -1.86653
9.21241 7.23602 -1.86789
9.1331 7.30597 -1.86926
9.05378 7.37591 -1.87062
8.97447 7.44585 -1.87199
8.89515 7.5158 -1.87335
8.81584 7.58574 -1.87473
8.73652 7.65568 -1.8761
8.59475 7.64512 -1.87988
8.51543 7.71506 -1.88124
8.43611 7.78501 -1.88261
8.3568 7.85495 -1.88397
8.21502 7.84439 -1.88777
8.13571 7.91433 -1.88913
8.05639 7.98427 -1.8905
7.97707 8.05422 -1.89186
7.8353 8.04366 -1.89566
7.75598 8.1136 -1.89702
7.67666 8.18354 -1.89839
7.59735 8.25349 -1.89975
7.51804 8.32343 -1.90112
7.43872 8.39337 -1.90248
7.35941 8.46332 -1.90385
7.21762 8.45275 -1.90764
7.13831 8.52269 -1.90901
7.05899 8.59264 -1.91037
6.97968 8.66258 -1.91174
6.8379 8.65203 -1.91553
6.75859 8.72197 -1.91689
6.61681 8.7114 -1.92068
6.53749 8.78135 -1.92204
6.45818 8.85129 -1.92342
6.37886 8.92124 -1.92477
6.11215 8.74966 -1.93341
5.97037 8.7391 -1.93721
5.89105 8.80904 -1.93857
5.74928 8.79848 -1.94235
5.60749 8.78792 -1.94615
5.52818 8.85786 -1.94751
5.3864 8.8473 -1.95131
5.24462 8.83674 -1.95509
5.10284 8.82618 -1.95888
4.89859 8.73511 -1.96509
4.81928 8.80505 -1.96646
4.6775 8.79449 -1.97025
4.53572 8.78393 -1.97404
10.261 5.73987 -1.87527
10.185 5.96269 -1.8718
10.0952 6.08456 -1.87074
10.0054 6.20642 -1.86969
9.90175 6.22734 -1.87105
9.81193 6.34921 -1.87
9.70827 6.37012 -1.87137
9.61846 6.49199 -1.8703
9.54249 6.71481 -1.86682
9.45267 6.83668 -1.86577
9.36285 6.95854 -1.86472
9.27304 7.08041 -1.86365
9.16938 7.10133 -1.86502
9.06572 7.12224 -1.86638
8.96206 7.14316 -1.86775
8.8584 7.16407 -1.86911
8.76858 7.28594 -1.86806
8.66492 7.30685 -1.86943
8.58895 7.52967 -1.86595
8.49914 7.65154 -1.86488
8.42316 7.87436 -1.8614
8.33335 7.99623 -1.86035
8.22969 8.01714 -1.86171
8.15372 8.23996 -1.85823
8.0639 8.36182 -1.85718
7.97409 8.4837 -1.85612
7.87043 8.50461 -1.85748
7.78061 8.62648 -1.85643
7.67695 8.64739 -1.8578
7.57329 8.66831 -1.85916
7.46963 8.68922 -1.86053
7.36597 8.71014 -1.86189
7.27615 8.832 -1.86084
7.17249 8.85292 -1.8622
7.06883 8.87383 -1.86357
6.96517 8.89475 -1.86493
6.86151 8.91566 -1.8663
6.7717 9.03753 -1.86525
6.66804 9.05845 -1.86661
6.56438 9.07936 -1.86798
6.46072 9.10028 -1.86934
6.35706 9.12119 -1.87071
6.25339 9.14211 -1.87207
6.14973 9.16302 -1.87344
6.04607 9.18394 -1.8748
5.94242 9.20485 -1.87617
5.83876 9.22577 -1.87753
5.73509 9.24668 -1.87891
5.61759 9.16665 -1.88269
5.51393 9.18756 -1.88406
5.41027 9.20848 -1.88542
5.30661 9.22939 -1.8868
5.20295 9.25031 -1.88815
5.09929 9.27122 -1.88953
4.99563 9.29214 -1.89088
4.89197 9.31305 -1.89226
4.78831 9.33397 -1.89362
4.6708 9.25393 -1.89742
4.56714 9.27485 -1.89877
4.46348 9.29576 -1.90015
4.35982 9.31667 -1.9015
4.25616 9.33759 -1.90288
4.13866 9.25755 -1.90666
4.035 9.27847 -1.90804
3.90365 9.09748 -1.91425
3.78615 9.01744 -1.91803
3.68249 9.03836 -1.9194
3.57883 9.05928 -1.92076
3.47517 9.08019 -1.92213
3.35766 9.00015 -1.92592
3.254 9.02106 -1.92729
3.1365 8.94103 -1.93108
3.01899 8.86099 -1.93486
2.90149 8.78096 -1.93866
2.78398 8.70092 -1.94244
2.68032 8.72183 -1.9438
2.56282 8.6418 -1.9476
2.45916 8.66271 -1.94896
2.34165 8.58268 -1.95276
2.23799 8.60359 -1.95412
2.13433 8.62451 -1.95549
2.01683 8.54447 -1.95927
1.89932 8.46443 -1.96306
1.79566 8.48535 -1.96443
1.67816 8.40531 -1.96822
1.56065 8.32527 -1.972
1.45699 8.34619 -1.97337
1.33949 8.26615 -1.97716
1.22199 8.18612 -1.98096
1.11833 8.20703 -1.98232
1.01467 8.22795 -1.98369
0.89716 8.14791 -1.98747
0.779656 8.06787 -1.99126
0.675996 8.08879 -1.99263
0.544647 7.9078 -1.99884
7.52619 8.35607 -1.91661
7.38747 8.4167 -1.91554
7.28724 8.38298 -1.91692
7.14853 8.44362 -1.91586
6.85586 8.88165 -1.90511
6.71715 8.94227 -1.90405
6.61692 8.90856 -1.90541
6.4782 8.96919 -1.90436
6.37797 8.93548 -1.90573
6.20077 9.09045 -1.90224
6.10054 9.05673 -1.90361
6.00031 9.02302 -1.90497
5.90008 8.9893 -1.90634
5.83834 8.86124 -1.91013
5.73811 8.82752 -1.9115
5.32999 9.54859 -1.89348
5.19127 9.60923 -1.89243
5.05255 9.66986 -1.89136
4.91384 9.73049 -1.8903
4.81361 9.69678 -1.89168
4.67489 9.75741 -1.89061
4.57466 9.72369 -1.89198
4.47443 9.68998 -1.89334
4.3742 9.65626 -1.89471
4.27397 9.62254 -1.89607
4.17374 9.58882 -1.89745
4.03503 9.64946 -1.89639
3.9348 9.61574 -1.89775
3.83457 9.58202 -1.89912
3.73434 9.5483 -1.90048
3.63411 9.51459 -1.90186
3.53388 9.48087 -1.90321
3.43365 9.44715 -1.90459
3.33342 9.41344 -1.90594
3.23319 9.37972 -1.90732
3.13296 9.346 -1.90868
3.03273 9.31229 -1.91005
2.9325 9.27857 -1.91141
2.83227 9.24485 -1.91278
2.73204 9.21113 -1.91415
2.63181 9.17742 -1.91551
2.53158 9.1437 -1.91689
2.43135 9.10999 -1.91824
2.33112 9.07627 -1.91962
2.23089 9.04255 -1.92097
2.13066 9.00883 -1.92235
2.03043 8.97512 -1.92371
1.9302 8.9414 -1.92508
1.82997 8.90768 -1.92644
1.72974 8.87396 -1.92781
1.62951 8.84025 -1.92917
1.52928 8.80653 -1.93054
1.42905 8.77282 -1.9319
1.32882 8.7391 -1.93327
1.22859 8.70538 -1.93463
1.12836 8.67166 -1.936
1.02813 8.63795 -1.93736
0.927898 8.60423 -1.93874
0.827669 8.57051 -1.94009
0.727438 8.53679 -1.94147
0.627208 8.50308 -1.94284
0.526978 8.46936 -1.9442
0.426749 8.43564 -1.94557
0.32652 8.40193 -1.94693
0.226289 8.36821 -1.9483
0.164544 8.24014 -1.95209
0.0643146 8.20643 -1.95345
-0.0359137 8.17271 -1.95482
-0.136145 8.13899 -1.95618
-0.236374 8.10528 -1.95755
-0.298116 7.97721 -1.96133
-0.398347 7.94349 -1.96271
-0.460091 7.81543 -1.96649
-0.560322 7.78171 -1.96786
-0.622064 7.65364 -1.97165
-0.722294 7.61993 -1.97302
-0.822525 7.58621 -1.97438
-0.922753 7.55249 -1.97575
-1.02298 7.51877 -1.97711
-1.08473 7.39071 -1.9809
-1.14647 7.26265 -1.9847
-1.16973 7.04023 -1.99091
-1.23147 6.91216 -1.99469
-1.29322 6.7841 -1.99849
0.962102 9.1298 -1.95151
0.811651 9.11296 -1.95044
0.741709 9.03364 -1.95181
0.671767 8.95433 -1.95317
0.521318 8.93748 -1.95212
0.451374 8.85816 -1.95349
0.300926 8.84131 -1.95242
0.150481 8.82446 -1.95137
3.29018e-05 8.80761 -1.95032
-0.0699105 8.7283 -1.95168
-0.22036 8.71145 -1.95062
-0.290303 8.63214 -1.952
-0.360243 8.55282 -1.95335
-0.430187 8.47351 -1.95473
-0.500131 8.39419 -1.95609
-0.65058 8.37734 -1.95503
-0.720523 8.29803 -1.95639
-0.790464 8.21871 -1.95776
-0.860409 8.1394 -1.95912
-1.01086 8.12255 -1.95807
-1.0808 8.04323 -1.95944
-1.15074 7.96392 -1.9608
-1.22068 7.8846 -1.96217
-1.29063 7.80529 -1.96353
-1.36057 7.72598 -1.9649
-1.43052 7.64666 -1.96626
-1.50046 7.56734 -1.96764
-1.65091 7.5505 -1.96658
-1.72085 7.47118 -1.96794
-1.7908 7.39187 -1.96931
-1.86074 7.31256 -1.97067
-1.93068 7.23324 -1.97205
-2.00062 7.15392 -1.9734
-2.07057 7.07461 -1.97478
-2.14051 6.9953 -1.97614
-2.21045 6.91598 -1.97751
-2.2804 6.83667 -1.97887
-2.35034 6.75735 -1.98024
-2.42028 6.67804 -1.9816
-2.49023 6.59872 -1.98297
-2.56017 6.51941 -1.98433
-2.63011 6.44009 -1.9857
-2.70006 6.36078 -1.98706
-2.77 6.28146 -1.98843
-2.83994 6.20215 -1.98979
-2.90988 6.12283 -1.99117
-2.97983 6.04352 -1.99254
-3.04977 5.9642 -1.9939
-3.11971 5.88489 -1.99527
-3.18966 5.80558 -1.99663
-3.2596 5.72626 -1.998
-3.32954 5.64694 -1.99936
-3.39949 5.56763 -2.00073
-3.46943 5.48832 -2.00209
-3.53937 5.409 -2.00346
-3.60932 5.32969 -2.00482
-3.67926 5.25037 -2.0062
-3.7492 5.17106 -2.00755
-3.81915 5.09174 -2.00893
-3.80858 4.94996 -2.01271
-3.87852 4.87065 -2.01408
-3.94847 4.79133 -2.01544
-4.01841 4.71202 -2.01682
-4.08836 4.6327 -2.01817
-4.1583 4.55339 -2.01955
-4.14773 4.41161 -2.02333
-4.21768 4.33229 -2.0247
-4.28762 4.25298 -2.02606
-4.27706 4.1112 -2.02985
-3.87852 4.87065 -1.01408
-3.94847 4.79133 -1.01544
-3.93791 4.64955 -1.01924
-4.00785 4.57024 -1.0206
-4.55102 3.8128 -1.01404
-4.57193 3.70914 -1.0154
-4.59285 3.60548 -1.01677
-4.61377 3.50182 -1.01813
-4.63468 3.39816 -1.0195
-4.6556 3.2945 -1.02086
-4.67651 3.19084 -1.02223
-4.69743 3.08718 -1.02359
-4.71834 2.98352 -1.02496
-4.73926 2.87986 -1.02632
-4.76017 2.7762 -1.02769
-4.68014 2.65869 -1.03148
-4.70105 2.55503 -1.03285
-4.72197 2.45137 -1.03421
-4.74288 2.34771 -1.03558
-4.86475 2.2579 -1.03452
-4.88566 2.15424 -1.03589
-4.90658 2.05058 -1.03725
-4.82654 1.93307 -1.04105
-4.84746 1.82941 -1.0424
-4.86837 1.72575 -1.04378
-4.88929 1.62209 -1.04514
-4.9102 1.51843 -1.04651
-4.93112 1.41477 -1.04787
-4.95203 1.31111 -1.04924
-4.97295 1.20745 -1.0506
-4.99386 1.10379 -1.05197
-5.01478 1.00013 -1.05333
-5.03569 0.896473 -1.0547
-5.05661 0.792811 -1.05606
-5.07752 0.689151 -1.05743
-5.09844 0.585491 -1.05881
-5.11935 0.48183 -1.06017
-5.14027 0.37817 -1.06154
-5.16119 0.274512 -1.0629
-5.1821 0.170852 -1.06427
-5.20301 0.0671921 -1.06563
-5.22393 -0.0364693 -1.067
-5.24485 -0.140129 -1.06836
-5.26576 -0.243791 -1.06973
-5.28667 -0.347449 -1.07109
-5.30759 -0.45111 -1.07246
-5.32851 -0.55477 -1.07382
-5.24847 -0.672275 -1.07762
-5.26938 -0.775937 -1.07898
-5.2903 -0.879597 -1.08035
-5.31121 -0.983257 -1.08171
-5.33213 -1.08692 -1.08308
-5.35304 -1.19058 -1.08444
-5.37395 -1.29424 -1.08582
-5.39487 -1.3979 -1.08717
-5.41579 -1.50156 -1.08855
-5.4367 -1.60522 -1.0899
-5.45762 -1.70888 -1.09128
-5.47853 -1.81254 -1.09264
-5.39849 -1.93004 -1.09644
-5.41941 -2.0337 -1.09779
-5.44033 -2.13736 -1.09917
-5.36029 -2.25487 -1.10295
-5.3812 -2.35853 -1.10432
-5.30117 -2.47603 -1.10811
-5.32208 -2.57969 -1.10947
-5.24205 -2.6972 -1.11327
-3.89261 5.53349 -1.99808
-3.91352 5.42983 -1.99945
-4.03539 5.34001 -1.99838
-4.0563 5.23635 -1.99976
-4.07722 5.13269 -2.00111
-4.09813 5.02903 -2.00249
-4.11905 4.92537 -2.00385
-4.24092 4.83556 -2.00279
-4.26184 4.7319 -2.00417
-4.28275 4.62824 -2.00552
-4.30366 4.52458 -2.0069
-4.32458 4.42092 -2.00826
-4.3455 4.31726 -2.00963
-4.36641 4.2136 -2.01099
-4.38732 4.10994 -2.01236
-4.40824 4.00628 -2.01372
-4.42916 3.90262 -2.01509
-4.45007 3.79896 -2.01645
-4.47098 3.6953 -2.01782
-4.4919 3.59164 -2.01918
-4.51282 3.48798 -2.02055
-4.53373 3.38432 -2.02191
-4.55465 3.28066 -2.02328
-4.57556 3.177 -2.02464
-4.59648 3.07333 -2.02602
-4.61739 2.96967 -2.02737
-4.63831 2.86602 -2.02875
-4.65922 2.76235 -2.03012
-4.68014 2.65869 -2.03148
-4.70105 2.55503 -2.03285
-4.72197 2.45137 -2.03421
-4.74288 2.34771 -2.03558
-4.7638 2.24405 -2.03694
-4.78471 2.14039 -2.03831
-4.80563 2.03673 -2.03967
-4.82654 1.93307 -2.04105
-4.84746 1.82941 -2.0424
-5.93495 -0.946839 -2.02029
-5.99558 -1.08555 -2.01924
-5.96187 -1.18579 -2.0206
-5.92815 -1.28601 -2.02197
-5.89443 -1.38624 -2.02333
-5.86072 -1.48647 -2.0247
-5.827 -1.5867 -2.02606
-5.79328 -1.68694 -2.02744
-5.75956 -1.78716 -2.02879
-5.72585 -1.88739 -2.03017
-5.69213 -1.98762 -2.03152
-5.75276 -2.12634 -2.03047
-5.71905 -2.22657 -2.03183
-5.68533 -2.3268 -2.0332
-5.65161 -2.42703 -2.03458
-5.6179 -2.52726 -2.03593
-5.67853 -2.66598 -2.03488
-5.64482 -2.76621 -2.03624
-5.6111 -2.86644 -2.03761
-5.57738 -2.96667 -2.03897
-5.54366 -3.0669 -2.04034
-5.50995 -3.16713 -2.0417
-5.90124 -1.04707 -1.02165
-5.96187 -1.18579 -1.0206
-5.92815 -1.28601 -1.02197
-5.89443 -1.38624 -1.02333
-5.86072 -1.48647 -1.0247
-5.827 -1.5867 -1.02606
-5.79328 -1.68694 -1.02744
-5.75956 -1.78716 -1.02879
-5.72585 -1.88739 -1.03017
-5.78648 -2.02611 -1.0291
-5.75276 -2.12634 -1.03047
-5.71905 -2.22657 -1.03183
-5.68533 -2.3268 -1.0332
-5.65161 -2.42703 -1.03458
-5.6179 -2.52726 -1.03593
-5.58418 -2.62749 -1.03731
-5.55046 -2.72772 -1.03867
-5.51674 -2.82795 -1.04004
-5.48303 -2.92818 -1.0414
-5.44931 -3.02841 -1.04277
-5.41559 -3.12864 -1.04413
-5.38187 -3.22887 -1.0455
-5.34816 -3.3291 -1.04686
-5.31444 -3.42933 -1.04823
-5.28073 -3.52956 -1.04959
-5.24701 -3.62979 -1.05096
-5.21329 -3.73002 -1.05232
-5.17957 -3.83025 -1.0537
-5.05151 -3.89199 -1.05748
-5.01779 -3.99222 -1.05885
-5.07843 -4.13094 -1.05779
-5.0447 -4.23117 -1.05916
-5.01099 -4.3314 -1.06052
-4.97727 -4.43163 -1.06189
-4.84921 -4.49337 -1.06567
-4.81549 -4.5936 -1.06705
-4.78177 -4.69383 -1.06841
-4.74806 -4.79406 -1.06978
-4.71434 -4.89429 -1.07114
-4.58627 -4.95604 -1.07494
-4.55255 -5.05626 -1.07629
-4.51884 -5.15649 -1.07767
-4.39077 -5.21824 -1.08145
-4.35706 -5.31847 -1.08282
-4.32334 -5.4187 -1.08418
-4.28962 -5.51893 -1.08556
-4.16156 -5.58067 -1.08934
-4.12784 -5.6809 -1.0907
-3.99977 -5.74265 -1.0945
-3.87171 -5.80439 -1.09828
-3.74364 -5.86613 -1.10207
-3.70992 -5.96636 -1.10344
-3.67621 -6.06659 -1.10481
-3.54814 -6.12834 -1.1086
-3.51442 -6.22857 -1.10995
-3.4807 -6.32879 -1.11133
-3.44699 -6.42903 -1.11269
-3.31893 -6.49077 -1.11649
-3.28521 -6.591 -1.11784
-3.25149 -6.69123 -1.11922
-3.21777 -6.79146 -1.12057
-3.08971 -6.8532 -1.12437
-3.66613 -6.97456 -1.01462
-3.58682 -7.0445 -1.01598
-3.5075 -7.11445 -1.01735
-3.49065 -7.2649 -1.0163
-3.41134 -7.33484 -1.01765
-3.33203 -7.40478 -1.01903
-3.25271 -7.47473 -1.02039
-3.1734 -7.54467 -1.02176
-3.15655 -7.69512 -1.02069
-3.07723 -7.76506 -1.02206
-2.99792 -7.835 -1.02342
-2.9186 -7.90495 -1.0248
-2.83929 -7.97489 -1.02615
-2.75997 -8.04483 -1.02753
-2.68066 -8.11478 -1.02888
-2.60134 -8.18472 -1.03026
-2.52203 -8.25466 -1.03163
-2.44271 -8.3246 -1.03299
-2.3634 -8.39455 -1.03436
-2.28409 -8.46449 -1.03572
-2.26724 -8.61494 -1.03467
-2.18792 -8.68488 -1.03603
-2.10861 -8.75482 -1.0374
-2.02929 -8.82477 -1.03876
-1.94998 -8.89471 -1.04013
-1.87066 -8.96465 -1.04149
-1.79135 -9.0346 -1.04286
-1.71203 -9.10454 -1.04422
-1.63272 -9.17448 -1.04559
-1.55341 -9.24443 -1.04697
-1.47409 -9.31437 -1.04832
-1.39477 -9.38431 -1.0497
-1.31546 -9.45426 -1.05106
-1.23615 -9.5242 -1.05243
-1.15683 -9.59414 -1.05379
-1.07752 -9.66409 -1.05516
-0.998201 -9.73403 -1.05652
-0.918888 -9.80397 -1.05789
-0.839572 -9.87392 -1.05925
-0.760256 -9.94386 -1.06062
-0.680941 -10.0138 -1.06198
-0.601628 -10.0837 -1.06335
-0.522315 -10.1537 -1.06471
-0.380533 -10.1431 -1.06851
-0.301217 -10.2131 -1.06987
-0.221902 -10.283 -1.07124
-0.142588 -10.353 -1.0726
-0.0632739 -10.4229 -1.07397
0.0160398 -10.4928 -1.07533
0.095356 -10.5628 -1.07671
0.174671 -10.6327 -1.07806
0.253985 -10.7027 -1.07944
0.333299 -10.7726 -1.0808
0.475081 -10.7621 -1.08459
0.554394 -10.832 -1.08595
0.633709 -10.9019 -1.08733
0.713023 -10.9719 -1.08868
0.854804 -10.9613 -1.09248
0.934122 -11.0313 -1.09384
1.0759 -11.0207 -1.09763
1.15521 -11.0906 -1.099
1.29699 -11.0801 -1.10278
1.37631 -11.15 -1.10416
1.51809 -11.1395 -1.10794
1.5974 -11.2094 -1.10931
1.86412 -11.0378 -1.11795
2.06836 -10.9468 -1.12416
2.21014 -10.9362 -1.12794
2.35192 -10.9256 -1.13173
2.43124 -10.9956 -1.1331
2.57302 -10.985 -1.13689
-5.43777 -3.92077 -1.99892
-5.42092 -4.07122 -1.99786
-5.3416 -4.14116 -1.99924
-5.32476 -4.29161 -1.99817
-5.24544 -4.36155 -1.99954
-5.22859 -4.512 -1.99849
-5.21174 -4.66245 -1.99742
-5.13243 -4.7324 -1.99879
-5.05311 -4.80234 -2.00015
-4.9738 -4.87228 -2.00153
-4.89448 -4.94222 -2.00288
-4.87763 -5.09267 -2.00183
-4.79832 -5.16261 -2.0032
-4.719 -5.23256 -2.00456
-4.63969 -5.3025 -2.00594
-4.62284 -5.45295 -2.00487
-4.54353 -5.52289 -2.00624
-4.46421 -5.59283 -2.0076
-4.50983 -5.82378 -2.00412
-4.43051 -5.89373 -2.00549
-4.41366 -6.04418 -2.00444
-4.33435 -6.11412 -2.0058
-4.25503 -6.18406 -2.00717
-4.23818 -6.33451 -2.0061
-4.15887 -6.40446 -2.00748
-4.07956 -6.4744 -2.00883
-4.00024 -6.54434 -2.01021
-3.98339 -6.69479 -2.00916
-3.90408 -6.76473 -2.01051
-3.82476 -6.83467 -2.01189
-3.74545 -6.90462 -2.01324
-3.7286 -7.05507 -2.01219
-3.64928 -7.12501 -2.01355
-3.56997 -7.19495 -2.01492
-3.49065 -7.2649 -2.0163
-3.41134 -7.33484 -2.01765
-3.33203 -7.40478 -2.01903
-3.31517 -7.55523 -2.01796
-3.23586 -7.62517 -2.01933
-3.15655 -7.69512 -2.02069
-3.07723 -7.76506 -2.02206
-2.99792 -7.835 -2.02342
-2.9186 -7.90495 -2.0248
-2.83929 -7.97489 -2.02615
-2.75997 -8.04483 -2.02753
-2.68066 -8.11478 -2.02888
-2.60134 -8.18472 -2.03026
-2.52203 -8.25466 -2.03163
-2.44271 -8.3246 -2.03299
-2.42587 -8.47505 -2.03194
-2.34655 -8.545 -2.03329
-2.26724 -8.61494 -2.03467
-2.18792 -8.68488 -2.03603
-2.10861 -8.75482 -2.0374
-2.02929 -8.82477 -2.03876
-1.94998 -8.89471 -2.04013
-1.87066 -8.96465 -2.04149
