ply
format ascii 1.0
comment VCGLIB generated
element vertex 1147
property float x
property float y
property float z
element face 0
property list uchar int vertex_indices
end_header
3.10139 -11.7484 -0.843079
3.33235 -11.794 -0.8396
3.5633 -11.8397 -0.836121
3.79425 -11.8853 -0.832642
4.0252 -11.9309 -0.829163
4.25615 -11.9765 -0.825684
4.48711 -12.0221 -0.822205
4.71806 -12.0677 -0.818726
4.86851 -12.0509 -0.817657
4.93845 -11.9716 -0.819031
5.0889 -11.9547 -0.817963
5.23935 -11.9379 -0.81691
5.30929 -11.8586 -0.818283
5.37923 -11.7792 -0.819641
5.52968 -11.7624 -0.818588
5.68013 -11.7456 -0.817535
5.83058 -11.7287 -0.816467
5.90052 -11.6494 -0.817841
6.05097 -11.6325 -0.816788
6.12091 -11.5532 -0.818146
6.27136 -11.5364 -0.817093
6.3413 -11.4571 -0.818451
6.49175 -11.4402 -0.817398
6.56169 -11.3609 -0.818771
6.71214 -11.344 -0.817703
6.86259 -11.3272 -0.81665
6.93253 -11.2479 -0.818024
7.08298 -11.231 -0.816956
7.15292 -11.1517 -0.818329
7.30337 -11.1349 -0.817276
7.37331 -11.0556 -0.818634
7.52376 -11.0387 -0.817581
7.5937 -10.9594 -0.818939
7.66365 -10.8801 -0.820312
7.8141 -10.8632 -0.81926
7.88404 -10.7839 -0.820618
7.95398 -10.7046 -0.821991
8.10443 -10.6877 -0.820923
8.17437 -10.6084 -0.822296
8.24432 -10.5291 -0.823654
8.39476 -10.5123 -0.822601
8.54521 -10.4954 -0.821548
8.69566 -10.4786 -0.820496
8.7656 -10.3993 -0.821854
8.83554 -10.3199 -0.823227
8.986 -10.3031 -0.822159
9.05593 -10.2238 -0.823532
9.20638 -10.2069 -0.822479
9.27633 -10.1276 -0.823837
9.34627 -10.0483 -0.825211
9.49672 -10.0315 -0.824142
9.56666 -9.95213 -0.825516
9.63661 -9.87282 -0.826874
9.70655 -9.79351 -0.828247
9.77649 -9.71419 -0.829605
9.84644 -9.63488 -0.830978
9.99688 -9.61803 -0.829926
10.0668 -9.53871 -0.831284
10.2173 -9.52186 -0.830231
10.2872 -9.44255 -0.831589
10.4377 -9.4257 -0.830536
10.5076 -9.34639 -0.831909
10.5776 -9.26707 -0.833267
10.6475 -9.18776 -0.834641
10.7174 -9.10844 -0.835999
10.7874 -9.02913 -0.837372
10.8573 -8.94981 -0.83873
10.9273 -8.8705 -0.840103
10.9972 -8.79118 -0.841461
11.1477 -8.77433 -0.840408
11.2176 -8.69502 -0.841782
11.2875 -8.6157 -0.84314
11.3575 -8.53639 -0.844513
11.4274 -8.45707 -0.845871
11.4974 -8.37776 -0.847244
11.4868 -8.23598 -0.851028
11.5568 -8.15667 -0.852402
11.6267 -8.07735 -0.85376
11.6966 -7.99804 -0.855133
11.7666 -7.91872 -0.856491
11.8365 -7.83941 -0.857864
11.826 -7.69762 -0.861649
11.8959 -7.61831 -0.863022
11.9659 -7.539 -0.86438
12.0358 -7.45968 -0.865753
12.1057 -7.38037 -0.867111
12.1757 -7.30105 -0.868484
12.1651 -7.15927 -0.872269
12.1546 -7.01749 -0.876053
12.2245 -6.93818 -0.877426
12.2944 -6.85886 -0.878784
12.2839 -6.71708 -0.882584
12.3538 -6.63777 -0.883942
12.3433 -6.49599 -0.887726
12.3327 -6.3542 -0.891525
12.3221 -6.21243 -0.895309
12.3116 -6.07065 -0.899094
12.3815 -5.99133 -0.900467
12.371 -5.84955 -0.904251
12.3604 -5.70777 -0.908051
12.3498 -5.56599 -0.911835
12.3393 -5.42421 -0.915619
12.2482 -5.21997 -0.921829
12.2376 -5.07818 -0.925629
12.2271 -4.9364 -0.929413
12.297 -4.85709 -0.930786
12.2865 -4.71531 -0.93457
12.2759 -4.57353 -0.938354
12.2653 -4.43175 -0.942154
12.2548 -4.28997 -0.945938
12.1637 -4.08572 -0.952148
12.0727 -3.88148 -0.958359
12.0621 -3.7397 -0.962143
12.0515 -3.59792 -0.965942
12.041 -3.45614 -0.969727
11.9499 -3.25189 -0.975937
11.9393 -3.11011 -0.979736
11.9288 -2.96833 -0.983521
11.8377 -2.76409 -0.989731
11.7466 -2.55984 -0.995941
11.6556 -2.35559 -1.00215
11.7678 -2.8434 0.0116425
11.5962 -2.57669 0.00300598
11.2636 -2.18505 -0.0104828
11.3336 -2.10573 -0.0118408
11.323 -1.96395 -0.0156403
11.3929 -1.88463 -0.0169983
11.3824 -1.74285 -0.0207977
11.4523 -1.66354 -0.0221558
11.4418 -1.52176 -0.0259399
11.1897 -1.19259 -0.0370026
11.1791 -1.0508 -0.040802
11.2491 -0.971488 -0.04216
11.2385 -0.82971 -0.0459442
10.7449 -0.313138 -0.0642853
10.7344 -0.171356 -0.0680695
10.7238 -0.0295749 -0.0718536
5.64897 -11.7399 -0.851303
5.77083 -11.6501 -0.85025
5.8927 -11.5603 -0.849197
6.62028 -11.5536 -0.833603
6.74215 -11.4637 -0.83255
6.96496 -11.3878 -0.829056
7.28873 -11.3256 -0.823166
7.4106 -11.2358 -0.822098
7.53247 -11.146 -0.821045
7.65433 -11.0562 -0.819992
7.67525 -10.9525 -0.82135
7.79712 -10.8627 -0.820297
7.91898 -10.7729 -0.819244
8.04085 -10.6831 -0.818176
8.26367 -10.6071 -0.814697
8.48649 -10.5311 -0.811218
8.60836 -10.4413 -0.810165
8.73022 -10.3515 -0.809113
8.85209 -10.2617 -0.808044
9.07491 -10.1857 -0.804565
9.39868 -10.1236 -0.79866
9.52055 -10.0338 -0.797607
9.64241 -9.94397 -0.796555
9.76428 -9.85416 -0.795502
9.7852 -9.7505 -0.79686
9.90706 -9.66068 -0.795807
10.0289 -9.57087 -0.794754
10.1508 -9.48105 -0.793686
10.2727 -9.39123 -0.792633
10.3945 -9.30142 -0.79158
10.5164 -9.2116 -0.790512
10.6383 -9.12178 -0.789459
10.7601 -9.03197 -0.788406
10.781 -8.92831 -0.789764
10.9029 -8.83849 -0.788712
10.9238 -8.73483 -0.790085
11.0457 -8.64502 -0.789017
11.1676 -8.5552 -0.787964
11.1885 -8.45154 -0.789337
11.4113 -8.37557 -0.785858
11.5332 -8.28575 -0.78479
11.655 -8.19594 -0.783737
11.6759 -8.09228 -0.78511
11.6969 -7.98862 -0.786469
11.7178 -7.88496 -0.787842
11.9406 -7.80899 -0.784363
12.0625 -7.71917 -0.783295
12.0834 -7.61551 -0.784668
12.2052 -7.52569 -0.7836
12.2262 -7.42203 -0.784973
12.2471 -7.31837 -0.786346
12.268 -7.21471 -0.787704
12.3899 -7.1249 -0.786652
12.4108 -7.02124 -0.78801
12.4317 -6.91758 -0.789383
12.4526 -6.81392 -0.790741
12.4735 -6.71026 -0.792114
12.4944 -6.6066 -0.793472
12.5154 -6.50294 -0.794846
12.5363 -6.39928 -0.796204
12.5572 -6.29562 -0.797577
12.5781 -6.19196 -0.798935
12.599 -6.0883 -0.800308
12.6199 -5.98464 -0.801682
12.6408 -5.88098 -0.80304
12.5608 -5.76347 -0.806824
12.5817 -5.65981 -0.808197
12.6026 -5.55615 -0.809555
12.6235 -5.45249 -0.810928
12.6445 -5.34883 -0.812286
12.6654 -5.24517 -0.81366
12.5853 -5.12767 -0.817444
12.6063 -5.02401 -0.818817
12.6272 -4.92035 -0.820175
12.5471 -4.80284 -0.823975
12.5681 -4.69918 -0.825333
12.589 -4.59552 -0.826706
12.5089 -4.47802 -0.83049
12.5298 -4.37436 -0.831863
12.5508 -4.2707 -0.833221
12.4707 -4.15319 -0.837006
12.4916 -4.04953 -0.838379
12.5126 -3.94587 -0.839737
12.4325 -3.82837 -0.843536
12.4534 -3.72471 -0.844894
12.4743 -3.62105 -0.846268
12.3943 -3.50354 -0.850052
12.4152 -3.39988 -0.851425
12.3352 -3.28238 -0.855209
12.3561 -3.17872 -0.856583
12.377 -3.07506 -0.857941
12.3979 -2.9714 -0.859314
12.3179 -2.85389 -0.863098
12.3388 -2.75023 -0.864456
12.3597 -2.64657 -0.865829
12.2797 -2.52907 -0.869614
12.3006 -2.42541 -0.870987
12.2206 -2.3079 -0.874771
12.2415 -2.20424 -0.876144
12.1614 -2.08674 -0.879929
12.0814 -1.96924 -0.883713
12.0014 -1.85173 -0.887512
12.0223 -1.74807 -0.88887
11.9423 -1.63057 -0.892654
11.9632 -1.52691 -0.894028
11.9841 -1.42324 -0.895401
11.904 -1.30574 -0.899185
11.925 -1.20208 -0.900543
11.8449 -1.08458 -0.904343
11.8658 -0.980916 -0.905701
11.8868 -0.877255 -0.907074
11.9077 -0.773595 -0.908432
11.9286 -0.669933 -0.909805
11.8485 -0.552432 -0.913589
11.8695 -0.448771 -0.914963
11.7894 -0.331265 -0.918747
11.7094 -0.213762 -0.922531
11.7303 -0.1101 -0.923904
11.7512 -0.0064404 -0.925262
11.7721 0.0972192 -0.926636
11.793 0.200879 -0.927994
11.713 0.318382 -0.931793
11.633 0.43589 -0.935577
11.6539 0.539549 -0.936951
11.5739 0.657054 -0.940735
11.4938 0.774556 -0.944519
11.4138 0.892061 -0.948318
11.4347 0.995723 -0.949677
11.3547 1.11323 -0.953461
11.2746 1.23073 -0.95726
11.1946 1.34824 -0.961044
11.2155 1.4519 -0.962418
11.1355 1.5694 -0.966202
11.0554 1.6869 -0.969986
10.9754 1.80441 -0.973785
10.8954 1.92191 -0.97757
10.8153 2.03942 -0.981354
10.8362 2.14308 -0.982727
10.7562 2.26058 -0.986511
10.7771 2.36424 -0.987885
10.6971 2.48175 -0.991669
10.718 2.58541 -0.993027
10.638 2.70291 -0.996826
10.5579 2.82042 -1.00061
10.4779 2.93792 -1.00439
10.4988 3.04158 -1.00577
10.4188 3.15908 -1.00955
10.4397 3.26275 -1.01093
10.4606 3.36641 -1.01228
12.5414 -7.52867 -0.801605
12.6021 -7.38995 -0.800552
12.6627 -7.25124 -0.7995
12.7233 -7.11252 -0.798447
12.784 -6.9738 -0.797379
12.8446 -6.83509 -0.796326
12.9052 -6.69637 -0.795273
12.9659 -6.55766 -0.794205
12.9321 -6.45743 -0.795578
12.9928 -6.31871 -0.794525
13.0534 -6.17999 -0.793457
13.0197 -6.07976 -0.79483
13.0803 -5.94105 -0.793777
13.141 -5.80233 -0.792709
13.1072 -5.7021 -0.794083
13.1679 -5.56338 -0.79303
13.1342 -5.46315 -0.794388
13.1004 -5.36292 -0.795761
13.0667 -5.26269 -0.797119
13.1274 -5.12398 -0.796066
13.0936 -5.02375 -0.797424
13.0599 -4.92352 -0.798798
13.0262 -4.82329 -0.800171
12.9925 -4.72306 -0.801529
13.0531 -4.58434 -0.800476
13.0194 -4.48411 -0.801834
12.9857 -4.38388 -0.803207
12.952 -4.28365 -0.804565
12.9183 -4.18342 -0.805939
12.9789 -4.04471 -0.804886
12.9452 -3.94448 -0.806244
12.9114 -3.84425 -0.807617
12.8777 -3.74402 -0.808975
12.844 -3.64379 -0.810349
12.8103 -3.54356 -0.811707
12.7766 -3.44333 -0.81308
12.8372 -3.30461 -0.812012
12.8035 -3.20438 -0.813385
12.7698 -3.10415 -0.814758
12.7361 -3.00392 -0.816116
12.7023 -2.90369 -0.81749
12.6686 -2.80346 -0.818848
12.6349 -2.70323 -0.820221
12.6012 -2.603 -0.821579
12.6618 -2.46429 -0.820526
12.6281 -2.36406 -0.821884
12.5944 -2.26383 -0.823257
12.5607 -2.1636 -0.824615
12.527 -2.06336 -0.825989
12.4932 -1.96314 -0.827347
12.5539 -1.82442 -0.826294
12.5202 -1.72419 -0.827667
12.4864 -1.62396 -0.829025
12.4527 -1.52373 -0.830399
12.419 -1.4235 -0.831757
12.3853 -1.32327 -0.83313
12.3516 -1.22304 -0.834488
12.3179 -1.12281 -0.835861
12.2841 -1.02258 -0.837219
12.2504 -0.922351 -0.838593
12.3111 -0.783634 -0.83754
12.2773 -0.683405 -0.838898
12.2436 -0.583175 -0.840271
12.2099 -0.482945 -0.841629
12.1762 -0.382715 -0.843002
12.2368 -0.243998 -0.841934
12.2031 -0.143768 -0.843307
12.1694 -0.0435379 -0.844666
12.1357 0.0566905 -0.846039
12.1019 0.156921 -0.847412
12.0682 0.257152 -0.84877
12.0345 0.357382 -0.850143
12.0008 0.457611 -0.851501
11.9671 0.557841 -0.852875
11.9334 0.658071 -0.854233
11.8996 0.758301 -0.855606
11.8659 0.858532 -0.856964
11.8322 0.95876 -0.858337
11.7985 1.05899 -0.859695
11.7648 1.15922 -0.861069
11.7311 1.25945 -0.862427
11.6973 1.35968 -0.8638
11.6636 1.45991 -0.865158
11.6299 1.56014 -0.866531
11.5962 1.66037 -0.867889
11.5625 1.7606 -0.869263
11.5288 1.86083 -0.870621
11.5894 1.99955 -0.869568
11.5557 2.09978 -0.870941
11.522 2.20001 -0.872299
11.4882 2.30024 -0.873672
11.4545 2.40047 -0.875031
11.4208 2.50069 -0.876404
11.3871 2.60093 -0.877762
11.3534 2.70116 -0.879135
11.3197 2.80139 -0.880493
11.2859 2.90162 -0.881866
11.2522 3.00184 -0.883224
11.2185 3.10208 -0.884598
11.1848 3.20231 -0.885956
11.1511 3.30254 -0.887329
11.1173 3.40277 -0.888687
11.0836 3.50299 -0.89006
11.0499 3.60322 -0.891418
11.0162 3.70345 -0.892792
10.9825 3.80369 -0.894165
10.9488 3.90391 -0.895523
10.915 4.00414 -0.896896
10.8813 4.10437 -0.898254
10.8476 4.2046 -0.899628
10.8139 4.30484 -0.900986
10.7802 4.40506 -0.902359
10.7465 4.50529 -0.903717
10.6184 4.56704 -0.907516
10.5847 4.66727 -0.908875
10.551 4.7675 -0.910248
10.4229 4.82924 -0.914032
10.3892 4.92947 -0.91539
10.2611 4.99122 -0.919189
10.2274 5.09145 -0.920547
10.1937 5.19168 -0.921921
10.16 5.2919 -0.923279
10.1262 5.39214 -0.924652
10.0925 5.49237 -0.92601
10.0588 5.5926 -0.927383
10.0251 5.69283 -0.928741
9.89703 5.75457 -0.932541
9.86331 5.8548 -0.933899
9.73525 5.91654 -0.937698
9.60718 5.97829 -0.941483
9.19607 5.92457 -0.952545
9.068 5.98631 -0.956329
9.03428 6.08654 -0.957687
9.00057 6.18677 -0.959061
8.96685 6.287 -0.960434
8.93313 6.38723 -0.961792
8.89942 6.48746 -0.963165
8.8657 6.58769 -0.964523
8.73763 6.64944 -0.968307
8.70392 6.74966 -0.969681
8.57585 6.81141 -0.973465
8.44779 6.87315 -0.977264
8.41407 6.97338 -0.978622
8.286 7.03513 -0.982407
8.15794 7.09687 -0.986206
8.12422 7.1971 -0.987564
7.99615 7.25884 -0.991364
7.86808 7.32059 -0.995148
7.74002 7.38233 -0.998932
7.7063 7.48256 -1.00031
7.57824 7.5443 -1.00409
7.45017 7.60605 -1.00787
7.41645 7.70628 -1.00925
7.28839 7.76802 -1.01303
8.12422 7.1971 0.0124359
7.99615 7.25884 0.00863647
7.86808 7.32059 0.00485229
7.74002 7.38233 0.00106812
7.61195 7.44407 -0.00273132
7.48389 7.50582 -0.0065155
7.45017 7.60605 -0.00787354
7.41645 7.70628 -0.00924683
7.28839 7.76802 -0.013031
7.16032 7.82976 -0.0168304
7.03226 7.89151 -0.0206146
6.90419 7.95325 -0.0243988
4.20654 8.53186 0.0149078
4.06476 8.52129 0.0111084
3.86051 8.43023 0.00489807
13.3216 -5.20093 -0.884705
13.3047 -5.05049 -0.883636
13.3503 -4.81953 -0.880157
13.271 -4.74959 -0.881531
13.2542 -4.59914 -0.880463
13.2373 -4.44869 -0.87941
13.158 -4.37875 -0.880783
13.1412 -4.2283 -0.879715
13.1243 -4.07785 -0.878662
13.1699 -3.8469 -0.875183
13.2156 -3.61595 -0.871704
13.1987 -3.4655 -0.870651
13.1819 -3.31505 -0.869583
13.1025 -3.24511 -0.870956
13.0232 -3.17516 -0.872314
13.0064 -3.02472 -0.871262
12.9895 -2.87427 -0.870209
12.9727 -2.72382 -0.869156
12.9558 -2.57338 -0.868088
13.0014 -2.34242 -0.864609
12.9846 -2.19197 -0.863556
12.9677 -2.04153 -0.862503
12.8884 -1.97158 -0.863861
12.8716 -1.82113 -0.862808
12.7923 -1.75119 -0.864166
12.7129 -1.68125 -0.86554
12.6336 -1.61131 -0.866913
12.6168 -1.46085 -0.865845
12.5375 -1.39091 -0.867218
12.4582 -1.32097 -0.868576
12.3164 -1.33153 -0.872375
12.2371 -1.26159 -0.873734
12.3451 -0.950132 -0.867828
12.3283 -0.799681 -0.866776
12.3114 -0.649236 -0.865723
12.2946 -0.498787 -0.864655
12.4027 -0.18733 -0.858765
12.4483 0.0436249 -0.85527
12.4314 0.194071 -0.854218
12.3521 0.264012 -0.855591
12.3353 0.41446 -0.854523
12.256 0.484404 -0.855896
12.2391 0.634856 -0.854843
12.1598 0.704798 -0.856201
12.1429 0.855241 -0.855148
12.0636 0.925185 -0.856506
12.0468 1.07564 -0.855453
11.9675 1.14558 -0.856827
11.9506 1.29603 -0.855759
11.8713 1.36597 -0.857132
11.792 1.43591 -0.85849
11.8376 1.66687 -0.855011
11.8208 1.81731 -0.853958
11.7414 1.88726 -0.855331
11.6621 1.9572 -0.856689
11.6453 2.10765 -0.855637
11.566 2.17759 -0.856995
11.4867 2.24753 -0.858368
11.4698 2.39798 -0.857315
11.453 2.54843 -0.856247
11.3736 2.61837 -0.85762
11.3568 2.76882 -0.856567
11.2775 2.83877 -0.857925
11.2606 2.98921 -0.856873
11.2438 3.13966 -0.85582
11.1645 3.2096 -0.857178
11.1476 3.36005 -0.856125
11.1308 3.5105 -0.855072
11.0514 3.58044 -0.85643
11.0346 3.73089 -0.855377
11.0177 3.88134 -0.854324
11.0009 4.03179 -0.853256
10.9841 4.18223 -0.852203
10.9672 4.33268 -0.851151
10.9503 4.48313 -0.850082
10.9335 4.63358 -0.84903
10.8542 4.70352 -0.850403
10.8373 4.85397 -0.849335
10.758 4.92391 -0.850708
10.7412 5.07436 -0.849655
10.6619 5.14431 -0.851013
10.645 5.29475 -0.84996
10.5657 5.36469 -0.851318
10.5488 5.51514 -0.850266
10.4695 5.58508 -0.851639
10.3902 5.65503 -0.852997
10.3109 5.72497 -0.85437
10.2941 5.87542 -0.853302
10.2147 5.94536 -0.854675
10.1354 6.01531 -0.856033
10.0561 6.08525 -0.857407
9.9768 6.15519 -0.858765
9.89748 6.22513 -0.860138
9.81816 6.29508 -0.861511
9.80132 6.44553 -0.860443
9.722 6.51547 -0.861816
9.64268 6.58541 -0.863174
9.56337 6.65535 -0.864548
9.48406 6.7253 -0.865906
9.46721 6.87575 -0.864853
9.38789 6.94569 -0.866226
9.30858 7.01563 -0.867584
9.22926 7.08558 -0.868958
9.14995 7.15552 -0.870316
9.07063 7.22546 -0.871689
8.99132 7.29541 -0.873047
8.912 7.36535 -0.87442
8.83269 7.43529 -0.875778
8.75337 7.50523 -0.877151
8.67406 7.57518 -0.87851
8.59475 7.64512 -0.879883
8.51543 7.71506 -0.881241
8.37365 7.7045 -0.88504
8.29434 7.77445 -0.886398
8.21502 7.84439 -0.887772
8.13571 7.91433 -0.88913
8.05639 7.98427 -0.890503
7.91461 7.97371 -0.894287
7.8353 8.04366 -0.89566
7.75598 8.1136 -0.897018
7.67666 8.18354 -0.898392
7.59735 8.25349 -0.89975
7.51804 8.32343 -0.901123
7.37625 8.31287 -0.904907
7.29694 8.38281 -0.906281
7.21762 8.45275 -0.907639
7.13831 8.52269 -0.909012
7.05899 8.59264 -0.91037
6.97968 8.66258 -0.911743
6.8379 8.65203 -0.915527
6.75859 8.72197 -0.916885
6.61681 8.7114 -0.920685
6.35009 8.53983 -0.929321
6.20831 8.52927 -0.933105
6.129 8.59922 -0.934479
5.98722 8.58865 -0.938263
5.90791 8.65859 -0.939621
5.76612 8.64804 -0.94342
5.62434 8.63747 -0.947205
5.48256 8.62691 -0.950989
5.34078 8.61635 -0.954788
5.199 8.60579 -0.958572
5.05722 8.59522 -0.962357
4.85298 8.50416 -0.968582
8.70645 7.60971 -0.862152
8.61664 7.73157 -0.861099
8.52682 7.85344 -0.860046
8.42316 7.87436 -0.861404
8.3195 7.89527 -0.862778
8.22969 8.01714 -0.86171
8.15372 8.23996 -0.858231
8.0639 8.36182 -0.857178
7.97409 8.4837 -0.856125
7.88427 8.60556 -0.855072
7.78061 8.62648 -0.85643
7.67695 8.64739 -0.857803
7.58713 8.76926 -0.856735
7.48347 8.79017 -0.858109
7.37981 8.81109 -0.859467
7.27615 8.832 -0.86084
7.17249 8.85292 -0.862198
7.06883 8.87383 -0.863571
6.96517 8.89475 -0.864929
6.86151 8.91566 -0.866302
6.75785 8.93658 -0.867676
6.66804 9.05845 -0.866608
6.56438 9.07936 -0.867981
6.46072 9.10028 -0.869339
6.35706 9.12119 -0.870712
6.25339 9.14211 -0.87207
6.14973 9.16302 -0.873444
6.04607 9.18394 -0.874802
5.94242 9.20485 -0.876175
5.83876 9.22577 -0.877533
5.73509 9.24668 -0.878906
5.63143 9.2676 -0.880264
5.52777 9.28851 -0.881638
5.41027 9.20848 -0.885422
5.30661 9.22939 -0.886795
5.20295 9.25031 -0.888153
5.09929 9.27122 -0.889526
4.99563 9.29214 -0.890884
4.89197 9.31305 -0.892258
4.78831 9.33397 -0.893616
4.68465 9.35488 -0.894989
4.58099 9.3758 -0.896347
4.47733 9.39671 -0.89772
4.35982 9.31667 -0.901505
4.25616 9.33759 -0.902878
4.1525 9.35851 -0.904236
4.04884 9.37942 -0.905609
3.93134 9.29939 -0.909393
3.82768 9.3203 -0.910767
3.71017 9.24026 -0.914551
3.59267 9.16022 -0.918335
3.48901 9.18114 -0.919708
3.37151 9.10111 -0.923492
3.26785 9.12202 -0.924866
3.15034 9.04198 -0.92865
3.03284 8.96194 -0.932434
2.91533 8.88191 -0.936234
2.78398 8.70092 -0.942444
2.68032 8.72183 -0.943802
2.56282 8.6418 -0.947601
2.45916 8.66271 -0.948959
2.34165 8.58268 -0.952759
2.23799 8.60359 -0.954117
2.12049 8.52355 -0.957901
2.01683 8.54447 -0.959274
1.88548 8.36348 -0.965485
1.75413 8.18249 -0.971695
1.65047 8.2034 -0.973068
1.53297 8.12337 -0.976852
1.42931 8.14429 -0.978226
1.32565 8.16521 -0.979584
1.22199 8.18612 -0.980957
1.10448 8.10608 -0.984741
1.00082 8.12699 -0.986099
1.09064 8.00513 0.0128326
0.973132 7.92509 0.00904846
0.855627 7.84505 0.00526428
0.738123 7.76502 0.00146484
0.620619 7.68498 -0.00231934
0.503114 7.60494 -0.00610352
0.371766 7.42395 -0.0123291
0.240416 7.24297 -0.0185394
0.109067 7.06198 -0.0247498
-1.34693 7.19521 0.0125732
-1.40868 7.06714 0.00878906
-1.47042 6.93908 0.00500488
6.06206 9.15109 -0.901184
5.96182 9.11737 -0.902557
5.86159 9.08365 -0.903915
5.53045 9.61603 -0.890747
5.39173 9.67666 -0.889694
5.2915 9.64294 -0.891052
5.15278 9.70358 -0.889999
5.05255 9.66986 -0.891357
4.95232 9.63615 -0.892731
4.81361 9.69678 -0.891678
4.71338 9.66306 -0.893036
4.61315 9.62934 -0.894409
4.47443 9.68998 -0.893341
4.3742 9.65626 -0.894714
4.27397 9.62254 -0.896072
4.17374 9.58882 -0.897446
4.07351 9.55511 -0.898819
3.97328 9.52139 -0.900177
3.83457 9.58202 -0.899124
3.73434 9.5483 -0.900482
3.63411 9.51459 -0.901855
3.53388 9.48087 -0.903214
3.43365 9.44715 -0.904587
3.33342 9.41344 -0.905945
3.23319 9.37972 -0.907318
3.13296 9.346 -0.908676
3.03273 9.31229 -0.910049
2.9325 9.27857 -0.911407
2.83227 9.24485 -0.912781
2.73204 9.21113 -0.914154
2.63181 9.17742 -0.915512
2.53158 9.1437 -0.916885
2.43135 9.10999 -0.918243
2.33112 9.07627 -0.919617
2.23089 9.04255 -0.920975
2.13066 9.00883 -0.922348
2.03043 8.97512 -0.923706
1.9302 8.9414 -0.925079
1.82997 8.90768 -0.926437
1.72974 8.87396 -0.927811
1.62951 8.84025 -0.929169
1.52928 8.80653 -0.930542
1.42905 8.77282 -0.9319
1.32882 8.7391 -0.933273
1.22859 8.70538 -0.934631
1.12836 8.67166 -0.936005
1.02813 8.63795 -0.937363
0.927898 8.60423 -0.938736
0.827669 8.57051 -0.940094
0.727438 8.53679 -0.941467
0.627208 8.50308 -0.942841
0.526978 8.46936 -0.944199
0.426749 8.43564 -0.945572
0.32652 8.40193 -0.94693
0.226289 8.36821 -0.948303
0.164544 8.24014 -0.952087
0.0643146 8.20643 -0.953445
-0.0359137 8.17271 -0.954819
-0.136145 8.13899 -0.956177
-0.236374 8.10528 -0.95755
-0.298116 7.97721 -0.961334
-0.398347 7.94349 -0.962708
-0.498576 7.90977 -0.964066
-0.560322 7.78171 -0.967865
-0.660552 7.74799 -0.969223
-0.760781 7.71428 -0.970596
-0.822525 7.58621 -0.97438
-0.922753 7.55249 -0.975754
-0.984498 7.42442 -0.979538
-1.04624 7.29636 -0.983322
-1.14647 7.26265 -0.984695
-1.2467 7.22893 -0.986053
-1.30844 7.10086 -0.989853
-1.40868 7.06714 -0.991211
-1.31647 6.56168 -1.0047
-0.199235 8.42789 -0.958206
-0.349683 8.41104 -0.957138
-0.419627 8.33173 -0.958511
-0.570075 8.31488 -0.957458
-0.640018 8.23556 -0.958817
-0.70996 8.15625 -0.96019
-0.860409 8.1394 -0.959122
-0.930351 8.06008 -0.960495
-1.0003 7.98077 -0.961868
-1.15074 7.96392 -0.9608
-1.22068 7.8846 -0.962173
-1.29063 7.80529 -0.963531
-1.36057 7.72598 -0.964905
-1.43052 7.64666 -0.966263
-1.50046 7.56734 -0.967636
-1.5704 7.48803 -0.968994
-1.64034 7.40872 -0.970367
-1.71029 7.3294 -0.971725
-1.78023 7.25009 -0.973099
-1.93068 7.23324 -0.972046
-2.00062 7.15392 -0.973404
-2.07057 7.07461 -0.974777
-2.14051 6.9953 -0.976135
-2.21045 6.91598 -0.977509
-2.2804 6.83667 -0.978867
-2.35034 6.75735 -0.98024
-2.42028 6.67804 -0.981598
-2.49023 6.59872 -0.982971
-2.56017 6.51941 -0.984329
-2.63011 6.44009 -0.985703
-2.78056 6.42324 -0.98465
-2.8505 6.34393 -0.986008
-2.92044 6.26461 -0.987381
-2.99039 6.1853 -0.988739
-3.06033 6.10598 -0.990112
-3.13027 6.02667 -0.99147
-3.20022 5.94735 -0.992844
-3.18966 5.80558 -0.996628
-3.2596 5.72626 -0.998001
-3.32954 5.64694 -0.999359
-3.39949 5.56763 -1.00073
-3.46943 5.48832 -1.00209
-3.53937 5.409 -1.00346
-3.60932 5.32969 -1.00482
-3.67926 5.25037 -1.0062
-3.7492 5.17106 -1.00755
-3.73864 5.02928 -1.01135
-3.80858 4.94996 -1.01271
-2.8505 6.34393 0.0139923
-2.92044 6.26461 0.012619
-2.99039 6.1853 0.011261
-3.06033 6.10598 0.0098877
-3.13027 6.02667 0.00852966
-3.20022 5.94735 0.00715637
-3.27016 5.86804 0.00579834
-3.3401 5.78872 0.00442505
-3.41005 5.70941 0.00306702
-3.47999 5.63009 0.00169373
-3.54993 5.55078 0.000335693
-3.61988 5.47147 -0.0010376
-3.68982 5.39215 -0.00239563
-3.75976 5.31283 -0.00376892
-3.8297 5.23352 -0.00512695
-3.89965 5.15421 -0.00650024
-3.96959 5.07489 -0.00787354
-4.03953 4.99558 -0.00923157
-4.02898 4.8538 -0.0130157
-4.09892 4.77448 -0.014389
-4.16886 4.69517 -0.0157471
-4.2388 4.61585 -0.0171204
-4.30875 4.53654 -0.0184784
-4.29818 4.39476 -0.0222778
-4.36813 4.31544 -0.0236359
-4.43807 4.23613 -0.0250092
-3.94448 3.71955 -0.043335
-4.01443 3.64024 -0.0447083
-4.00386 3.49846 -0.0484924
-4.07381 3.41915 -0.0498505
-4.06325 3.27737 -0.0536499
-4.05268 3.13559 -0.0574341
-4.04212 2.9938 -0.0612183
-4.11207 2.91449 -0.0625916
-4.1015 2.77271 -0.0663757
-4.17145 2.6934 -0.067749
-4.16088 2.55161 -0.0715332
-4.15032 2.40983 -0.0753174
-4.13976 2.26805 -0.0791168
-4.1292 2.12628 -0.082901
-4.19914 2.04696 -0.0842743
-4.18858 1.90518 -0.0880585
-4.17802 1.7634 -0.0918427
-4.16746 1.62162 -0.0956421
-3.99356 5.54733 0.00434875
-4.01447 5.44367 0.00297546
-4.13634 5.35386 0.00404358
-4.15726 5.2502 0.00267029
-4.17817 5.14654 0.00131226
-4.19909 5.04288 -6.10352e-05
-4.22 4.93922 -0.00143433
-4.34187 4.8494 -0.000366211
-4.36279 4.74574 -0.0017395
-4.3837 4.64208 -0.00309753
-4.40462 4.53842 -0.00447083
-4.42553 4.43476 -0.00582886
-4.44645 4.3311 -0.00720215
-4.46736 4.22744 -0.00856018
-4.48828 4.12378 -0.00993347
-4.50919 4.02012 -0.0112915
-4.53011 3.91646 -0.0126648
-4.55102 3.8128 -0.0140381
-4.57193 3.70914 -0.0153961
-4.59285 3.60548 -0.0167694
-4.61377 3.50182 -0.0181274
-4.73563 3.412 -0.0170746
-4.75655 3.30834 -0.0184326
-4.77746 3.20468 -0.0198059
-4.79837 3.10102 -0.0211639
-4.71834 2.98352 -0.0249634
-4.73926 2.87986 -0.0263214
-4.76017 2.7762 -0.0276947
-4.78109 2.67254 -0.0290527
-4.802 2.56888 -0.030426
-4.82292 2.46522 -0.0317841
-4.84383 2.36156 -0.0331573
-4.86475 2.2579 -0.0345154
-4.88566 2.15424 -0.0358887
-4.90658 2.05058 -0.0372467
-4.92749 1.94692 -0.03862
-4.94841 1.84326 -0.039978
-4.96932 1.7396 -0.0413513
-4.99024 1.63594 -0.0427094
-5.01115 1.53228 -0.0440826
-5.03207 1.42862 -0.0454559
-5.05299 1.32496 -0.046814
-4.97295 1.20745 -0.0505981
-4.99386 1.10379 -0.0519714
-5.01478 1.00013 -0.0533295
-5.03569 0.896473 -0.0547028
-5.05661 0.792811 -0.0560608
-5.07752 0.689151 -0.0574341
-5.09844 0.585491 -0.0588074
-5.11935 0.48183 -0.0601654
-5.14027 0.37817 -0.0615387
-5.16119 0.274512 -0.0628967
-5.1821 0.170852 -0.06427
-5.20301 0.0671921 -0.0656281
-5.22393 -0.0364693 -0.0670013
-5.24485 -0.140129 -0.0683594
-5.26576 -0.243791 -0.0697327
-5.28667 -0.347449 -0.0710907
-5.30759 -0.45111 -0.072464
-5.32851 -0.55477 -0.073822
-5.34942 -0.658429 -0.0751953
-5.37033 -0.762091 -0.0765533
-5.39125 -0.865751 -0.0779266
-5.41217 -0.96941 -0.0792847
-5.33213 -1.08692 -0.0830841
-5.35304 -1.19058 -0.0844421
-5.37395 -1.29424 -0.0858154
-5.39487 -1.3979 -0.0871735
-5.41579 -1.50156 -0.0885468
-5.4367 -1.60522 -0.0899048
-5.45762 -1.70888 -0.0912781
-5.47853 -1.81254 -0.0926361
-5.49945 -1.9162 -0.0940094
-5.41941 -2.0337 -0.0977936
-5.44033 -2.13736 -0.0991669
-5.36029 -2.25487 -0.102951
-5.3812 -2.35853 -0.104324
-4.13996 4.82171 -1.00522
-4.26184 4.7319 -1.00417
-4.28275 4.62824 -1.00552
-4.30366 4.52458 -1.0069
-4.42553 4.43476 -1.00583
-4.44645 4.3311 -1.0072
-4.46736 4.22744 -1.00856
-4.48828 4.12378 -1.00993
-4.50919 4.02012 -1.01129
-4.53011 3.91646 -1.01266
-5.46321 -0.754407 -0.0324097
-5.61819 -0.93161 -0.0289307
-5.77317 -1.10881 -0.0254517
-5.8338 -1.24753 -0.0243835
-5.80008 -1.34776 -0.0257568
-5.76637 -1.44799 -0.0271149
-5.827 -1.5867 -0.026062
-5.79328 -1.68694 -0.0274353
-5.75956 -1.78716 -0.0287933
-5.72585 -1.88739 -0.0301666
-5.78648 -2.02611 -0.0290985
-5.75276 -2.12634 -0.0304718
-5.71905 -2.22657 -0.0318298
-5.77968 -2.36529 -0.030777
-5.74596 -2.46552 -0.0321503
-5.71225 -2.56575 -0.0335083
-5.67853 -2.66598 -0.0348816
-5.64482 -2.76621 -0.0362396
-5.6111 -2.86644 -0.0376129
-5.57738 -2.96667 -0.0389709
-5.54366 -3.0669 -0.0403442
-5.50995 -3.16713 -0.0417023
-5.47623 -3.26736 -0.0430756
-5.44251 -3.36759 -0.0444336
-5.31444 -3.42933 -0.048233
-5.28073 -3.52956 -0.0495911
-5.24701 -3.62979 -0.0509644
-5.21329 -3.73002 -0.0523224
-5.17957 -3.83025 -0.0536957
-5.14586 -3.93048 -0.0550537
-5.11214 -4.03071 -0.056427
-5.07843 -4.13094 -0.057785
-5.0447 -4.23117 -0.0591583
-5.01099 -4.3314 -0.0605164
-4.97727 -4.43163 -0.0618896
-4.94356 -4.53186 -0.0632477
-4.81549 -4.5936 -0.0670471
-4.78177 -4.69383 -0.0684052
-4.74806 -4.79406 -0.0697784
-4.71434 -4.89429 -0.0711365
-4.58627 -4.95604 -0.0749359
-4.55255 -5.05626 -0.0762939
-4.42449 -5.11801 -0.0800934
-4.39077 -5.21824 -0.0814514
-4.35706 -5.31847 -0.0828247
-4.32334 -5.4187 -0.0841827
-4.28962 -5.51893 -0.085556
-4.2559 -5.61916 -0.0869141
-4.12784 -5.6809 -0.0906982
-4.09412 -5.78113 -0.0920715
-4.06041 -5.88136 -0.0934448
-4.02669 -5.98159 -0.0948029
-3.99297 -6.08182 -0.0961761
-3.86491 -6.14357 -0.0999603
-3.83119 -6.2438 -0.101318
-3.70312 -6.30554 -0.105118
-3.57506 -6.36728 -0.108902
-3.44699 -6.42903 -0.112686
-3.41327 -6.52925 -0.114059
-3.37955 -6.62949 -0.115417
-3.25149 -6.69123 -0.119217
-3.21777 -6.79146 -0.120575
-3.18406 -6.89169 -0.121948
-3.15034 -6.99192 -0.123306
-3.11662 -7.09215 -0.12468
-2.98856 -7.15389 -0.128464
-2.95484 -7.25412 -0.129837
-2.92112 -7.35435 -0.131195
-2.79306 -7.41609 -0.134995
-2.66499 -7.47784 -0.138779
-5.61818 -2.94814 -0.00390625
-5.53886 -3.01808 -0.00526428
-5.52201 -3.16853 -0.00421143
-5.4427 -3.23848 -0.00556946
-5.67571 -3.71094 0.00517273
-5.5964 -3.78089 0.0038147
-5.57955 -3.93133 0.00486755
-5.50023 -4.00128 0.00349426
-5.42092 -4.07122 0.00213623
-5.40407 -4.22167 0.00318909
-5.32476 -4.29161 0.00183105
-5.24544 -4.36155 0.000457764
-5.16613 -4.4315 -0.000900269
-5.08681 -4.50144 -0.00227356
-5.06996 -4.65189 -0.0012207
-5.05311 -4.80234 -0.000152588
-4.9738 -4.87228 -0.00152588
-4.89448 -4.94222 -0.00288391
-4.87763 -5.09267 -0.00183105
-4.79832 -5.16261 -0.00320435
-4.78147 -5.31306 -0.00213623
-4.70215 -5.383 -0.00350952
-4.68531 -5.53345 -0.00245667
-4.60599 -5.6034 -0.0038147
-4.52668 -5.67334 -0.00518799
-4.44736 -5.74328 -0.00654602
-4.43051 -5.89373 -0.00549316
-4.3512 -5.96367 -0.0068512
-4.27188 -6.03362 -0.00822449
-4.25503 -6.18406 -0.00717163
-4.17572 -6.254 -0.00852966
-4.15887 -6.40446 -0.00747681
-4.07956 -6.4744 -0.00883484
-4.06271 -6.62484 -0.00778198
-3.98339 -6.69479 -0.00915527
-3.90408 -6.76473 -0.0105133
-3.88723 -6.91518 -0.00946045
-3.80791 -6.98512 -0.0108185
-3.7286 -7.05507 -0.0121918
-3.64928 -7.12501 -0.0135498
-3.56997 -7.19495 -0.0149231
-3.49065 -7.2649 -0.0162964
-3.41134 -7.33484 -0.0176544
-3.33203 -7.40478 -0.0190277
-3.25271 -7.47473 -0.0203857
-3.1734 -7.54467 -0.021759
-3.15655 -7.69512 -0.0206909
-3.07723 -7.76506 -0.0220642
-2.99792 -7.835 -0.0234222
-2.9186 -7.90495 -0.0247955
-2.83929 -7.97489 -0.0261536
-2.82244 -8.12534 -0.0251007
-2.74312 -8.19528 -0.026474
-2.66381 -8.26522 -0.027832
-2.58449 -8.33517 -0.0292053
-2.50518 -8.40511 -0.0305634
-2.42587 -8.47505 -0.0319366
-2.34655 -8.545 -0.0332947
-2.26724 -8.61494 -0.034668
-2.18792 -8.68488 -0.036026
-2.10861 -8.75482 -0.0373993
-2.02929 -8.82477 -0.0387573
-2.01244 -8.97522 -0.0377045
-1.93313 -9.04516 -0.0390778
-1.85381 -9.1151 -0.0404358
-1.7745 -9.18505 -0.0418091
-1.69518 -9.25499 -0.0431671
-1.61587 -9.32493 -0.0445404
-1.53655 -9.39487 -0.0458984
-1.45724 -9.46482 -0.0472717
-1.37793 -9.53476 -0.0486298
-1.29861 -9.60471 -0.0500031
-1.21929 -9.67465 -0.0513611
-1.13998 -9.74459 -0.0527344
-1.06067 -9.81453 -0.0540924
-0.981352 -9.88448 -0.0554657
-0.902037 -9.95442 -0.0568237
-0.822721 -10.0244 -0.058197
-0.743406 -10.0943 -0.0595551
-0.601628 -10.0837 -0.0633545
-0.522315 -10.1537 -0.0647125
-0.442999 -10.2236 -0.0660858
-0.363683 -10.2936 -0.0674438
-0.284368 -10.3635 -0.0688171
-0.142588 -10.353 -0.0726013
-0.0632739 -10.4229 -0.0739746
0.0160398 -10.4928 -0.0753326
0.095356 -10.5628 -0.0767059
0.174671 -10.6327 -0.078064
0.253985 -10.7027 -0.0794373
0.333299 -10.7726 -0.0807953
0.475081 -10.7621 -0.0845947
0.554394 -10.832 -0.0859528
0.633709 -10.9019 -0.087326
0.713023 -10.9719 -0.0886841
0.854804 -10.9613 -0.0924835
0.934122 -11.0313 -0.0938416
1.0759 -11.0207 -0.0976257
1.21768 -11.0101 -0.101425
1.42192 -10.9191 -0.107635
-5.80558 -3.18966 -0.996628
-5.72626 -3.2596 -0.998001
-5.70941 -3.41005 -0.996933
-5.69256 -3.5605 -0.99588
-5.67571 -3.71094 -0.994827
-5.5964 -3.78089 -0.996185
-5.57955 -3.93133 -0.995132
-5.50023 -4.00128 -0.996506
-5.42092 -4.07122 -0.997864
-5.40407 -4.22167 -0.996811
-5.32476 -4.29161 -0.998169
-5.24544 -4.36155 -0.999542
-5.22859 -4.512 -0.998489
-5.14928 -4.58195 -0.999847
-5.06996 -4.65189 -1.00122
-4.99064 -4.72183 -1.00258
-4.9738 -4.87228 -1.00153
-4.89448 -4.94222 -1.00288
-4.87763 -5.09267 -1.00183
-4.79832 -5.16261 -1.0032
-4.719 -5.23256 -1.00456
-4.70215 -5.383 -1.00351
-4.62284 -5.45295 -1.00487
-4.54353 -5.52289 -1.00624
-4.52668 -5.67334 -1.00519
-4.44736 -5.74328 -1.00655
-4.43051 -5.89373 -1.00549
-4.3512 -5.96367 -1.00685
-4.27188 -6.03362 -1.00822
-4.19257 -6.10356 -1.00958
-4.17572 -6.254 -1.00853
-4.0964 -6.32395 -1.0099
-4.07956 -6.4744 -1.00883
-4.00024 -6.54434 -1.01021
-3.92092 -6.61429 -1.01157
-3.84161 -6.68423 -1.01294
-3.82476 -6.83467 -1.01189
-3.74545 -6.90462 -1.01324
