ply
format ascii 1.0
comment VCGLIB generated
element vertex 1085
property float x
property float y
property float z
element face 0
property list uchar int vertex_indices
end_header
2.78993 -11.6403 0.151016
3.10139 -11.7484 0.156921
3.57386 -11.9814 0.167664
3.80481 -12.0271 0.171143
3.95526 -12.0102 0.172211
4.10571 -11.9934 0.173264
4.25615 -11.9765 0.174316
4.48711 -12.0221 0.177795
4.71806 -12.0677 0.181274
4.86851 -12.0509 0.182343
5.01896 -12.034 0.183395
5.0889 -11.9547 0.182037
5.23935 -11.9379 0.18309
5.30929 -11.8586 0.181717
5.45974 -11.8417 0.182785
5.61019 -11.8249 0.183838
5.76063 -11.808 0.184891
5.91108 -11.7912 0.185944
5.98102 -11.7119 0.184586
6.13147 -11.695 0.185638
6.20142 -11.6157 0.18428
6.35186 -11.5988 0.185333
6.42181 -11.5195 0.18396
6.57225 -11.5027 0.185028
6.6422 -11.4234 0.183655
6.79264 -11.4065 0.184708
6.86259 -11.3272 0.18335
6.93253 -11.2479 0.181976
7.08298 -11.231 0.183044
7.15292 -11.1517 0.181671
7.30337 -11.1349 0.182724
7.45382 -11.118 0.183792
7.52376 -11.0387 0.182419
7.67421 -11.0219 0.183472
7.74415 -10.9425 0.182114
7.8141 -10.8632 0.18074
7.96454 -10.8464 0.181808
8.03448 -10.7671 0.180435
8.10443 -10.6877 0.179077
8.25488 -10.6709 0.18013
8.32482 -10.5916 0.178757
8.47527 -10.5747 0.179825
8.54521 -10.4954 0.178452
8.69566 -10.4786 0.179504
8.84611 -10.4617 0.180573
8.99655 -10.4449 0.181625
9.0665 -10.3656 0.180252
9.13644 -10.2862 0.178894
9.20638 -10.2069 0.177521
9.27633 -10.1276 0.176163
9.42678 -10.1108 0.177216
9.49672 -10.0315 0.175858
9.56666 -9.95213 0.174484
9.63661 -9.87282 0.173126
9.70655 -9.79351 0.171753
9.77649 -9.71419 0.170395
9.92694 -9.69734 0.171448
9.99688 -9.61803 0.170074
10.0668 -9.53871 0.168716
10.1368 -9.4594 0.167343
10.2067 -9.38008 0.165985
10.2767 -9.30077 0.164612
10.3466 -9.22145 0.163254
10.497 -9.2046 0.164307
10.567 -9.12529 0.162933
10.6369 -9.04597 0.161575
10.7069 -8.96666 0.160202
10.7768 -8.88734 0.158844
10.9273 -8.8705 0.159897
10.9972 -8.79118 0.158539
11.0672 -8.71187 0.157166
11.1371 -8.63255 0.155807
11.207 -8.55324 0.154434
11.277 -8.47392 0.153076
11.3469 -8.39461 0.151703
11.4169 -8.3153 0.15033
11.4868 -8.23598 0.148972
11.5568 -8.15667 0.147598
11.6267 -8.07735 0.14624
11.6966 -7.99804 0.144867
11.6861 -7.85625 0.141083
11.756 -7.77694 0.139725
11.826 -7.69762 0.138351
11.8959 -7.61831 0.136978
11.9659 -7.539 0.13562
11.9553 -7.39721 0.131836
12.0252 -7.3179 0.130463
12.0147 -7.17612 0.126678
12.0041 -7.03434 0.122879
12.0741 -6.95503 0.121521
12.144 -6.87571 0.120148
12.1334 -6.73393 0.116364
12.2034 -6.65462 0.115005
12.2733 -6.5753 0.113632
12.2628 -6.43352 0.109848
12.3327 -6.3542 0.108475
12.3221 -6.21243 0.104691
12.3116 -6.07065 0.100906
12.301 -5.92886 0.0971069
12.2905 -5.78709 0.0933228
12.2799 -5.6453 0.0895386
12.2693 -5.50352 0.0857391
12.2588 -5.36175 0.081955
12.2482 -5.21997 0.0781708
12.2376 -5.07818 0.0743713
12.2271 -4.9364 0.0705872
12.2165 -4.79463 0.066803
12.206 -4.65284 0.0630035
12.1954 -4.51106 0.0592194
12.1848 -4.36929 0.0554352
12.2548 -4.28997 0.0540619
12.0027 -3.96079 0.0429993
11.9116 -3.75655 0.0367889
11.9816 -3.67723 0.0354309
11.971 -3.53545 0.0316315
11.9605 -3.39367 0.0278473
11.9499 -3.25189 0.0240631
11.8588 -3.04765 0.0178528
11.6913 -3.85271 1.03711
11.6807 -3.71093 1.03331
11.6701 -3.56915 1.02953
11.7401 -3.48984 1.02815
11.7295 -3.34806 1.02437
11.719 -3.20628 1.02058
11.7084 -3.06449 1.01678
11.6173 -2.86025 1.01057
11.6068 -2.71847 1.00679
11.5157 -2.51422 1.00058
11.2636 -2.18505 0.989517
11.2531 -2.04327 0.985733
11.2425 -1.90148 0.981934
11.2319 -1.75971 0.978149
11.2214 -1.61792 0.974365
11.1303 -1.41368 0.968155
11.1197 -1.2719 0.964355
11.1897 -1.19259 0.962997
11.1791 -1.0508 0.959198
10.8463 0.650303 1.04367
10.8672 0.753964 1.04231
10.8881 0.857622 1.04094
10.909 0.961282 1.03957
10.829 1.07879 1.03578
10.8499 1.18245 1.03442
10.8708 1.28611 1.03305
10.8917 1.38977 1.03169
10.9126 1.49343 1.03032
10.8326 1.61093 1.02654
10.7526 1.72844 1.02274
10.7735 1.8321 1.02138
10.6935 1.9496 1.01759
10.7144 2.05326 1.01622
10.6343 2.17077 1.01244
10.6552 2.27443 1.01106
10.5752 2.39193 1.00728
10.4952 2.50943 1.00349
10.4151 2.62694 0.999695
10.436 2.7306 0.998337
10.457 2.83426 0.996964
10.3769 2.95176 0.993179
10.3978 3.05542 0.991806
10.4188 3.15908 0.990448
10.3387 3.27659 0.986649
10.3596 3.38025 0.985291
10.3806 3.48391 0.983917
10.3005 3.60142 0.980133
10.2205 3.71892 0.976349
10.1404 3.83642 0.972549
10.0604 3.95393 0.968765
9.98037 4.07143 0.964981
10.0013 4.17509 0.963608
9.92124 4.2926 0.959824
9.94216 4.39626 0.95845
9.86213 4.51376 0.954666
9.37828 4.68664 0.941193
9.29824 4.80415 0.937393
9.2182 4.92165 0.933609
9.13817 5.03916 0.929825
6.82218 -11.5813 0.171249
7.045 -11.5053 0.174728
7.16687 -11.4155 0.175781
7.28873 -11.3256 0.176834
7.51156 -11.2497 0.180328
7.63342 -11.1599 0.181381
7.75529 -11.07 0.182434
7.87716 -10.9802 0.183487
7.99902 -10.8904 0.184555
8.12089 -10.8006 0.185608
8.24275 -10.7108 0.186661
8.36462 -10.621 0.187714
8.48649 -10.5311 0.188782
8.60836 -10.4413 0.189835
8.73022 -10.3515 0.190887
8.95304 -10.2755 0.194366
9.07491 -10.1857 0.195435
9.19678 -10.0959 0.196487
9.31864 -10.0061 0.19754
9.54146 -9.93013 0.201019
9.66333 -9.84031 0.202087
9.7852 -9.7505 0.20314
9.90706 -9.66068 0.204193
10.2308 -9.59855 0.210098
10.3527 -9.50874 0.211151
10.4746 -9.41892 0.212219
10.5964 -9.32911 0.213272
10.7183 -9.23929 0.214325
10.7392 -9.13563 0.212967
10.7601 -9.03197 0.211594
10.882 -8.94215 0.212646
10.9029 -8.83849 0.211288
11.0248 -8.74868 0.212341
11.0457 -8.64502 0.210983
11.0666 -8.54136 0.20961
11.0875 -8.4377 0.208252
11.1084 -8.33404 0.206879
11.1294 -8.23038 0.205505
11.1503 -8.12672 0.204147
11.1712 -8.02306 0.202774
11.5959 -7.97477 0.211105
11.7178 -7.88496 0.212158
11.7387 -7.7813 0.2108
11.8606 -7.69148 0.211853
11.8815 -7.58782 0.210495
12.0033 -7.49801 0.211548
12.0243 -7.39435 0.210175
12.1461 -7.30453 0.211243
12.167 -7.20087 0.209869
12.188 -7.09721 0.208511
12.3098 -7.00739 0.209564
12.3307 -6.90373 0.208191
12.3516 -6.80007 0.206833
12.3726 -6.69641 0.20546
12.3935 -6.59275 0.204102
12.4144 -6.48909 0.202728
12.5363 -6.39928 0.203796
12.5572 -6.29562 0.202423
12.5781 -6.19196 0.201065
12.4981 -6.07445 0.197266
12.519 -5.97079 0.195908
12.5399 -5.86713 0.194534
12.5608 -5.76347 0.193176
12.5817 -5.65981 0.191803
12.6026 -5.55615 0.190445
12.5226 -5.43865 0.186646
12.5435 -5.33499 0.185287
12.4635 -5.21748 0.181488
12.4844 -5.11382 0.18013
12.5053 -5.01016 0.178757
12.4253 -4.89266 0.174973
12.4462 -4.789 0.173615
12.4671 -4.68534 0.172241
12.488 -4.58168 0.170868
12.5089 -4.47802 0.16951
12.5298 -4.37436 0.168137
12.4498 -4.25685 0.164352
12.4707 -4.15319 0.162994
12.4916 -4.04953 0.161621
12.4116 -3.93203 0.157837
12.4325 -3.82837 0.156464
12.3525 -3.71086 0.152679
12.3734 -3.6072 0.151306
12.3943 -3.50354 0.149948
12.4152 -3.39988 0.148575
12.3352 -3.28238 0.144791
12.3561 -3.17872 0.143417
12.2761 -3.06121 0.139633
12.297 -2.95755 0.138275
12.2169 -2.84005 0.134476
12.2379 -2.73639 0.133118
12.1578 -2.61889 0.129318
12.1787 -2.51522 0.12796
12.0987 -2.39772 0.124176
12.1196 -2.29406 0.122803
12.0396 -2.17655 0.119019
11.9595 -2.05905 0.115219
11.8795 -1.94155 0.111435
11.9004 -1.83789 0.110077
11.9213 -1.73423 0.108704
11.9423 -1.63057 0.107346
11.8622 -1.51306 0.103546
11.8831 -1.4094 0.102188
11.904 -1.30574 0.100815
11.925 -1.20208 0.0994568
11.8449 -1.08458 0.0956573
11.8658 -0.980916 0.0942993
11.8868 -0.877255 0.092926
11.8067 -0.759752 0.0891418
11.8276 -0.65609 0.0877686
11.7476 -0.538586 0.0839844
11.6676 -0.421081 0.0802002
11.6885 -0.317421 0.0788269
11.6084 -0.199918 0.0750427
11.6294 -0.0962561 0.0736694
11.6503 0.00740337 0.0723114
11.6712 0.111063 0.0709381
11.5911 0.228568 0.0671539
11.6121 0.332228 0.0657959
11.532 0.449733 0.0619965
11.452 0.567237 0.0582123
11.4729 0.670899 0.056839
11.3929 0.788401 0.0530548
11.4138 0.892061 0.0516815
11.2328 1.02341 0.0454712
12.6896 -7.01229 0.200195
12.8446 -6.83509 0.203674
12.8109 -6.73486 0.202301
12.8715 -6.59614 0.203369
12.9321 -6.45743 0.204422
12.9928 -6.31871 0.205475
13.0534 -6.17999 0.206543
13.114 -6.04128 0.207596
13.0803 -5.94105 0.206223
13.141 -5.80233 0.207291
13.1072 -5.7021 0.205917
13.1679 -5.56338 0.20697
13.1342 -5.46315 0.205612
13.1948 -5.32444 0.206665
13.1611 -5.22421 0.205307
13.1274 -5.12398 0.203934
13.0936 -5.02375 0.202576
13.0599 -4.92352 0.201202
13.0262 -4.82329 0.199829
13.0868 -4.68457 0.200897
13.0531 -4.58434 0.199524
13.0194 -4.48411 0.198166
12.9857 -4.38388 0.196793
12.952 -4.28365 0.195435
12.9183 -4.18342 0.194061
12.8845 -4.08319 0.192703
12.8508 -3.98296 0.19133
12.8171 -3.88273 0.189972
12.8777 -3.74402 0.191025
12.844 -3.64379 0.189651
12.8103 -3.54356 0.188293
12.7766 -3.44333 0.18692
12.8372 -3.30461 0.187988
12.8035 -3.20438 0.186615
12.7698 -3.10415 0.185242
12.7361 -3.00392 0.183884
12.7023 -2.90369 0.18251
12.6686 -2.80346 0.181152
12.6349 -2.70323 0.179779
12.6012 -2.603 0.178421
12.5675 -2.50277 0.177048
12.5338 -2.40254 0.17569
12.5944 -2.26383 0.176743
12.5607 -2.1636 0.175385
12.527 -2.06336 0.174011
12.4932 -1.96314 0.172653
12.4595 -1.86291 0.17128
12.4258 -1.76268 0.169922
12.4864 -1.62396 0.170975
12.4527 -1.52373 0.169601
12.419 -1.4235 0.168243
12.3853 -1.32327 0.16687
12.3516 -1.22304 0.165512
12.3179 -1.12281 0.164139
12.2841 -1.02258 0.162781
12.2504 -0.922351 0.161407
12.2167 -0.822121 0.160049
12.2773 -0.683405 0.161102
12.2436 -0.583175 0.159729
12.2099 -0.482945 0.158371
12.1762 -0.382715 0.156998
12.1425 -0.282485 0.15564
12.1087 -0.182254 0.154266
12.075 -0.0820248 0.152908
12.1357 0.0566905 0.153961
12.1019 0.156921 0.152588
12.0682 0.257152 0.15123
12.0345 0.357382 0.149857
12.0008 0.457611 0.148499
11.9671 0.557841 0.147125
11.9334 0.658071 0.145767
11.8996 0.758301 0.144394
11.8659 0.858532 0.143036
11.8322 0.95876 0.141663
11.7985 1.05899 0.140305
11.7648 1.15922 0.138931
11.7311 1.25945 0.137573
11.6973 1.35968 0.1362
11.6636 1.45991 0.134842
11.6299 1.56014 0.133469
11.5962 1.66037 0.132111
11.5625 1.7606 0.130737
11.5288 1.86083 0.129379
11.495 1.96106 0.128006
11.4613 2.06129 0.126648
11.522 2.20001 0.127701
11.4882 2.30024 0.126328
11.4545 2.40047 0.124969
11.4208 2.50069 0.123596
11.3871 2.60093 0.122238
11.3534 2.70116 0.120865
11.3197 2.80139 0.119507
11.2859 2.90162 0.118134
11.2522 3.00184 0.116776
11.2185 3.10208 0.115402
11.1848 3.20231 0.114044
11.1511 3.30254 0.112671
11.1173 3.40277 0.111313
11.0836 3.50299 0.10994
11.0499 3.60322 0.108582
11.0162 3.70345 0.107208
10.9825 3.80369 0.105835
10.9488 3.90391 0.104477
10.915 4.00414 0.103104
10.8813 4.10437 0.101746
10.8476 4.2046 0.100372
10.7196 4.26635 0.0965881
10.6858 4.36658 0.0952301
10.6521 4.46681 0.0938568
10.5241 4.52855 0.0900726
10.4903 4.62878 0.0886993
10.4566 4.72901 0.0873413
10.3285 4.79075 0.0835419
10.2948 4.89098 0.0821838
10.1668 4.95273 0.0783844
10.1331 5.05296 0.0770264
10.1937 5.19168 0.0780792
10.16 5.2919 0.0767212
10.1262 5.39214 0.0753479
9.99818 5.45388 0.0715637
9.96447 5.55411 0.0701904
9.93075 5.65434 0.0688324
9.80268 5.71608 0.065033
9.67462 5.77783 0.0612488
9.4522 5.80108 0.0550385
9.41848 5.90131 0.0536652
9.29042 5.96306 0.049881
9.2567 6.06329 0.0485229
9.22299 6.16352 0.0471497
9.09492 6.22526 0.0433655
9.0612 6.32549 0.0419922
8.93313 6.38723 0.038208
8.80507 6.44897 0.0344238
8.677 6.51072 0.0306244
8.64329 6.61095 0.0292664
8.60957 6.71118 0.0278931
8.4815 6.77292 0.0241089
8.44779 6.87315 0.0227356
8.41407 6.97338 0.0213776
8.286 7.03513 0.0175934
8.25228 7.13535 0.0162201
9.0612 6.32549 1.04199
8.93313 6.38723 1.03821
8.71072 6.41049 1.032
5.26147 8.68629 1.04385
5.11969 8.67573 1.04005
4.91544 8.58466 1.03384
12.4076 -0.869625 0.134598
12.3908 -0.71918 0.135651
12.3739 -0.568728 0.136703
12.3571 -0.418283 0.137756
12.3402 -0.267835 0.138824
12.3858 -0.0368819 0.142303
12.369 0.113569 0.143356
12.3521 0.264012 0.144409
12.3353 0.41446 0.145477
12.256 0.484404 0.144104
12.2391 0.634856 0.145157
12.1598 0.704798 0.143799
12.1429 0.855241 0.144852
12.0636 0.925185 0.143494
12.0468 1.07564 0.144547
11.9675 1.14558 0.143173
11.8882 1.21552 0.141815
11.8088 1.28546 0.140442
11.7295 1.35541 0.139084
11.6502 1.42535 0.137711
11.6334 1.5758 0.138763
11.5541 1.64574 0.137405
11.5372 1.79619 0.138458
11.5203 1.94664 0.139526
11.5035 2.09709 0.140579
11.4867 2.24753 0.141632
11.4073 2.31748 0.140274
11.3905 2.46792 0.141327
11.3112 2.53787 0.139954
11.2319 2.60781 0.138596
11.1525 2.67775 0.137222
11.0732 2.7477 0.135864
11.0564 2.89814 0.136917
11.1645 3.2096 0.142822
11.1476 3.36005 0.143875
11.1308 3.5105 0.144928
11.1139 3.66095 0.145996
11.0346 3.73089 0.144623
11.0177 3.88134 0.145676
11.0009 4.03179 0.146744
10.9841 4.18223 0.147797
10.9672 4.33268 0.148849
10.8879 4.40262 0.147491
10.871 4.55307 0.148544
10.7917 4.62302 0.147186
10.7749 4.77346 0.148239
10.6956 4.84341 0.146866
10.6162 4.91335 0.145508
10.5369 4.9833 0.144135
10.5201 5.13374 0.145203
10.4408 5.20368 0.143829
10.4239 5.35413 0.144882
10.4071 5.50458 0.14595
10.3278 5.57453 0.144577
10.3109 5.72497 0.14563
10.2316 5.79491 0.144272
10.1523 5.86485 0.142899
10.073 5.9348 0.141541
10.0561 6.08525 0.142593
9.9768 6.15519 0.141235
9.89748 6.22513 0.139862
9.81816 6.29508 0.138489
9.73885 6.36502 0.137131
9.65954 6.43497 0.135757
9.64268 6.58541 0.136826
9.56337 6.65535 0.135452
9.48406 6.7253 0.134094
9.40474 6.79524 0.132721
9.32543 6.86519 0.131363
9.24611 6.93513 0.12999
9.1668 7.00507 0.128632
9.08748 7.07501 0.127258
9.00817 7.14496 0.1259
8.92885 7.2149 0.124527
8.84954 7.28484 0.123154
8.77022 7.35479 0.121796
8.69091 7.42473 0.120422
8.61159 7.49467 0.119064
8.46981 7.48411 0.11528
8.3905 7.55405 0.113907
8.31118 7.624 0.112549
8.23187 7.69394 0.111176
8.15255 7.76389 0.109802
8.07324 7.83383 0.108444
7.99392 7.90377 0.107071
7.91461 7.97371 0.105713
7.77283 7.96315 0.101929
7.69351 8.0331 0.100555
7.6142 8.10303 0.0991974
7.53488 8.17298 0.0978241
7.45557 8.24292 0.0964508
7.37625 8.31287 0.0950928
7.29694 8.38281 0.0937195
7.21762 8.45275 0.0923615
7.13831 8.52269 0.0909882
6.99653 8.51214 0.087204
6.91722 8.58208 0.0858459
6.77544 8.57152 0.0820465
6.69612 8.64146 0.0806885
6.61681 8.7114 0.0793152
6.47502 8.70084 0.075531
6.39571 8.77079 0.0741577
6.25393 8.76023 0.0703735
5.92475 8.50815 0.0593109
5.78297 8.49759 0.0555267
5.70366 8.56753 0.0541534
5.56188 8.55697 0.0503693
5.48256 8.62691 0.0490112
5.34078 8.61635 0.0452118
5.199 8.60579 0.0414276
5.05722 8.59522 0.0376434
4.91544 8.58466 0.033844
4.64873 8.41309 0.0252075
4.50695 8.40253 0.0214233
4.42764 8.47247 0.0200653
4.34832 8.54242 0.018692
10.0675 5.88266 0.124405
9.97772 6.00452 0.125473
9.88791 6.12639 0.126526
9.79809 6.24826 0.127579
9.70827 6.37012 0.128632
9.61846 6.49199 0.1297
9.52864 6.61385 0.130753
9.43883 6.73572 0.131805
9.34901 6.85759 0.132874
9.25919 6.97946 0.133926
9.15553 7.00037 0.132553
9.06572 7.12224 0.133621
8.96206 7.14316 0.132248
8.87224 7.26502 0.133301
8.78243 7.38689 0.134369
8.69261 7.50876 0.135422
8.6028 7.63062 0.136475
8.51298 7.75249 0.137543
8.40932 7.77341 0.136169
8.30566 7.79432 0.134796
8.21584 7.91619 0.135864
8.11218 7.9371 0.134491
8.0639 8.36182 0.142822
7.97409 8.4837 0.143875
7.88427 8.60556 0.144928
7.78061 8.62648 0.14357
7.67695 8.64739 0.142197
7.57329 8.66831 0.140839
7.46963 8.68922 0.139465
7.36597 8.71014 0.138107
7.27615 8.832 0.13916
7.17249 8.85292 0.137802
7.06883 8.87383 0.136429
6.96517 8.89475 0.135071
6.86151 8.91566 0.133698
6.75785 8.93658 0.132324
6.65419 8.95749 0.130966
6.55053 8.97841 0.129593
6.44687 8.99933 0.128235
6.34321 9.02024 0.126862
6.23955 9.04115 0.125504
6.13589 9.06207 0.12413
6.03223 9.08299 0.122772
5.92857 9.1039 0.121399
5.82491 9.12481 0.120041
5.72125 9.14573 0.118668
5.61759 9.16665 0.11731
5.51393 9.18756 0.115936
5.41027 9.20848 0.114578
5.30661 9.22939 0.113205
5.20295 9.25031 0.111847
5.09929 9.27122 0.110474
4.98178 9.19119 0.106689
4.87812 9.2121 0.105316
4.77446 9.23301 0.103958
4.6708 9.25393 0.102585
4.56714 9.27485 0.101227
4.46348 9.29576 0.0998535
4.35982 9.31667 0.0984955
4.25616 9.33759 0.0971222
4.1525 9.35851 0.0957642
4.035 9.27847 0.0919647
3.93134 9.29939 0.0906067
3.82768 9.3203 0.0892334
3.71017 9.24026 0.0854492
3.60651 9.26118 0.0840759
3.48901 9.18114 0.0802917
3.37151 9.10111 0.0765076
3.254 9.02106 0.0727081
3.1365 8.94103 0.068924
3.03284 8.96194 0.0675659
2.91533 8.88191 0.0637665
2.79783 8.80187 0.0599823
2.68032 8.72183 0.0561981
2.57666 8.74275 0.0548248
2.45916 8.66271 0.0510406
2.3555 8.68363 0.0496674
2.23799 8.60359 0.0458832
2.13433 8.62451 0.0445099
2.01683 8.54447 0.0407257
1.91317 8.56539 0.0393677
1.78182 8.3844 0.0331421
1.66431 8.30436 0.0293579
1.56065 8.32527 0.0279999
1.44315 8.24524 0.0242004
1.32565 8.16521 0.0204163
1.22199 8.18612 0.019043
2.0928 8.32165 1.03725
1.98914 8.34257 1.03587
1.87164 8.26253 1.03209
1.76797 8.28344 1.03073
1.65047 8.2034 1.02693
1.54681 8.22432 1.02557
1.42931 8.14429 1.02177
1.32565 8.16521 1.02042
1.20814 8.08517 1.01663
1.09064 8.00513 1.01283
-0.136145 8.13899 1.04382
-0.236374 8.10528 1.04245
-0.336604 8.07156 1.04108
-0.436836 8.03784 1.03972
-0.537064 8.00412 1.03835
-0.598807 7.87605 1.03456
-0.699037 7.84234 1.0332
-0.799267 7.80862 1.03183
-0.899497 7.77491 1.03047
-0.96124 7.64684 1.02667
-1.06147 7.61312 1.02531
-1.1617 7.57941 1.02394
-1.26193 7.54569 1.02258
-1.36216 7.51198 1.02121
-1.46239 7.47826 1.01985
-1.52413 7.35019 1.01605
6.0388 8.92867 0.0926056
5.93857 8.89496 0.0912323
5.56893 9.52168 0.106827
5.43022 9.58231 0.107895
5.32999 9.54859 0.106522
5.19127 9.60923 0.107574
5.05255 9.66986 0.108643
4.95232 9.63615 0.107269
4.81361 9.69678 0.108322
4.71338 9.66306 0.106964
4.57466 9.72369 0.108017
4.47443 9.68998 0.106659
4.3742 9.65626 0.105286
4.27397 9.62254 0.103928
4.17374 9.58882 0.102554
4.07351 9.55511 0.101181
3.9348 9.61574 0.102249
3.83457 9.58202 0.100876
3.73434 9.5483 0.0995178
3.63411 9.51459 0.0981445
3.53388 9.48087 0.0967865
3.43365 9.44715 0.0954132
3.33342 9.41344 0.0940552
3.23319 9.37972 0.0926819
3.13296 9.346 0.0913239
3.03273 9.31229 0.0899506
2.9325 9.27857 0.0885925
2.83227 9.24485 0.0872192
2.73204 9.21113 0.0858459
2.63181 9.17742 0.0844879
2.53158 9.1437 0.0831146
2.43135 9.10999 0.0817566
2.33112 9.07627 0.0803833
2.23089 9.04255 0.0790253
2.13066 9.00883 0.077652
2.03043 8.97512 0.0762939
1.9302 8.9414 0.0749207
1.82997 8.90768 0.0735626
1.72974 8.87396 0.0721893
1.62951 8.84025 0.0708313
1.52928 8.80653 0.069458
1.42905 8.77282 0.0681
1.32882 8.7391 0.0667267
1.22859 8.70538 0.0653687
1.12836 8.67166 0.0639954
1.02813 8.63795 0.0626373
0.927898 8.60423 0.061264
0.827669 8.57051 0.059906
0.727438 8.53679 0.0585327
0.627208 8.50308 0.0571594
0.526978 8.46936 0.0558014
0.426749 8.43564 0.0544281
0.32652 8.40193 0.0530701
0.226289 8.36821 0.0516968
0.164544 8.24014 0.0479126
0.0643146 8.20643 0.0465546
-0.0359137 8.17271 0.0451813
-0.136145 8.13899 0.0438232
-0.236374 8.10528 0.04245
-0.336604 8.07156 0.0410767
-0.398347 7.94349 0.0372925
-0.498576 7.90977 0.0359344
-0.598807 7.87605 0.0345612
-0.699037 7.84234 0.0332031
-0.799267 7.80862 0.0318298
-0.861012 7.68056 0.0280457
-0.96124 7.64684 0.0266724
-1.06147 7.61312 0.0253143
-1.12321 7.48506 0.0215149
-1.22345 7.45134 0.0201569
-1.28519 7.32328 0.0163574
0.451374 8.85816 0.0465088
0.300926 8.84131 0.0475769
0.150481 8.82446 0.0486298
3.29018e-05 8.80761 0.0496826
-0.0699105 8.7283 0.0483246
-0.139855 8.64898 0.0469513
-0.290303 8.63214 0.0480042
-0.360243 8.55282 0.0466461
-0.510692 8.53597 0.047699
-0.580636 8.45666 0.0463409
-0.65058 8.37734 0.0449677
-0.801028 8.36049 0.0460205
-0.870969 8.28118 0.0446625
-0.940913 8.20186 0.0432892
-1.09136 8.18502 0.0443573
-1.16131 8.1057 0.042984
-1.23125 8.02638 0.041626
-1.30119 7.94707 0.0402527
-1.37114 7.86776 0.0388947
-1.44108 7.78844 0.0375214
-1.59152 7.77159 0.0385742
-1.66147 7.69228 0.0372162
-1.73141 7.61296 0.0358429
-1.80135 7.53365 0.0344849
-1.8713 7.45433 0.0331116
-1.94124 7.37502 0.0317535
-2.01118 7.2957 0.0303802
-2.08113 7.21639 0.0290222
-2.15107 7.13707 0.0276489
-2.22101 7.05776 0.0262909
-2.29096 6.97845 0.0249176
-2.3609 6.89913 0.0235596
-2.43084 6.81981 0.0221863
-2.50078 6.7405 0.020813
-2.57073 6.66119 0.019455
-2.64067 6.58187 0.0180817
-2.71061 6.50256 0.0167236
-2.78056 6.42324 0.0153503
1.12311 9.00487 1.04366
1.05316 8.92556 1.04228
0.983223 8.84624 1.04092
0.832776 8.8294 1.04198
0.68233 8.81254 1.04303
-1.16131 8.1057 1.04298
-1.23125 8.02638 1.04163
-1.30119 7.94707 1.04025
-1.37114 7.86776 1.03889
-1.44108 7.78844 1.03752
-1.51102 7.70913 1.03615
-1.66147 7.69228 1.03722
-1.73141 7.61296 1.03584
-1.80135 7.53365 1.03448
-1.8713 7.45433 1.03311
-1.94124 7.37502 1.03175
-2.01118 7.2957 1.03038
-2.08113 7.21639 1.02902
-2.15107 7.13707 1.02765
-2.22101 7.05776 1.02629
-2.29096 6.97845 1.02492
-2.3609 6.89913 1.02356
-2.43084 6.81981 1.02219
-2.50078 6.7405 1.02081
-2.57073 6.66119 1.01945
-2.64067 6.58187 1.01808
-2.71061 6.50256 1.01672
-2.78056 6.42324 1.01535
-2.8505 6.34393 1.01399
-2.92044 6.26461 1.01262
-2.99039 6.1853 1.01126
-3.06033 6.10598 1.00989
-3.13027 6.02667 1.00853
-3.20022 5.94735 1.00716
-3.27016 5.86804 1.0058
-3.3401 5.78872 1.00443
-3.41005 5.70941 1.00307
-3.47999 5.63009 1.00169
-3.54993 5.55078 1.00034
-3.61988 5.47147 0.998962
-3.68982 5.39215 0.997604
-3.75976 5.31283 0.996231
-3.8297 5.23352 0.994873
-3.89965 5.15421 0.9935
-3.96959 5.07489 0.992126
-4.03953 4.99558 0.990768
-4.02898 4.8538 0.986984
-4.09892 4.77448 0.985611
-4.16886 4.69517 0.984253
-4.2388 4.61585 0.98288
-4.30875 4.53654 0.981522
-4.29818 4.39476 0.977722
-4.36813 4.31544 0.976364
-4.35757 4.17366 0.972565
-4.0563 5.23635 1.00024
-4.07722 5.13269 0.998886
-4.09813 5.02903 0.997513
-4.11905 4.92537 0.996155
-4.13996 4.82171 0.994781
-4.26184 4.7319 0.995834
-4.3837 4.64208 0.996902
-4.50556 4.55226 0.997955
-4.52648 4.4486 0.996582
-4.5474 4.34494 0.995224
-4.66926 4.25513 0.996277
-4.69018 4.15147 0.994919
-4.71109 4.04781 0.993546
-4.73201 3.94415 0.992188
-4.75293 3.84049 0.990814
-4.77384 3.73683 0.989456
-4.79475 3.63317 0.988083
-4.81567 3.52951 0.986725
-4.83659 3.42585 0.985352
-4.8575 3.32219 0.983978
-4.87841 3.21853 0.98262
-4.79837 3.10102 0.978836
-4.81929 2.99736 0.977463
-4.84021 2.8937 0.976105
-4.86112 2.79004 0.974731
-4.78109 2.67254 0.970947
-4.802 2.56888 0.969574
-4.82292 2.46522 0.968216
-4.84383 2.36156 0.966843
-4.86475 2.2579 0.965485
-4.88566 2.15424 0.964111
-4.90658 2.05058 0.962753
-4.92749 1.94692 0.96138
-4.94841 1.84326 0.960022
-4.96932 1.7396 0.958649
-4.99024 1.63594 0.957291
-5.01115 1.53228 0.955917
-5.03207 1.42862 0.954544
-5.05299 1.32496 0.953186
-5.0739 1.2213 0.951813
-5.09481 1.11764 0.950455
-5.11573 1.01398 0.949081
-5.13665 0.910317 0.947723
-5.15756 0.806656 0.94635
-5.17847 0.702996 0.944992
-5.19939 0.599336 0.943619
-5.22031 0.495675 0.942261
-5.24122 0.392015 0.940887
-5.26214 0.288356 0.939529
-5.1821 0.170852 0.93573
-5.20301 0.0671921 0.934372
-5.22393 -0.0364693 0.932999
-5.24485 -0.140129 0.931641
-5.26576 -0.243791 0.930267
-5.28667 -0.347449 0.928909
-5.30759 -0.45111 0.927536
-5.32851 -0.55477 0.926178
-5.34942 -0.658429 0.924805
-5.37033 -0.762091 0.923447
-5.39125 -0.865751 0.922073
-5.41217 -0.96941 0.920715
-5.43308 -1.07307 0.919342
-5.454 -1.17673 0.917984
-5.47491 -1.28039 0.916611
-5.39487 -1.3979 0.912827
-5.41579 -1.50156 0.911453
-5.4367 -1.60522 0.910095
-5.45762 -1.70888 0.908722
-5.47853 -1.81254 0.907364
-5.49945 -1.9162 0.905991
-5.41941 -2.0337 0.902206
-5.44033 -2.13736 0.900833
-5.46124 -2.24102 0.899475
-5.3812 -2.35853 0.895676
-6.06982 -0.545918 0.985168
-6.13045 -0.684636 0.986237
-6.09674 -0.784866 0.984863
-6.15737 -0.923579 0.985916
-6.12365 -1.02381 0.984558
-6.08993 -1.12404 0.983185
-6.05622 -1.22427 0.981827
-6.0225 -1.3245 0.980453
-5.98878 -1.42473 0.979095
-5.95507 -1.52496 0.977722
-5.92135 -1.62519 0.976364
-5.88763 -1.72542 0.974991
-5.85391 -1.82565 0.973633
-5.8202 -1.92588 0.97226
-5.78648 -2.02611 0.970901
-5.75276 -2.12634 0.969528
-5.8134 -2.26506 0.970581
-5.77968 -2.36529 0.969223
-5.74596 -2.46552 0.96785
-5.71225 -2.56575 0.966492
-5.67853 -2.66598 0.965118
-5.64482 -2.76621 0.96376
-5.6111 -2.86644 0.962387
-5.57738 -2.96667 0.961029
-5.54366 -3.0669 0.959656
-5.50995 -3.16713 0.958298
-5.47623 -3.26736 0.956924
-5.34816 -3.3291 0.95314
-5.31444 -3.42933 0.951767
-5.28073 -3.52956 0.950409
-5.24701 -3.62979 0.949036
-5.21329 -3.73002 0.947678
-5.17957 -3.83025 0.946304
-5.14586 -3.93048 0.944946
-5.11214 -4.03071 0.943573
-5.07843 -4.13094 0.942215
-5.0447 -4.23117 0.940842
-5.01099 -4.3314 0.939484
-4.97727 -4.43163 0.93811
-4.94356 -4.53186 0.936752
-4.90984 -4.63209 0.935379
-4.87612 -4.73232 0.934006
-4.74806 -4.79406 0.930222
-4.71434 -4.89429 0.928864
-4.68062 -4.99452 0.92749
-4.55255 -5.05626 0.923706
-4.51884 -5.15649 0.922333
-4.48512 -5.25672 0.920975
-4.45141 -5.35696 0.919601
-4.41769 -5.45719 0.918243
-4.28962 -5.51893 0.914444
-4.2559 -5.61916 0.913086
-4.12784 -5.6809 0.909302
-4.09412 -5.78113 0.907928
-3.96606 -5.84288 0.904144
-3.93234 -5.9431 0.902771
-3.89862 -6.04334 0.901413
-3.77056 -6.10508 0.897614
-3.73684 -6.20531 0.896255
-3.70312 -6.30554 0.894882
-3.57506 -6.36728 0.891098
-3.54134 -6.46751 0.889725
-3.41327 -6.52925 0.885941
-3.37955 -6.62949 0.884583
-3.25149 -6.69123 0.880783
-3.12343 -6.75297 0.876999
-2.99536 -6.81472 0.873215
-2.86729 -6.87646 0.869415
-2.83357 -6.97669 0.868057
-2.79985 -7.07692 0.866684
-5.42092 -4.07122 1.00214
-5.40407 -4.22167 1.00319
-5.38722 -4.37212 1.00424
-5.30791 -4.44206 1.00288
-5.22859 -4.512 1.00151
-5.14928 -4.58195 1.00015
-5.13243 -4.7324 1.00121
-5.05311 -4.80234 0.999847
-4.9738 -4.87228 0.998474
-4.95695 -5.02273 0.999527
-4.87763 -5.09267 0.998169
-4.86078 -5.24312 0.999222
-4.78147 -5.31306 0.997864
-4.70215 -5.383 0.99649
-4.68531 -5.53345 0.997543
-4.60599 -5.6034 0.996185
-4.58914 -5.75384 0.997238
-4.50983 -5.82378 0.99588
-4.49298 -5.97423 0.996933
-4.41366 -6.04418 0.99556
-4.39681 -6.19463 0.996628
-4.3175 -6.26457 0.995255
-4.23818 -6.33451 0.993896
-4.15887 -6.40446 0.992523
-4.07956 -6.4744 0.991165
-4.00024 -6.54434 0.989792
-3.98339 -6.69479 0.990845
-3.90408 -6.76473 0.989487
-3.82476 -6.83467 0.988113
-3.74545 -6.90462 0.986755
-3.7286 -7.05507 0.987808
-3.64928 -7.12501 0.98645
-3.56997 -7.19495 0.985077
-3.49065 -7.2649 0.983704
-3.47381 -7.41534 0.984772
-3.39449 -7.48529 0.983398
-3.31517 -7.55523 0.98204
-3.23586 -7.62517 0.980667
-3.15655 -7.69512 0.979309
-3.1397 -7.84556 0.980362
-3.06039 -7.91551 0.978989
-2.98107 -7.98545 0.977631
-2.90175 -8.05539 0.976257
-2.82244 -8.12534 0.974899
-2.74312 -8.19528 0.973526
-2.66381 -8.26522 0.972168
-2.58449 -8.33517 0.970795
-2.50518 -8.40511 0.969437
-2.48833 -8.55556 0.97049
-2.40902 -8.6255 0.969131
-2.3297 -8.69544 0.967758
-2.25039 -8.76539 0.966385
-2.17107 -8.83533 0.965027
-2.09176 -8.90527 0.963654
-2.01244 -8.97522 0.962296
-1.93313 -9.04516 0.960922
-1.85381 -9.1151 0.959564
-1.7745 -9.18505 0.958191
-1.69518 -9.25499 0.956833
-1.61587 -9.32493 0.95546
-1.59902 -9.47538 0.956528
-1.5197 -9.54532 0.955154
-1.44039 -9.61527 0.953796
-1.36107 -9.68521 0.952423
-1.28176 -9.75515 0.95105
-1.20245 -9.8251 0.949692
-1.06067 -9.81453 0.945908
-0.981352 -9.88448 0.944534
-0.902037 -9.95442 0.943176
-0.822721 -10.0244 0.941803
-0.743406 -10.0943 0.940445
-0.664093 -10.1642 0.939072
-0.58478 -10.2342 0.937698
-0.505465 -10.3041 0.93634
-0.363683 -10.2936 0.932556
-0.284368 -10.3635 0.931183
-0.205054 -10.4335 0.929825
-0.125741 -10.5034 0.928452
-0.0464268 -10.5733 0.927094
0.0328898 -10.6433 0.92572
0.174671 -10.6327 0.921936
0.253985 -10.7027 0.920563
0.333299 -10.7726 0.919205
0.412617 -10.8426 0.917831
0.49193 -10.9125 0.916473
0.633709 -10.9019 0.912674
0.713023 -10.9719 0.911316
0.854804 -10.9613 0.907516
0.996585 -10.9508 0.903732
1.13837 -10.9402 0.899948
1.28015 -10.9296 0.896149
1.42192 -10.9191 0.892365
1.50124 -10.989 0.891006
1.64302 -10.9785 0.887207
1.72234 -11.0484 0.885849
1.98905 -10.8768 0.877213
2.13082 -10.8663 0.873413
2.21014 -10.9362 0.872055
2.35192 -10.9256 0.868271
2.4937 -10.9151 0.864471
