ply
format ascii 1.0
comment VCGLIB generated
element vertex 1086
property float x
property float y
property float z
element face 0
property list uchar int vertex_indices
end_header
2.48904 -11.674 1.1489
2.63948 -11.6572 1.14996
2.78993 -11.6403 1.15102
3.2624 -11.8734 1.16177
3.41285 -11.8565 1.16283
3.5633 -11.8397 1.16388
3.87475 -11.9477 1.16978
4.10571 -11.9934 1.17326
4.25615 -11.9765 1.17432
4.4066 -11.9597 1.17538
4.55705 -11.9428 1.17644
4.7075 -11.926 1.17749
4.85794 -11.9091 1.17854
5.00839 -11.8923 1.17961
5.15884 -11.8754 1.18066
5.30929 -11.8586 1.18172
5.45974 -11.8417 1.18279
5.61019 -11.8249 1.18384
5.68013 -11.7456 1.18246
5.83058 -11.7287 1.18353
5.98102 -11.7119 1.18459
6.05097 -11.6325 1.18321
6.20142 -11.6157 1.18428
6.35186 -11.5988 1.18533
6.42181 -11.5195 1.18396
6.57225 -11.5027 1.18503
6.7227 -11.4858 1.18608
6.87315 -11.469 1.18713
6.9431 -11.3897 1.18578
7.01304 -11.3104 1.1844
7.16348 -11.2935 1.18546
7.23343 -11.2142 1.1841
7.30337 -11.1349 1.18272
7.45382 -11.118 1.18379
7.52376 -11.0387 1.18242
7.5937 -10.9594 1.18106
7.74415 -10.9425 1.18211
7.8946 -10.9257 1.18317
7.96454 -10.8464 1.18181
8.11499 -10.8295 1.18286
8.18493 -10.7502 1.18149
8.33538 -10.7334 1.18256
8.48583 -10.7165 1.18361
8.63628 -10.6997 1.18466
8.78672 -10.6828 1.18573
8.85667 -10.6035 1.18436
8.92661 -10.5242 1.18298
8.99655 -10.4449 1.18163
9.0665 -10.3656 1.18025
9.13644 -10.2862 1.17889
9.28689 -10.2694 1.17995
9.35683 -10.1901 1.17859
9.42678 -10.1108 1.17722
9.49672 -10.0315 1.17586
9.56666 -9.95213 1.17448
9.71711 -9.93528 1.17554
9.78705 -9.85597 1.17418
9.857 -9.77666 1.17281
9.92694 -9.69734 1.17145
9.99688 -9.61803 1.17007
10.0668 -9.53871 1.16872
10.1368 -9.4594 1.16734
10.2067 -9.38008 1.16599
10.3572 -9.36323 1.16704
10.4271 -9.28392 1.16566
10.497 -9.2046 1.16431
10.567 -9.12529 1.16293
10.6369 -9.04597 1.16158
10.7069 -8.96666 1.1602
10.7768 -8.88734 1.15884
10.8468 -8.80803 1.15747
10.9167 -8.72872 1.15611
11.0672 -8.71187 1.15717
11.1371 -8.63255 1.15581
11.207 -8.55324 1.15443
11.277 -8.47392 1.15308
11.3469 -8.39461 1.1517
11.4169 -8.3153 1.15033
11.4868 -8.23598 1.14897
11.4762 -8.0942 1.14519
11.5462 -8.01488 1.14381
11.6161 -7.93557 1.14246
11.6861 -7.85625 1.14108
11.756 -7.77694 1.13972
11.826 -7.69762 1.13835
11.8959 -7.61831 1.13698
11.8853 -7.47653 1.13319
11.9553 -7.39721 1.13184
12.0252 -7.3179 1.13046
12.0147 -7.17612 1.12668
12.0041 -7.03434 1.12288
11.9935 -6.89256 1.11909
11.983 -6.75078 1.11531
11.9724 -6.609 1.11151
12.0424 -6.52969 1.11015
12.1123 -6.45037 1.10878
12.1018 -6.30859 1.105
12.1717 -6.22928 1.10364
12.1611 -6.08749 1.09984
12.2311 -6.00818 1.09848
12.2205 -5.8664 1.09468
12.2099 -5.72462 1.0909
12.1994 -5.58284 1.08711
12.1888 -5.44106 1.08331
12.1783 -5.29928 1.07953
12.1677 -5.1575 1.07574
12.2376 -5.07818 1.07437
12.2271 -4.9364 1.07059
12.0555 -4.66969 1.06195
12.045 -4.52792 1.05817
12.0344 -4.38614 1.05437
11.9433 -4.18189 1.04816
12.1571 -5.01572 2.07195
12.1466 -4.87394 2.06816
12.136 -4.73216 2.06438
12.045 -4.52792 2.05817
12.0344 -4.38614 2.05437
11.7823 -4.05696 2.04332
11.7718 -3.91518 2.03952
11.7612 -3.7734 2.03574
11.5091 -3.44422 2.02467
11.4986 -3.30244 2.02089
11.488 -3.16066 2.01711
11.4774 -3.01888 2.01331
11.4669 -2.8771 2.00952
11.3647 -0.379548 2.07292
11.3856 -0.275889 2.07156
11.4065 -0.172229 2.07019
11.4274 -0.068567 2.06883
11.4484 0.0350926 2.06746
11.3683 0.152596 2.06367
11.3892 0.256256 2.0623
11.3092 0.37376 2.05852
11.3301 0.477422 2.05716
11.2501 0.594926 2.05336
10.7662 0.767808 2.03989
10.8881 0.857622 2.04094
10.909 0.961282 2.03957
10.9299 1.06494 2.03821
10.9508 1.1686 2.03683
10.8708 1.28611 2.03305
10.8917 1.38977 2.03169
10.9126 1.49343 2.03032
10.8326 1.61093 2.02654
10.8535 1.71459 2.02516
10.7735 1.8321 2.02138
10.7944 1.93576 2.02
10.7144 2.05326 2.01622
10.7353 2.15692 2.01486
10.6552 2.27443 2.01106
10.6762 2.37809 2.0097
10.5961 2.49559 2.00591
10.5161 2.6131 2.00212
10.436 2.7306 1.99834
10.356 2.8481 1.99454
6.86401 -11.3739 1.16852
6.88493 -11.2703 1.16714
7.0068 -11.1805 1.16821
7.53247 -11.146 1.17896
7.65433 -11.0562 1.18001
7.87716 -10.9802 1.18349
7.99902 -10.8904 1.18456
8.12089 -10.8006 1.18561
8.24275 -10.7108 1.18666
8.36462 -10.621 1.18771
8.48649 -10.5311 1.18878
8.50741 -10.4275 1.18741
8.62927 -10.3377 1.18846
8.65019 -10.234 1.1871
8.87301 -10.158 1.19058
9.09583 -10.0821 1.19406
9.52055 -10.0338 1.20239
9.54146 -9.93013 1.20102
9.66333 -9.84031 1.20209
9.68425 -9.73665 1.20071
9.90706 -9.66068 1.20419
10.2308 -9.59855 1.2101
10.3527 -9.50874 1.21115
10.4746 -9.41892 1.21222
10.4955 -9.31526 1.21085
10.6174 -9.22545 1.2119
10.6383 -9.12178 1.21054
10.7601 -9.03197 1.21159
10.882 -8.94215 1.21265
11.0039 -8.85234 1.21371
11.0248 -8.74868 1.21234
11.1466 -8.65886 1.21339
11.1676 -8.5552 1.21204
11.2894 -8.46539 1.21309
11.3104 -8.36173 1.21173
11.4322 -8.27191 1.21278
11.5541 -8.18209 1.21384
11.575 -8.07843 1.21248
11.6969 -7.98862 1.21353
11.7178 -7.88496 1.21216
11.7387 -7.7813 1.2108
11.8606 -7.69148 1.21185
11.8815 -7.58782 1.21049
11.9024 -7.48416 1.20912
11.9233 -7.3805 1.20776
12.0452 -7.29068 1.20882
12.0661 -7.18703 1.20744
12.188 -7.09721 1.20851
12.2089 -6.99355 1.20714
12.3307 -6.90373 1.20819
12.3516 -6.80007 1.20683
12.3726 -6.69641 1.20546
12.3935 -6.59275 1.2041
12.4144 -6.48909 1.20273
12.4353 -6.38543 1.20137
12.4562 -6.28177 1.2
12.4771 -6.17811 1.19864
12.3971 -6.06061 1.19484
12.418 -5.95695 1.19348
12.4389 -5.85329 1.19211
12.4599 -5.74963 1.19075
12.4808 -5.64597 1.18938
12.5017 -5.54231 1.18802
12.4216 -5.4248 1.18422
12.4426 -5.32114 1.18286
12.4635 -5.21748 1.18149
12.4844 -5.11382 1.18013
12.4044 -4.99632 1.17635
12.4253 -4.89266 1.17497
12.4462 -4.789 1.17361
12.4671 -4.68534 1.17224
12.3871 -4.56783 1.16846
12.408 -4.46417 1.16708
12.4289 -4.36051 1.16573
12.4498 -4.25685 1.16435
12.3698 -4.13935 1.16057
12.3907 -4.03569 1.15919
12.3106 -3.91818 1.15541
12.3316 -3.81452 1.15404
12.2515 -3.69702 1.15025
12.2724 -3.59336 1.1489
12.1924 -3.47585 1.1451
12.2133 -3.37219 1.14374
12.2342 -3.26853 1.14236
12.1542 -3.15103 1.13858
12.1751 -3.04737 1.13721
12.0951 -2.92986 1.13342
12.116 -2.8262 1.13205
12.036 -2.7087 1.12827
11.9559 -2.5912 1.12448
11.9768 -2.48754 1.12311
11.8968 -2.37003 1.11932
11.9177 -2.26637 1.11795
11.9386 -2.16271 1.11659
11.9595 -2.05905 1.11522
11.8795 -1.94155 1.11143
11.9004 -1.83789 1.11008
11.9213 -1.73423 1.1087
11.8413 -1.61672 1.10492
11.7613 -1.49922 1.10112
11.6812 -1.38171 1.09734
11.7021 -1.27805 1.09598
11.7231 -1.17439 1.0946
11.643 -1.05689 1.09082
11.6639 -0.953227 1.08945
11.6848 -0.849566 1.08809
11.7058 -0.745906 1.08672
11.6257 -0.6284 1.08293
11.6466 -0.524742 1.08156
11.6676 -0.421081 1.0802
11.5875 -0.303578 1.0764
11.6084 -0.199918 1.07504
11.6294 -0.0962561 1.07367
11.5493 0.0212489 1.06989
11.4693 0.138752 1.0661
11.3892 0.256256 1.0623
11.3092 0.37376 1.05852
11.2292 0.491266 1.05473
11.6654 -8.11399 1.1769
11.726 -7.97528 1.17795
11.6923 -7.87505 1.17657
11.7529 -7.73633 1.17764
11.8136 -7.59762 1.1787
11.9685 -7.42041 1.18217
12.4066 -7.12775 1.19292
12.6559 -6.91206 1.19882
12.7165 -6.77335 1.19989
12.7772 -6.63463 1.20094
12.7434 -6.5344 1.19957
12.8041 -6.39568 1.20064
12.8647 -6.25697 1.20169
12.9253 -6.11825 1.20274
12.986 -5.97953 1.2038
12.9523 -5.8793 1.20244
13.0129 -5.74059 1.20349
12.9792 -5.64036 1.20213
13.0398 -5.50164 1.20319
13.0061 -5.40141 1.20181
12.9724 -5.30118 1.20045
12.9387 -5.20095 1.19908
12.9049 -5.10072 1.19772
12.8712 -5.00049 1.19635
12.9319 -4.86178 1.19742
12.8981 -4.76154 1.19604
12.8644 -4.66132 1.19469
12.8307 -4.56109 1.19331
12.797 -4.46086 1.19196
12.8576 -4.32214 1.19301
12.8239 -4.22191 1.19164
12.7902 -4.12168 1.19028
12.8508 -3.98296 1.19133
12.8171 -3.88273 1.18997
12.7834 -3.7825 1.1886
12.7497 -3.68227 1.18724
12.716 -3.58204 1.18587
12.7766 -3.44333 1.18692
12.7429 -3.3431 1.18556
12.7091 -3.24287 1.18419
12.6754 -3.14264 1.18283
12.6417 -3.04241 1.18146
12.608 -2.94218 1.1801
12.6686 -2.80346 1.18115
12.6349 -2.70323 1.17978
12.6012 -2.603 1.17842
12.5675 -2.50277 1.17705
12.5338 -2.40254 1.17569
12.5 -2.30231 1.17432
12.4663 -2.20208 1.17296
12.4326 -2.10185 1.17159
12.3989 -2.00162 1.17023
12.3652 -1.90139 1.16885
12.3315 -1.80116 1.1675
12.3921 -1.66245 1.16855
12.3584 -1.56222 1.16718
12.3247 -1.46199 1.16582
12.2909 -1.36176 1.16444
12.2572 -1.26153 1.16309
12.2235 -1.1613 1.16171
12.1898 -1.06107 1.16035
12.1561 -0.960837 1.15898
12.1224 -0.860606 1.15762
12.0886 -0.760376 1.15625
12.1493 -0.621661 1.15732
12.1156 -0.521432 1.15594
12.0818 -0.421201 1.15459
12.0481 -0.320971 1.15321
12.0144 -0.220741 1.15184
12.075 -0.0820248 1.15291
12.0413 0.0182037 1.15154
12.0076 0.118434 1.15018
11.9739 0.218665 1.1488
11.9402 0.318895 1.14745
11.9064 0.419124 1.14607
11.8727 0.519354 1.14471
11.839 0.619584 1.14334
11.8053 0.719814 1.14198
11.7716 0.820045 1.14061
11.7379 0.920273 1.13925
11.7985 1.05899 1.1403
11.7648 1.15922 1.13893
11.7311 1.25945 1.13757
11.6973 1.35968 1.1362
11.6636 1.45991 1.13484
11.6299 1.56014 1.13347
11.5962 1.66037 1.13211
11.5625 1.7606 1.13074
11.5288 1.86083 1.12938
11.495 1.96106 1.12801
11.4613 2.06129 1.12665
11.4276 2.16152 1.12527
11.3939 2.26175 1.1239
11.3602 2.36198 1.12254
11.3265 2.46221 1.12117
11.2927 2.56244 1.11981
11.259 2.66267 1.11844
11.2253 2.7629 1.11708
11.1916 2.86313 1.11571
11.2522 3.00184 1.11678
11.2185 3.10208 1.1154
11.1848 3.20231 1.11404
11.1511 3.30254 1.11267
11.1173 3.40277 1.11131
10.9893 3.46451 1.10751
10.9556 3.56474 1.10616
10.9219 3.66497 1.10478
10.8881 3.7652 1.10342
10.8544 3.86543 1.10205
10.8207 3.96566 1.10069
10.787 4.06589 1.09932
10.7533 4.16612 1.09796
10.7196 4.26635 1.09659
10.5915 4.32809 1.0928
10.5578 4.42832 1.09143
10.5241 4.52855 1.09007
10.396 4.5903 1.08627
10.3623 4.69053 1.08492
10.3285 4.79075 1.08354
10.2948 4.89098 1.08218
10.2611 4.99122 1.08081
10.2274 5.09145 1.07945
10.1937 5.19168 1.07808
10.0656 5.25342 1.0743
10.0319 5.35365 1.07292
9.90383 5.41539 1.06914
9.77577 5.47714 1.06535
9.74205 5.57737 1.06398
9.70833 5.6776 1.06262
9.67462 5.77783 1.06125
9.54655 5.83957 1.05746
9.51284 5.9398 1.05609
9.47912 6.04003 1.05473
9.35105 6.10177 1.05093
9.31733 6.202 1.04958
9.18927 6.26375 1.04579
10.0319 5.35365 2.07292
9.90383 5.41539 2.06914
9.87011 5.51562 2.06778
9.74205 5.57737 2.06398
9.70833 5.6776 2.06262
9.67462 5.77783 2.06125
9.54655 5.83957 2.05746
9.51284 5.9398 2.05609
9.47912 6.04003 2.05473
9.35105 6.10177 2.05093
9.31733 6.202 2.04958
9.18927 6.26375 2.04579
9.15555 6.36398 2.04442
9.02748 6.42572 2.04063
8.99376 6.52595 2.03926
8.8657 6.58769 2.03548
8.73763 6.64944 2.03169
8.70392 6.74966 2.03032
8.57585 6.81141 2.02654
8.44779 6.87315 2.02274
8.31972 6.9349 2.01895
8.19165 6.99664 2.01517
8.06359 7.05838 2.01137
8.02987 7.15861 2.01001
7.9018 7.22035 2.00623
7.77374 7.2821 2.00243
7.64567 7.34384 1.99864
7.5176 7.40558 1.99486
7.38954 7.46733 1.99106
7.16712 7.49059 1.98485
7.03906 7.55233 1.98106
6.91099 7.61408 1.97726
6.19147 8.67972 2.06795
5.98722 8.58865 2.06174
5.90791 8.65859 2.06038
5.76612 8.64804 2.05658
5.62434 8.63747 2.0528
5.48256 8.62691 2.04901
5.34078 8.61635 2.04521
5.13654 8.52528 2.039
4.99476 8.51472 2.03522
4.91544 8.58466 2.03384
4.77366 8.5741 2.03006
4.63188 8.56354 2.02628
4.4901 8.55298 2.02248
4.34832 8.54242 2.01869
4.26901 8.61236 2.01732
4.12722 8.6018 2.01353
3.98544 8.59124 2.00975
13.1917 -4.67964 1.11711
13.2373 -4.44869 1.12059
13.2205 -4.29824 1.12164
13.2036 -4.1478 1.1227
13.1868 -3.99735 1.12376
13.1075 -3.9274 1.12239
13.0906 -3.77696 1.12344
13.0113 -3.70702 1.12209
12.9945 -3.55657 1.12314
12.9151 -3.48662 1.12178
12.8983 -3.33617 1.12283
12.819 -3.26623 1.12146
12.8021 -3.11579 1.12253
12.7228 -3.04584 1.12115
12.706 -2.89539 1.12221
12.814 -2.58393 1.12811
12.7972 -2.43349 1.12918
12.7803 -2.28304 1.13023
12.701 -2.2131 1.12886
12.6842 -2.06265 1.12993
12.6049 -1.9927 1.12856
12.588 -1.84226 1.12961
12.5087 -1.77231 1.12825
12.4294 -1.70237 1.12688
12.3501 -1.63243 1.12552
12.3332 -1.48198 1.12657
12.2539 -1.41204 1.12521
12.2371 -1.26159 1.12627
12.4076 -0.869625 1.1346
12.3908 -0.71918 1.13565
12.3739 -0.568728 1.1367
12.3571 -0.418283 1.13776
12.3402 -0.267835 1.13882
12.3234 -0.117387 1.13988
12.3065 0.0330615 1.14093
12.2272 0.103003 1.13957
12.2103 0.253454 1.14062
12.131 0.323398 1.13925
12.1142 0.473843 1.14032
12.0973 0.62429 1.14137
12.0805 0.77474 1.14243
12.0636 0.925185 1.14349
11.9843 0.995129 1.14212
11.9675 1.14558 1.14317
11.8882 1.21552 1.14182
11.8713 1.36597 1.14287
11.792 1.43591 1.14151
11.7127 1.50586 1.14014
11.6958 1.65631 1.14119
11.6165 1.72625 1.13983
11.5997 1.87669 1.14088
11.5828 2.02714 1.14194
11.5035 2.09709 1.14058
11.4867 2.24753 1.14163
11.4698 2.39798 1.14268
11.453 2.54843 1.14375
11.4361 2.69888 1.14481
11.3568 2.76882 1.14343
11.3399 2.91927 1.1445
11.3231 3.06971 1.14555
11.2438 3.13966 1.14418
11.1645 3.2096 1.14282
11.1476 3.36005 1.14388
11.0683 3.43 1.14252
10.989 3.49994 1.14114
10.9721 3.65039 1.1422
10.9553 3.80083 1.14326
10.9384 3.95128 1.14432
10.9216 4.10173 1.14537
10.9047 4.25218 1.14644
10.8254 4.32212 1.14507
10.7461 4.39206 1.14369
10.7293 4.54251 1.14476
10.6499 4.61245 1.14339
10.5706 4.6824 1.14203
10.5538 4.83284 1.14308
10.5369 4.9833 1.14413
10.4576 5.05324 1.14278
10.4408 5.20368 1.14383
10.4239 5.35413 1.14488
10.4071 5.50458 1.14595
10.3278 5.57453 1.14458
10.3109 5.72497 1.14563
10.2316 5.79491 1.14427
10.1523 5.86485 1.1429
10.073 5.9348 1.14154
9.99364 6.00474 1.14017
9.91433 6.07469 1.13881
9.89748 6.22513 1.13986
9.81816 6.29508 1.13849
9.73885 6.36502 1.13713
9.65954 6.43497 1.13576
9.58022 6.50491 1.1344
9.50091 6.57485 1.13303
9.48406 6.7253 1.13409
9.40474 6.79524 1.13272
9.32543 6.86519 1.13136
9.24611 6.93513 1.12999
9.1668 7.00507 1.12863
9.08748 7.07501 1.12726
9.00817 7.14496 1.1259
8.92885 7.2149 1.12453
8.84954 7.28484 1.12315
8.77022 7.35479 1.1218
8.69091 7.42473 1.12042
8.61159 7.49467 1.11906
8.53228 7.56462 1.11769
8.45296 7.63456 1.11633
8.37365 7.7045 1.11496
8.29434 7.77445 1.1136
8.15255 7.76389 1.1098
8.07324 7.83383 1.10844
7.99392 7.90377 1.10707
7.91461 7.97371 1.10571
7.8353 8.04366 1.10434
7.75598 8.1136 1.10298
7.67666 8.18354 1.10161
7.59735 8.25349 1.10025
7.45557 8.24292 1.09645
7.37625 8.31287 1.09509
7.29694 8.38281 1.09372
7.21762 8.45275 1.09236
7.07585 8.44219 1.08858
6.99653 8.51214 1.0872
6.91722 8.58208 1.08585
6.8379 8.65203 1.08447
6.75859 8.72197 1.08311
6.67927 8.79191 1.08174
6.53749 8.78135 1.07796
6.45818 8.85129 1.07658
6.37886 8.92124 1.07523
6.29955 8.99118 1.07385
5.97037 8.7391 1.06279
5.82859 8.72854 1.05901
5.68681 8.71798 1.05522
5.54503 8.70742 1.05142
5.40325 8.69685 1.04764
10.3093 5.31515 1.11639
10.2195 5.43702 1.11745
10.1297 5.55888 1.1185
10.026 5.5798 1.11714
9.93619 5.70167 1.11819
9.84637 5.82353 1.11926
9.75656 5.9454 1.12032
9.66674 6.06727 1.12137
9.57693 6.18914 1.12242
9.47326 6.21005 1.12106
9.38345 6.33192 1.12212
9.27979 6.35283 1.12076
9.18997 6.4747 1.12181
9.16938 7.10133 1.13498
9.07956 7.22319 1.13603
8.9759 7.24411 1.13467
8.87224 7.26502 1.1333
8.78243 7.38689 1.13437
8.67877 7.4078 1.133
8.57511 7.42872 1.13164
8.48529 7.55059 1.13269
8.39547 7.67246 1.13374
8.30566 7.79432 1.1348
8.202 7.81523 1.13344
8.11218 7.9371 1.13449
8.02237 8.05897 1.13554
7.96024 8.38274 1.14145
7.85658 8.40366 1.14009
7.76676 8.52552 1.14114
7.66311 8.54644 1.13979
7.55944 8.56736 1.13841
7.46963 8.68922 1.13947
7.36597 8.71014 1.13811
7.26231 8.73105 1.13673
7.15865 8.75197 1.13538
7.05499 8.77288 1.134
6.95133 8.7938 1.13264
6.84767 8.81471 1.13127
6.74401 8.83563 1.12991
6.64035 8.85654 1.12854
6.55053 8.97841 1.12959
6.44687 8.99933 1.12823
6.34321 9.02024 1.12686
6.23955 9.04115 1.1255
6.13589 9.06207 1.12413
6.03223 9.08299 1.12277
5.92857 9.1039 1.1214
5.82491 9.12481 1.12004
5.72125 9.14573 1.11867
5.61759 9.16665 1.11731
5.50009 9.08661 1.11351
5.39643 9.10753 1.11215
5.29276 9.12844 1.11078
5.1891 9.14935 1.10942
5.08544 9.17027 1.10805
4.98178 9.19119 1.10669
4.87812 9.2121 1.10532
4.77446 9.23301 1.10396
4.6708 9.25393 1.10258
4.56714 9.27485 1.10123
4.46348 9.29576 1.09985
4.35982 9.31667 1.0985
4.24232 9.23664 1.0947
4.13866 9.25755 1.09334
4.035 9.27847 1.09196
3.91749 9.19843 1.08818
3.81383 9.21934 1.08681
3.71017 9.24026 1.08545
3.59267 9.16022 1.08167
3.48901 9.18114 1.08029
3.37151 9.10111 1.07651
3.26785 9.12202 1.07513
3.15034 9.04198 1.07135
3.03284 8.96194 1.06757
2.91533 8.88191 1.06377
2.79783 8.80187 1.05998
2.68032 8.72183 1.0562
2.56282 8.6418 1.0524
2.45916 8.66271 1.05104
2.34165 8.58268 1.04724
2.23799 8.60359 1.04588
2.79783 8.80187 2.05998
2.68032 8.72183 2.0562
2.57666 8.74275 2.05482
2.473 8.76367 2.05347
2.36934 8.78458 2.05209
2.26568 8.80549 2.05072
2.14818 8.72546 2.04694
2.04452 8.74637 2.04558
1.92701 8.66634 2.04178
1.80951 8.5863 2.03799
1.62278 8.0015 2.02209
1.51912 8.02242 2.02072
1.41546 8.04333 2.01936
1.3118 8.06425 2.01799
1.1943 7.98421 2.01421
1.09064 8.00513 2.01283
0.986977 8.02604 2.01147
0.869471 7.94601 2.00768
0.751966 7.86597 2.00389
0.648307 7.88689 2.00253
0.530803 7.80685 1.99873
0.413299 7.72681 1.99495
0.295793 7.64678 1.99117
0.122913 7.16293 1.97768
0.0192504 7.18384 1.97632
-0.0982529 7.10381 1.97252
-0.215758 7.02377 1.96873
-0.319417 7.04469 1.96736
-0.436921 6.96465 1.96358
1.72974 8.87396 2.07219
1.62951 8.84025 2.07083
1.52928 8.80653 2.06946
1.42905 8.77282 2.0681
1.32882 8.7391 2.06673
1.22859 8.70538 2.06537
1.12836 8.67166 2.064
1.02813 8.63795 2.06264
0.927898 8.60423 2.06126
0.827669 8.57051 2.05991
0.727438 8.53679 2.05853
0.627208 8.50308 2.05716
0.526978 8.46936 2.0558
0.426749 8.43564 2.05443
0.32652 8.40193 2.05307
0.226289 8.36821 2.0517
0.126059 8.33449 2.05034
0.0258286 8.30078 2.04897
-0.0359137 8.17271 2.04518
-0.136145 8.13899 2.04382
-0.236374 8.10528 2.04245
-0.336604 8.07156 2.04108
-0.436836 8.03784 2.03972
-0.537064 8.00412 2.03835
-0.637294 7.97041 2.03699
-0.699037 7.84234 2.0332
-0.799267 7.80862 2.03183
-0.899497 7.77491 2.03047
-0.999725 7.74119 2.0291
-1.06147 7.61312 2.02531
-1.1617 7.57941 2.02394
-1.26193 7.54569 2.02258
-1.36216 7.51198 2.02121
-1.4239 7.3839 2.01743
-1.52413 7.35019 2.01605
-1.58588 7.22212 2.01227
-1.64762 7.09406 2.00848
-1.70936 6.96599 2.00468
6.99458 8.82101 1.09384
6.89435 8.78729 1.09247
6.75564 8.84793 1.09352
6.61692 8.90856 1.09459
6.43972 9.06354 1.09807
6.301 9.12417 1.09912
6.20077 9.09045 1.09776
6.06206 9.15109 1.09882
5.84637 9.40042 1.10472
5.70765 9.46105 1.10577
5.56893 9.52168 1.10683
5.4687 9.48797 1.10547
5.36847 9.45425 1.1041
5.26824 9.42053 1.10274
5.12953 9.48116 1.10379
4.99081 9.54179 1.10484
4.85209 9.60243 1.10591
4.71338 9.66306 1.10696
4.61315 9.62934 1.10559
4.47443 9.68998 1.10666
4.3742 9.65626 1.10529
4.27397 9.62254 1.10393
4.17374 9.58882 1.10255
4.07351 9.55511 1.10118
3.97328 9.52139 1.09982
3.83457 9.58202 1.10088
3.73434 9.5483 1.09952
3.63411 9.51459 1.09814
3.53388 9.48087 1.09679
3.43365 9.44715 1.09541
3.33342 9.41344 1.09406
3.23319 9.37972 1.09268
3.13296 9.346 1.09132
3.03273 9.31229 1.08995
2.9325 9.27857 1.08859
2.83227 9.24485 1.08722
2.73204 9.21113 1.08585
2.63181 9.17742 1.08449
2.53158 9.1437 1.08311
2.43135 9.10999 1.08176
2.33112 9.07627 1.08038
2.23089 9.04255 1.07903
2.13066 9.00883 1.07765
2.03043 8.97512 1.07629
1.9302 8.9414 1.07492
1.82997 8.90768 1.07356
1.72974 8.87396 1.07219
1.62951 8.84025 1.07083
1.52928 8.80653 1.06946
1.42905 8.77282 1.0681
1.32882 8.7391 1.06673
1.22859 8.70538 1.06537
1.12836 8.67166 1.064
1.02813 8.63795 1.06264
0.927898 8.60423 1.06126
0.827669 8.57051 1.05991
0.727438 8.53679 1.05853
0.627208 8.50308 1.05716
0.526978 8.46936 1.0558
0.426749 8.43564 1.05443
0.32652 8.40193 1.05307
0.226289 8.36821 1.0517
0.126059 8.33449 1.05034
0.0643146 8.20643 1.04655
-0.0359137 8.17271 1.04518
0.451374 8.85816 1.04651
0.300926 8.84131 1.04758
0.150481 8.82446 1.04863
3.29018e-05 8.80761 1.04968
-0.150414 8.79076 1.05074
-0.22036 8.71145 1.04938
-0.290303 8.63214 1.048
-0.440748 8.61528 1.04907
-0.510692 8.53597 1.0477
-0.580636 8.45666 1.04634
-0.731084 8.43981 1.04739
-0.801028 8.36049 1.04602
-0.870969 8.28118 1.04466
-1.02142 8.26433 1.04572
-1.09136 8.18502 1.04436
-0.339123 8.26926 2.03906
-0.489571 8.25241 2.04012
-0.640018 8.23556 2.04118
-0.70996 8.15625 2.03981
-0.860409 8.1394 2.04088
-1.01086 8.12255 2.04193
-1.0808 8.04323 2.04056
-1.23125 8.02638 2.04163
-1.30119 7.94707 2.04025
-1.37114 7.86776 2.03889
-1.44108 7.78844 2.03752
-1.51102 7.70913 2.03615
-1.58096 7.62981 2.03479
-1.73141 7.61296 2.03584
-1.80135 7.53365 2.03448
-1.8713 7.45433 2.03311
-1.94124 7.37502 2.03175
-2.01118 7.2957 2.03038
-2.08113 7.21639 2.02902
-2.15107 7.13707 2.02765
-2.22101 7.05776 2.02629
-2.29096 6.97845 2.02492
-2.3609 6.89913 2.02356
-2.43084 6.81981 2.02219
-2.50078 6.7405 2.02081
-2.57073 6.66119 2.01945
-2.64067 6.58187 2.01808
-2.71061 6.50256 2.01672
-2.78056 6.42324 2.01535
-2.93101 6.40639 2.01642
-3.00095 6.32708 2.01505
-3.07089 6.24776 2.01369
-3.14084 6.16845 2.01231
-3.21078 6.08914 2.01096
-3.28072 6.00982 2.00958
-3.27016 5.86804 2.0058
-3.3401 5.78872 2.00443
-3.41005 5.70941 2.00307
-3.47999 5.63009 2.00169
-3.54993 5.55078 2.00034
-3.61988 5.47147 1.99896
-3.68982 5.39215 1.9976
-3.75976 5.31283 1.99623
-3.8297 5.23352 1.99487
-3.89965 5.15421 1.9935
-3.96959 5.07489 1.99213
-4.03953 4.99558 1.99077
-4.10948 4.91626 1.9894
-4.17942 4.83695 1.98804
-4.16886 4.69517 1.98425
-4.2388 4.61585 1.98288
-4.30875 4.53654 1.98152
-4.37869 4.45722 1.98015
-4.36813 4.31544 1.97636
-4.43807 4.23613 1.97499
-4.42751 4.09435 1.97121
-4.35916 5.27789 2.00752
-4.38007 5.17423 2.00615
-4.40099 5.07057 2.00479
-4.52286 4.98075 2.00584
-4.54377 4.87709 2.00447
-4.56469 4.77343 2.00311
-4.5856 4.66977 2.00174
-4.60652 4.56611 2.00038
-4.62743 4.46245 1.99901
-4.64835 4.35879 1.99765
-4.66926 4.25513 1.99628
-4.79113 4.16531 1.99733
-4.81205 4.06165 1.99597
-4.83296 3.95799 1.9946
-4.85388 3.85433 1.99324
-4.87479 3.75067 1.99187
-4.89571 3.64701 1.99051
-4.91662 3.54335 1.98914
-4.93754 3.43969 1.98778
-4.95845 3.33603 1.9864
-4.97937 3.23237 1.98505
-5.00028 3.12871 1.98367
-5.0212 3.02505 1.98232
-4.94116 2.90755 1.97852
-4.96208 2.80389 1.97716
-4.98299 2.70023 1.97578
-5.00391 2.59657 1.97443
-5.02482 2.49291 1.97305
-4.94478 2.3754 1.96927
-4.9657 2.27174 1.9679
-4.98661 2.16808 1.96654
-5.00753 2.06442 1.96516
-5.02844 1.96076 1.96381
-5.04936 1.8571 1.96243
-5.07027 1.75344 1.96107
-5.09119 1.64978 1.9597
-5.1121 1.54612 1.95834
-5.13302 1.44246 1.95697
-5.15393 1.3388 1.95561
-5.17485 1.23514 1.95424
-5.19576 1.13148 1.95288
-5.11573 1.01398 1.94908
-5.13665 0.910317 1.94772
-5.15756 0.806656 1.94635
-5.17847 0.702996 1.94499
-5.19939 0.599336 1.94362
-5.22031 0.495675 1.94226
-5.24122 0.392015 1.94089
-5.26214 0.288356 1.93953
-5.28305 0.184695 1.93816
-5.30397 0.0810357 1.9368
-5.32488 -0.0226257 1.93542
-5.3458 -0.126285 1.93407
-5.36671 -0.229947 1.93269
-5.38763 -0.333605 1.93134
-5.40854 -0.437266 1.92996
-5.42946 -0.540926 1.9286
-5.45037 -0.644586 1.92723
-5.37033 -0.762091 1.92345
-5.39125 -0.865751 1.92207
-5.41217 -0.96941 1.92072
-5.43308 -1.07307 1.91934
-5.454 -1.17673 1.91798
-5.47491 -1.28039 1.91661
-5.49583 -1.38405 1.91525
-5.51674 -1.48771 1.91388
-5.53766 -1.59137 1.91251
-5.55857 -1.69503 1.91115
-5.47853 -1.81254 1.90736
-5.49945 -1.9162 1.90599
-5.52036 -2.01986 1.90463
-5.44033 -2.13736 1.90083
-5.46124 -2.24102 1.89948
-6.0429 -0.306971 1.98549
-6.10354 -0.44569 1.98654
-6.06982 -0.545918 1.98517
-6.13045 -0.684636 1.98624
-6.09674 -0.784866 1.98486
-6.15737 -0.923579 1.98592
-6.12365 -1.02381 1.98456
-6.08993 -1.12404 1.98318
-6.05622 -1.22427 1.98183
-6.0225 -1.3245 1.98045
-5.98878 -1.42473 1.9791
-5.95507 -1.52496 1.97772
-5.92135 -1.62519 1.97636
-5.88763 -1.72542 1.97499
-5.85391 -1.82565 1.97363
-5.8202 -1.92588 1.97226
-5.78648 -2.02611 1.9709
-5.84712 -2.16483 1.97195
-5.8134 -2.26506 1.97058
-5.77968 -2.36529 1.96922
-5.74596 -2.46552 1.96785
-5.71225 -2.56575 1.96649
-5.67853 -2.66598 1.96512
-5.64482 -2.76621 1.96376
-5.6111 -2.86644 1.96239
-5.57738 -2.96667 1.96103
-5.54366 -3.0669 1.95966
-5.50995 -3.16713 1.9583
-5.47623 -3.26736 1.95692
-5.34816 -3.3291 1.95314
-5.31444 -3.42933 1.95177
-5.28073 -3.52956 1.95041
-5.24701 -3.62979 1.94904
-5.21329 -3.73002 1.94768
-5.17957 -3.83025 1.9463
-5.14586 -3.93048 1.94495
-5.11214 -4.03071 1.94357
-5.07843 -4.13094 1.94221
-5.0447 -4.23117 1.94084
-5.01099 -4.3314 1.93948
-4.97727 -4.43163 1.93811
-4.94356 -4.53186 1.93675
-4.90984 -4.63209 1.93538
-4.78177 -4.69383 1.93159
-4.74806 -4.79406 1.93022
-4.71434 -4.89429 1.92886
-4.68062 -4.99452 1.92749
-4.6469 -5.09475 1.92613
-4.61319 -5.19498 1.92476
-4.48512 -5.25672 1.92097
-4.45141 -5.35696 1.9196
-4.41769 -5.45719 1.91824
-4.38397 -5.55741 1.91687
-4.2559 -5.61916 1.91309
-4.22219 -5.71939 1.91171
-4.18847 -5.81962 1.91035
-4.06041 -5.88136 1.90656
-4.02669 -5.98159 1.9052
-3.99297 -6.08182 1.90382
-3.86491 -6.14357 1.90004
-3.83119 -6.2438 1.89868
-3.79747 -6.34403 1.89731
-3.6694 -6.40577 1.89352
-3.63569 -6.506 1.89215
-3.50762 -6.56774 1.88837
-3.47391 -6.66797 1.88699
-3.44019 -6.7682 1.88564
-3.31212 -6.82994 1.88184
-3.18406 -6.89169 1.87805
-3.15034 -6.99192 1.87669
-3.02228 -7.05366 1.87289
-2.98856 -7.15389 1.87154
-2.95484 -7.25412 1.87016
-2.82677 -7.31586 1.86638
-4.11325 -6.1735 1.98904
-4.0964 -6.32395 1.9901
-4.07956 -6.4744 1.99117
-4.00024 -6.54434 1.98979
-3.98339 -6.69479 1.99084
-3.90408 -6.76473 1.98949
-3.82476 -6.83467 1.98811
-3.74545 -6.90462 1.98676
-3.7286 -7.05507 1.98781
-3.64928 -7.12501 1.98645
-3.56997 -7.19495 1.98508
-3.49065 -7.2649 1.9837
-3.47381 -7.41534 1.98477
-3.39449 -7.48529 1.9834
-3.31517 -7.55523 1.98204
-3.23586 -7.62517 1.98067
-3.15655 -7.69512 1.97931
-3.07723 -7.76506 1.97794
-3.06039 -7.91551 1.97899
-2.98107 -7.98545 1.97763
-2.90175 -8.05539 1.97626
-2.8849 -8.20584 1.97733
-2.80559 -8.27579 1.97595
-2.72627 -8.34573 1.97459
-2.64696 -8.41567 1.97322
-2.56765 -8.48561 1.97186
-2.48833 -8.55556 1.97049
-2.40902 -8.6255 1.96913
-2.3297 -8.69544 1.96776
-2.25039 -8.76539 1.96638
-2.23354 -8.91583 1.96745
-2.15422 -8.98578 1.96608
-2.07491 -9.05572 1.96472
-1.99559 -9.12566 1.96335
-1.91628 -9.19561 1.96199
-1.83696 -9.26555 1.96062
-1.75765 -9.33549 1.95926
-1.67834 -9.40544 1.95789
-1.59902 -9.47538 1.95653
-1.5197 -9.54532 1.95515
-1.44039 -9.61527 1.9538
-1.36107 -9.68521 1.95242
-1.28176 -9.75515 1.95105
-1.20245 -9.8251 1.94969
-1.12313 -9.89504 1.94832
-1.04382 -9.96498 1.94696
-0.964502 -10.0349 1.94559
-0.822721 -10.0244 1.9418
-0.743406 -10.0943 1.94044
-0.664093 -10.1642 1.93907
-0.58478 -10.2342 1.9377
-0.505465 -10.3041 1.93634
-0.426148 -10.3741 1.93497
-0.346833 -10.444 1.93361
-0.267519 -10.514 1.93224
-0.188205 -10.5839 1.93088
-0.0464268 -10.5733 1.92709
0.0328898 -10.6433 1.92572
0.112205 -10.7132 1.92435
0.253985 -10.7027 1.92056
