ply
format ascii 1.0
comment VCGLIB generated
element vertex 1132
property float x
property float y
property float z
element face 0
property list uchar int vertex_indices
end_header
3.1819 -11.8109 2.15935
3.33235 -11.794 2.1604
3.48279 -11.7772 2.16145
3.87475 -11.9477 2.16978
4.10571 -11.9934 2.17326
4.25615 -11.9765 2.17432
4.4066 -11.9597 2.17538
4.55705 -11.9428 2.17644
4.7075 -11.926 2.17749
4.85794 -11.9091 2.17854
5.00839 -11.8923 2.17961
5.07834 -11.8129 2.17824
5.22879 -11.7961 2.17929
5.37923 -11.7792 2.18036
5.52968 -11.7624 2.18141
5.59962 -11.6831 2.18005
5.75007 -11.6662 2.18111
5.90052 -11.6494 2.18216
6.05097 -11.6325 2.18321
6.20142 -11.6157 2.18428
6.35186 -11.5988 2.18533
6.50231 -11.582 2.18639
6.65276 -11.5651 2.18744
6.7227 -11.4858 2.18608
6.79264 -11.4065 2.18471
6.9431 -11.3897 2.18578
7.01304 -11.3104 2.1844
7.16348 -11.2935 2.18546
7.31393 -11.2766 2.18652
7.38387 -11.1973 2.18515
7.45382 -11.118 2.18379
7.52376 -11.0387 2.18242
7.67421 -11.0219 2.18347
7.74415 -10.9425 2.18211
7.8946 -10.9257 2.18317
8.04505 -10.9088 2.18422
8.11499 -10.8295 2.18286
8.26544 -10.8127 2.18391
8.49639 -10.8583 2.18739
8.64684 -10.8414 2.18846
8.71678 -10.7621 2.18709
8.78672 -10.6828 2.18573
8.85667 -10.6035 2.18436
9.00712 -10.5867 2.18541
9.07706 -10.5073 2.18405
9.147 -10.428 2.18268
9.21694 -10.3487 2.18132
9.28689 -10.2694 2.17995
9.35683 -10.1901 2.17859
9.42678 -10.1108 2.17722
9.57722 -10.0939 2.17827
9.64716 -10.0146 2.17691
9.71711 -9.93528 2.17554
9.78705 -9.85597 2.17418
9.857 -9.77666 2.17281
9.92694 -9.69734 2.17145
9.99688 -9.61803 2.17007
10.0668 -9.53871 2.16872
10.1368 -9.4594 2.16734
10.2067 -9.38008 2.16599
10.2767 -9.30077 2.16461
10.3466 -9.22145 2.16325
10.497 -9.2046 2.16431
10.567 -9.12529 2.16293
10.6369 -9.04597 2.16158
10.7069 -8.96666 2.1602
10.7768 -8.88734 2.15884
10.8468 -8.80803 2.15747
10.9167 -8.72872 2.15611
10.9866 -8.6494 2.15474
11.0566 -8.57009 2.15338
11.1265 -8.49077 2.15201
11.1965 -8.41146 2.15065
11.2664 -8.33214 2.14928
11.3364 -8.25283 2.14792
11.4063 -8.17351 2.14655
11.4762 -8.0942 2.14519
11.5462 -8.01488 2.14381
11.5356 -7.87311 2.14003
11.6056 -7.79379 2.13866
11.6755 -7.71448 2.1373
11.7455 -7.63516 2.13593
11.7349 -7.49338 2.13214
11.8048 -7.41407 2.13077
11.8748 -7.33475 2.12941
11.9447 -7.25543 2.12804
12.0147 -7.17612 2.12668
12.0041 -7.03434 2.12288
12.0741 -6.95503 2.12152
12.0635 -6.81325 2.11774
12.0529 -6.67146 2.11394
12.0424 -6.52969 2.11015
12.0318 -6.38791 2.10637
12.1018 -6.30859 2.105
12.0912 -6.16681 2.10121
12.0806 -6.02503 2.09741
12.1506 -5.94572 2.09605
12.14 -5.80394 2.09227
12.1294 -5.66215 2.08847
12.1189 -5.52038 2.08469
12.1888 -5.44106 2.08331
12.1783 -5.29928 2.07953
12.1677 -5.1575 2.07574
11.9407 -6.18366 3.10016
12.0107 -6.10435 3.09879
12.0001 -5.96256 3.095
11.9896 -5.82078 3.0912
11.979 -5.67901 3.08742
12.0489 -5.59969 3.08604
12.0384 -5.45791 3.08226
12.0278 -5.31613 3.07848
12.0173 -5.17435 3.07469
12.0067 -5.03257 3.07089
11.9961 -4.89079 3.06711
11.9856 -4.74901 3.06332
11.8945 -4.54476 3.0571
11.8839 -4.40298 3.05331
11.7929 -4.19874 3.0471
11.7823 -4.05696 3.04332
11.7718 -3.91518 3.03952
11.6807 -3.71093 3.03331
11.5091 -3.44422 3.02467
11.4986 -3.30244 3.02089
11.5685 -3.22312 3.01952
11.5579 -3.08134 3.01573
11.5474 -2.93956 3.01195
11.5368 -2.79778 3.00815
11.4457 -2.59354 3.00194
11.4352 -2.45176 2.99815
11.1831 -2.12258 2.98709
11.1726 -1.9808 2.98331
11.6603 -1.48537 3.09871
11.6812 -1.38171 3.09734
11.7021 -1.27805 3.09598
11.6221 -1.16055 3.09218
11.643 -1.05689 3.09082
11.563 -0.939383 3.08702
11.5839 -0.835722 3.08566
11.5039 -0.718219 3.08188
11.5248 -0.614557 3.08051
11.5457 -0.510899 3.07913
11.4657 -0.393392 3.07535
11.4866 -0.289732 3.07399
11.5075 -0.186073 3.07262
11.4274 -0.068567 3.06883
11.4484 0.0350926 3.06746
11.3683 0.152596 3.06367
11.3892 0.256256 3.0623
11.3092 0.37376 3.05852
11.1282 0.505111 3.05231
11.1491 0.60877 3.05093
11.0691 0.726275 3.04715
11.09 0.829934 3.04579
11.1109 0.933594 3.04442
11.0309 1.0511 3.04063
10.9508 1.1686 3.03683
10.8708 1.28611 3.03305
10.8917 1.38977 3.03169
10.8117 1.50727 3.02789
10.7317 1.62478 3.02411
10.5507 1.75613 3.0179
10.3697 1.88747 3.01169
10.2896 2.00498 3.00789
10.3106 2.10864 3.00653
10.3315 2.2123 3.00516
10.3524 2.31596 3.0038
10.4743 2.40578 3.00485
10.4952 2.50943 3.00349
10.4151 2.62694 2.99969
10.436 2.7306 2.99834
10.457 2.83426 2.99696
10.3769 2.95176 2.99318
10.3978 3.05542 2.99181
10.2169 3.18677 2.9856
9.93491 3.33197 2.97696
9.95583 3.43563 2.9756
9.87579 3.55313 2.9718
9.8967 3.65679 2.97044
9.81667 3.7743 2.96666
9.83758 3.87796 2.96529
9.8585 3.98162 2.96393
9.77847 4.09912 2.96013
9.69842 4.21663 2.95634
9.61839 4.33413 2.95256
9.53835 4.45163 2.94876
9.45831 4.56914 2.94498
9.37828 4.68664 2.94119
9.19729 4.81799 2.93497
9.11725 4.9355 2.93118
9.03722 5.053 2.9274
9.25589 -10.3171 2.20164
9.37777 -10.2273 2.2027
9.49963 -10.1374 2.20375
9.6215 -10.0476 2.20482
9.74337 -9.95782 2.20587
9.86523 -9.868 2.20692
9.9871 -9.77818 2.20798
10.109 -9.68837 2.20905
10.2308 -9.59855 2.2101
10.3527 -9.50874 2.21115
10.4746 -9.41892 2.21222
10.5964 -9.32911 2.21327
10.6174 -9.22545 2.2119
10.7392 -9.13563 2.21297
10.7601 -9.03197 2.21159
10.882 -8.94215 2.21265
10.9029 -8.83849 2.21129
10.9238 -8.73483 2.20992
11.0457 -8.64502 2.21098
11.1676 -8.5552 2.21204
11.2894 -8.46539 2.21309
11.4113 -8.37557 2.21414
11.4322 -8.27191 2.21278
11.5541 -8.18209 2.21384
11.575 -8.07843 2.21248
11.5959 -7.97477 2.21111
11.6168 -7.87111 2.20975
11.6377 -7.76745 2.20837
11.6587 -7.66379 2.20702
11.7805 -7.57398 2.20807
11.8014 -7.47032 2.2067
11.8224 -7.36666 2.20534
11.9442 -7.27684 2.20639
11.9651 -7.17318 2.20503
12.087 -7.08337 2.20609
12.1079 -6.97971 2.20471
12.2298 -6.88989 2.20578
12.2507 -6.78623 2.20441
12.2716 -6.68257 2.20305
12.2925 -6.57891 2.20168
12.3134 -6.47525 2.2003
12.3344 -6.37159 2.19894
12.3553 -6.26793 2.19757
12.3762 -6.16427 2.19621
12.3971 -6.06061 2.19484
12.418 -5.95695 2.19348
12.4389 -5.85329 2.19211
12.4599 -5.74963 2.19075
12.4808 -5.64597 2.18938
12.4007 -5.52846 2.18559
12.4216 -5.4248 2.18422
12.4426 -5.32114 2.18286
12.3625 -5.20364 2.17908
12.3834 -5.09998 2.1777
12.4044 -4.99632 2.17635
12.4253 -4.89266 2.17497
12.3452 -4.77515 2.17119
12.3661 -4.67149 2.16982
12.3871 -4.56783 2.16846
12.307 -4.45033 2.16466
12.3279 -4.34667 2.1633
12.3489 -4.24301 2.16193
12.3698 -4.13935 2.16057
12.2897 -4.02184 2.15677
12.3106 -3.91818 2.15541
12.2306 -3.80068 2.15163
12.1506 -3.68317 2.14783
12.0705 -3.56567 2.14404
11.9905 -3.44817 2.14026
12.0114 -3.3445 2.13889
12.0323 -3.24084 2.13753
12.0532 -3.13719 2.13615
12.0742 -3.03352 2.1348
12.0951 -2.92986 2.13342
12.015 -2.81236 2.12964
12.036 -2.7087 2.12827
12.0569 -2.60504 2.12691
11.9768 -2.48754 2.12311
11.9978 -2.38388 2.12175
12.0187 -2.28021 2.12038
11.9386 -2.16271 2.11659
11.9595 -2.05905 2.11522
11.8795 -1.94155 2.11143
11.9004 -1.83789 2.11008
11.8204 -1.72038 2.10628
11.8413 -1.61672 2.10492
11.7613 -1.49922 2.10112
11.7822 -1.39556 2.09976
11.7021 -1.27805 2.09598
11.6221 -1.16055 2.09218
11.4411 -1.0292 2.08597
11.3611 -0.911694 2.08218
11.382 -0.808033 2.08081
11.302 -0.690529 2.07703
11.3229 -0.586867 2.07565
11.3438 -0.48321 2.0743
12.2853 -7.40518 2.19081
12.4403 -7.22798 2.19429
12.5009 -7.08926 2.19534
12.5616 -6.95055 2.19641
12.6222 -6.81183 2.19746
12.5885 -6.7116 2.19609
12.6491 -6.57289 2.19716
12.8041 -6.39568 2.20064
12.8647 -6.25697 2.20169
12.9253 -6.11825 2.20274
12.8916 -6.01802 2.20139
12.8579 -5.91779 2.20001
12.9185 -5.77907 2.20107
12.9792 -5.64036 2.20213
12.9455 -5.54013 2.20076
13.0061 -5.40141 2.20181
12.9724 -5.30118 2.20045
12.9387 -5.20095 2.19908
12.9049 -5.10072 2.19772
12.8712 -5.00049 2.19635
12.9319 -4.86178 2.19742
12.8981 -4.76154 2.19604
12.8644 -4.66132 2.19469
12.8307 -4.56109 2.19331
12.797 -4.46086 2.19196
12.8576 -4.32214 2.19301
12.8239 -4.22191 2.19164
12.7902 -4.12168 2.19028
12.7565 -4.02145 2.1889
12.7227 -3.92122 2.18755
12.7834 -3.7825 2.1886
12.7497 -3.68227 2.18724
12.716 -3.58204 2.18587
12.6822 -3.48181 2.18449
12.6485 -3.38158 2.18314
12.6148 -3.28135 2.18176
12.6754 -3.14264 2.18283
12.6417 -3.04241 2.18146
12.608 -2.94218 2.1801
12.5743 -2.84195 2.17873
12.5406 -2.74172 2.17737
12.5068 -2.64149 2.17599
12.4731 -2.54126 2.17464
12.4394 -2.44103 2.17326
12.4057 -2.3408 2.17191
12.372 -2.24057 2.17053
12.3383 -2.14034 2.16916
12.3989 -2.00162 2.17023
12.3652 -1.90139 2.16885
12.3315 -1.80116 2.1675
12.2977 -1.70093 2.16612
12.264 -1.6007 2.16476
12.3247 -1.46199 2.16582
12.2909 -1.36176 2.16444
12.2572 -1.26153 2.16309
12.2235 -1.1613 2.16171
12.1898 -1.06107 2.16035
12.1561 -0.960837 2.15898
12.1224 -0.860606 2.15762
12.0886 -0.760376 2.15625
12.1493 -0.621661 2.15732
12.1156 -0.521432 2.15594
12.0818 -0.421201 2.15459
12.0481 -0.320971 2.15321
12.1087 -0.182254 2.15427
12.075 -0.0820248 2.15291
12.0413 0.0182037 2.15154
12.0076 0.118434 2.15018
11.9739 0.218665 2.1488
11.9402 0.318895 2.14745
11.9064 0.419124 2.14607
11.8727 0.519354 2.14471
11.839 0.619584 2.14334
11.8053 0.719814 2.14198
11.7716 0.820045 2.14061
11.7379 0.920273 2.13925
11.7041 1.0205 2.13788
11.6704 1.12073 2.13651
11.6367 1.22096 2.13515
11.603 1.32119 2.13377
11.5693 1.42142 2.13242
11.5356 1.52165 2.13104
11.5018 1.62188 2.12968
11.5625 1.7606 2.13074
11.5288 1.86083 2.12938
11.495 1.96106 2.12801
11.4613 2.06129 2.12665
11.4276 2.16152 2.12527
11.3939 2.26175 2.1239
11.3602 2.36198 2.12254
11.3265 2.46221 2.12117
11.2927 2.56244 2.11981
11.259 2.66267 2.11844
11.2253 2.7629 2.11708
11.1916 2.86313 2.11571
11.1579 2.96336 2.11435
11.1242 3.06359 2.11298
11.0904 3.16382 2.11162
11.0567 3.26405 2.11024
11.023 3.36428 2.10889
10.9893 3.46451 2.10751
10.9556 3.56474 2.10616
10.9219 3.66497 2.10478
10.8881 3.7652 2.10342
10.8544 3.86543 2.10205
10.7264 3.92717 2.09827
10.6926 4.0274 2.09689
10.6589 4.12763 2.09554
10.5309 4.18938 2.09174
10.4971 4.2896 2.09038
10.4634 4.38983 2.089
10.4297 4.49007 2.08765
10.3016 4.55181 2.08386
10.2679 4.65204 2.08249
10.2342 4.75227 2.08112
10.2005 4.8525 2.07976
10.1668 4.95273 2.07838
10.1331 5.05296 2.07703
10.0993 5.15319 2.07565
10.0656 5.25342 2.0743
10.7938 3.72671 3.101
10.6657 3.78846 3.09721
10.632 3.88869 3.09584
10.5983 3.98892 3.09447
10.5646 4.08915 3.09311
10.4365 4.15089 3.08932
10.4028 4.25112 3.08795
10.3691 4.35135 3.08659
10.3354 4.45158 3.08522
10.3016 4.55181 3.08386
10.2679 4.65204 3.08249
10.2342 4.75227 3.08112
10.2005 4.8525 3.07976
10.1668 4.95273 3.07838
10.1331 5.05296 3.07703
10.0993 5.15319 3.07565
9.97126 5.21493 3.07187
9.93755 5.31516 3.07051
9.90383 5.41539 3.06914
9.77577 5.47714 3.06535
9.74205 5.57737 3.06398
9.70833 5.6776 3.06262
9.58027 5.73934 3.05882
9.54655 5.83957 3.05746
9.41848 5.90131 3.05367
9.38476 6.00154 3.05231
9.2567 6.06329 3.04852
9.22299 6.16352 3.04715
9.18927 6.26375 3.04579
9.0612 6.32549 3.04199
8.93313 6.38723 3.03821
8.71072 6.41049 3.032
7.69351 8.0331 3.10056
7.55173 8.02253 3.09677
7.47242 8.09248 3.0954
7.39311 8.16242 3.09404
7.31379 8.23236 3.09267
7.23448 8.30231 3.09131
7.15516 8.37225 3.08994
7.01338 8.36169 3.08615
6.93407 8.43163 3.08478
6.85475 8.50158 3.08342
6.77544 8.57152 3.08205
6.69612 8.64146 3.08069
6.55434 8.6309 3.07689
6.47502 8.70084 3.07553
6.33325 8.69028 3.07175
6.19147 8.67972 3.06795
6.11215 8.74966 3.06659
5.90791 8.65859 3.06038
5.76612 8.64804 3.05658
5.49941 8.47647 3.04794
5.4201 8.54641 3.04659
5.27832 8.53584 3.04279
5.199 8.60579 3.04143
5.05722 8.59522 3.03764
4.97791 8.66517 3.03627
4.83612 8.65461 3.03249
4.69435 8.64405 3.02869
12.9875 -4.77071 2.1109
12.9706 -4.62026 2.11195
13.0162 -4.38931 2.11543
13.0619 -4.15836 2.11891
13.1075 -3.9274 2.12239
13.0906 -3.77696 2.12344
13.0113 -3.70702 2.12209
12.9945 -3.55657 2.12314
12.9776 -3.40612 2.12419
12.9608 -3.25567 2.12526
12.9439 -3.10522 2.12631
12.9271 -2.95478 2.12737
12.9102 -2.80433 2.12843
12.8309 -2.73438 2.12706
12.814 -2.58393 2.12811
12.7347 -2.51399 2.12675
12.7179 -2.36355 2.12781
12.6386 -2.2936 2.12645
12.6217 -2.14315 2.1275
12.5424 -2.07321 2.12613
12.4631 -2.00327 2.12477
12.3838 -1.93332 2.1234
12.4294 -1.70237 2.12688
12.475 -1.47142 2.13036
12.4582 -1.32097 2.13142
12.4413 -1.17052 2.13248
12.4245 -1.02008 2.13353
12.4076 -0.869625 2.1346
12.3283 -0.799681 2.13322
12.249 -0.729738 2.13185
12.2321 -0.579295 2.13292
12.1528 -0.509351 2.13155
12.136 -0.358901 2.13261
12.1191 -0.208452 2.13367
12.1023 -0.0580063 2.13472
12.0854 0.092442 2.13577
12.131 0.323398 2.13925
12.1142 0.473843 2.14032
12.0349 0.543787 2.13895
12.018 0.694232 2.14
12.0012 0.844684 2.14107
11.9219 0.914627 2.13969
11.8425 0.984571 2.13834
11.8257 1.13502 2.13939
11.7464 1.20496 2.13802
11.7295 1.35541 2.13908
11.6502 1.42535 2.13771
11.6334 1.5758 2.13876
11.5541 1.64574 2.13741
11.5372 1.79619 2.13846
11.5203 1.94664 2.13953
11.441 2.01658 2.13815
11.4242 2.16703 2.13921
11.3449 2.23697 2.13785
11.3905 2.46792 2.14133
11.3736 2.61837 2.14238
11.3568 2.76882 2.14343
11.3399 2.91927 2.1445
11.2606 2.98921 2.14313
11.2438 3.13966 2.14418
11.1645 3.2096 2.14282
11.0851 3.27954 2.14145
11.0058 3.34949 2.14009
10.989 3.49994 2.14114
10.9097 3.56988 2.13979
10.8928 3.72033 2.14084
10.8135 3.79027 2.13947
10.7967 3.94072 2.14053
10.7173 4.01066 2.13916
10.7005 4.16111 2.14021
10.7461 4.39206 2.14369
10.6668 4.46201 2.14233
10.6499 4.61245 2.14339
10.5706 4.6824 2.14203
10.5538 4.83284 2.14308
10.4745 4.90279 2.14171
10.4576 5.05324 2.14278
10.4408 5.20368 2.14383
10.3614 5.27363 2.14246
10.3446 5.42408 2.14352
10.2653 5.49402 2.14215
10.186 5.56396 2.14079
10.1067 5.6339 2.13942
10.0898 5.78435 2.14047
10.0105 5.8543 2.13911
9.93118 5.92424 2.13774
9.85186 5.99418 2.13638
9.83501 6.14463 2.13744
9.7557 6.21457 2.13608
9.67638 6.28451 2.1347
9.59707 6.35446 2.13335
9.51775 6.4244 2.13197
9.43844 6.49434 2.13062
9.42159 6.64479 2.13167
9.34228 6.71474 2.13029
9.26296 6.78468 2.12894
9.18365 6.85462 2.12756
9.10433 6.92457 2.12621
9.02502 6.99451 2.12483
8.9457 7.06445 2.12347
8.86639 7.1344 2.1221
8.78707 7.20434 2.12074
8.70776 7.27428 2.11937
8.62844 7.34423 2.11801
8.54913 7.41417 2.11664
8.46981 7.48411 2.11528
8.3905 7.55405 2.11391
8.31118 7.624 2.11255
8.23187 7.69394 2.11118
8.15255 7.76389 2.1098
8.07324 7.83383 2.10844
7.93146 7.82326 2.10466
7.85214 7.89321 2.10329
7.77283 7.96315 2.10193
7.69351 8.0331 2.10056
7.6142 8.10303 2.0992
7.53488 8.17298 2.09782
7.45557 8.24292 2.09645
7.37625 8.31287 2.09509
7.29694 8.38281 2.09372
7.15516 8.37225 2.08994
7.07585 8.44219 2.08858
6.99653 8.51214 2.0872
6.91722 8.58208 2.08585
6.77544 8.57152 2.08205
6.69612 8.64146 2.08069
6.61681 8.7114 2.07932
6.47502 8.70084 2.07553
6.39571 8.77079 2.07416
8.94821 7.0422 2.12982
8.8584 7.16407 2.13089
8.75474 7.18499 2.12952
8.65108 7.2059 2.12816
8.56126 7.32777 2.12921
8.51298 7.75249 2.13754
8.42316 7.87436 2.1386
8.33335 7.99623 2.13965
8.22969 8.01714 2.13829
8.13987 8.13901 2.13934
8.05006 8.26087 2.1404
7.96024 8.38274 2.14145
7.85658 8.40366 2.14009
7.76676 8.52552 2.14114
7.66311 8.54644 2.13979
7.55944 8.56736 2.13841
7.45578 8.58827 2.13705
7.35212 8.60919 2.13568
7.24846 8.6301 2.13432
7.1448 8.65102 2.13295
7.05499 8.77288 2.134
6.95133 8.7938 2.13264
6.84767 8.81471 2.13127
6.74401 8.83563 2.12991
6.64035 8.85654 2.12854
6.53669 8.87746 2.12718
6.43303 8.89837 2.12581
6.32937 8.91929 2.12445
6.22571 8.9402 2.12308
6.12205 8.96112 2.12172
6.01839 8.98203 2.12035
5.91473 9.00295 2.11899
5.81107 9.02386 2.11761
5.70741 9.04478 2.11624
5.60374 9.06569 2.11488
5.50009 9.08661 2.11351
5.39643 9.10753 2.11215
5.29276 9.12844 2.11078
5.1891 9.14935 2.10942
5.08544 9.17027 2.10805
4.98178 9.19119 2.10669
4.87812 9.2121 2.10532
4.77446 9.23301 2.10396
4.65696 9.15298 2.10016
4.5533 9.17389 2.0988
4.44964 9.19481 2.09743
4.34598 9.21572 2.09607
4.24232 9.23664 2.0947
4.13866 9.25755 2.09334
4.035 9.27847 2.09196
3.93134 9.29939 2.09061
3.82768 9.3203 2.08923
3.72402 9.34121 2.08788
3.60651 9.26118 2.08408
3.50285 9.28209 2.08272
3.39919 9.30301 2.08134
3.29553 9.32392 2.07999
3.17803 9.24388 2.0762
3.07437 9.2648 2.07483
2.97071 9.28572 2.07346
4.76062 9.13206 3.10153
4.65696 9.15298 3.10016
4.5533 9.17389 3.0988
4.44964 9.19481 3.09743
4.34598 9.21572 3.09607
4.24232 9.23664 3.0947
4.13866 9.25755 3.09334
4.035 9.27847 3.09196
3.93134 9.29939 3.09061
3.82768 9.3203 3.08923
3.72402 9.34121 3.08788
3.60651 9.26118 3.08408
3.50285 9.28209 3.08272
3.39919 9.30301 3.08134
3.28169 9.22297 3.07756
3.17803 9.24388 3.0762
3.06053 9.16385 3.0724
2.94302 9.08381 3.06862
2.82552 9.00378 3.06483
2.72186 9.02469 3.06346
2.61819 9.0456 3.06209
2.51453 9.06652 3.06073
2.39703 8.98648 3.05695
2.29337 9.0074 3.05557
2.17587 8.92736 3.05179
2.05836 8.84733 3.04799
1.9547 8.86824 3.04663
1.75413 8.18249 3.02831
1.65047 8.2034 3.02693
1.53297 8.12337 3.02315
1.42931 8.14429 3.02177
1.3118 8.06425 3.01799
1.20814 8.08517 3.01663
1.09064 8.00513 3.01283
0.986977 8.02604 3.01147
0.869471 7.94601 3.00768
0.751966 7.86597 3.00389
0.648307 7.88689 3.00253
0.530803 7.80685 2.99873
0.427144 7.82776 2.99738
7.1333 8.76038 3.09277
6.99458 8.82101 3.09384
6.85586 8.88165 3.09489
6.75564 8.84793 3.09352
6.61692 8.90856 3.09459
6.51669 8.87484 3.09322
6.37797 8.93548 3.09427
6.23926 8.99611 3.09534
6.10054 9.05673 3.09639
5.96182 9.11737 3.09744
5.82311 9.178 3.09851
5.68439 9.23864 3.09956
4.31246 9.52819 3.1015
4.21223 9.49447 3.10013
4.07351 9.55511 3.10118
3.97328 9.52139 3.09982
3.87305 9.48767 3.09845
3.77282 9.45395 3.09709
3.67259 9.42024 3.09572
3.57236 9.38652 3.09436
3.47213 9.35281 3.09299
3.3719 9.31909 3.09163
3.27167 9.28537 3.09026
3.17144 9.25165 3.0889
3.07121 9.21794 3.08752
2.97098 9.18422 3.08617
2.87075 9.15051 3.08479
2.77052 9.11679 3.08344
2.63181 9.17742 3.08449
2.53158 9.1437 3.08311
2.43135 9.10999 3.08176
2.33112 9.07627 3.08038
2.23089 9.04255 3.07903
2.13066 9.00883 3.07765
2.03043 8.97512 3.07629
1.9302 8.9414 3.07492
1.82997 8.90768 3.07356
1.72974 8.87396 3.07219
1.62951 8.84025 3.07083
1.52928 8.80653 3.06946
1.42905 8.77282 3.0681
1.32882 8.7391 3.06673
1.22859 8.70538 3.06537
1.12836 8.67166 3.064
1.02813 8.63795 3.06264
0.927898 8.60423 3.06126
0.827669 8.57051 3.05991
0.765924 8.44245 3.05611
0.665695 8.40873 3.05475
0.565464 8.37501 3.05338
0.465235 8.34129 3.05202
0.365006 8.30758 3.05064
0.264775 8.27386 3.04929
0.164544 8.24014 3.04791
0.0643146 8.20643 3.04655
-0.0359137 8.17271 3.04518
-0.136145 8.13899 3.04382
-0.236374 8.10528 3.04245
-0.336604 8.07156 3.04108
-0.436836 8.03784 3.03972
-0.537064 8.00412 3.03835
-0.637294 7.97041 3.03699
-0.699037 7.84234 3.0332
-0.799267 7.80862 3.03183
-0.899497 7.77491 3.03047
-0.999725 7.74119 3.0291
-1.09996 7.70747 3.02773
-1.1617 7.57941 3.02394
-1.26193 7.54569 3.02258
-1.32367 7.41762 3.01878
-1.38542 7.28956 3.015
-1.48565 7.25584 3.01363
-1.58588 7.22212 3.01227
-1.64762 7.09406 3.00848
-1.74785 7.06034 3.00711
-1.84808 7.02663 3.00575
6.89435 8.78729 2.09247
6.71715 8.94227 2.09595
6.53995 9.09726 2.09943
6.40123 9.15789 2.10049
6.301 9.12417 2.09912
6.16228 9.18481 2.10017
6.06206 9.15109 2.09882
5.92334 9.21172 2.09987
5.82311 9.178 2.09851
5.68439 9.23864 2.09956
5.54568 9.29927 2.10062
5.2915 9.64294 2.10895
5.15278 9.70358 2.11
5.05255 9.66986 2.10864
4.91384 9.73049 2.1097
4.81361 9.69678 2.10832
4.71338 9.66306 2.10696
4.61315 9.62934 2.10559
4.47443 9.68998 2.10666
4.3742 9.65626 2.10529
4.27397 9.62254 2.10393
4.17374 9.58882 2.10255
4.07351 9.55511 2.10118
3.97328 9.52139 2.09982
3.87305 9.48767 2.09845
3.77282 9.45395 2.09709
3.63411 9.51459 2.09814
3.53388 9.48087 2.09679
3.43365 9.44715 2.09541
3.33342 9.41344 2.09406
3.23319 9.37972 2.09268
3.13296 9.346 2.09132
3.03273 9.31229 2.08995
2.9325 9.27857 2.08859
2.83227 9.24485 2.08722
2.73204 9.21113 2.08585
2.63181 9.17742 2.08449
2.53158 9.1437 2.08311
2.43135 9.10999 2.08176
2.33112 9.07627 2.08038
2.23089 9.04255 2.07903
2.13066 9.00883 2.07765
2.03043 8.97512 2.07629
1.9302 8.9414 2.07492
1.82997 8.90768 2.07356
0.150481 8.82446 3.04863
0.0805373 8.74515 3.04726
-0.0699105 8.7283 3.04832
-0.139855 8.64898 3.04695
-0.209799 8.56967 3.04559
-0.360243 8.55282 3.04665
-0.430187 8.47351 3.04527
-0.580636 8.45666 3.04634
-0.731084 8.43981 3.04739
-0.801028 8.36049 3.04602
-0.951476 8.34364 3.04709
-1.02142 8.26433 3.04572
-1.09136 8.18502 3.04436
-1.24181 8.16817 3.04541
-1.31175 8.08885 3.04404
-1.38169 8.00953 3.04268
-1.45164 7.93022 3.04131
-1.52158 7.85091 3.03995
-1.59152 7.77159 3.03857
-1.66147 7.69228 3.03722
-1.73141 7.61296 3.03584
-1.80135 7.53365 3.03448
-1.8713 7.45433 3.03311
-1.94124 7.37502 3.03175
-2.01118 7.2957 3.03038
-2.16163 7.27886 3.03143
-2.23158 7.19954 3.03008
-2.30152 7.12023 3.0287
-2.37146 7.04091 3.02734
-2.4414 6.9616 3.02597
-2.51135 6.88228 3.02461
-2.58129 6.80297 3.02324
-2.65124 6.72365 3.02188
-2.72118 6.64434 3.02051
-2.79112 6.56502 3.01915
-2.86106 6.48571 3.01778
-2.93101 6.40639 3.01642
-3.00095 6.32708 3.01505
-3.07089 6.24776 3.01369
-3.14084 6.16845 3.01231
-3.21078 6.08914 3.01096
-3.28072 6.00982 3.00958
-3.35067 5.93051 3.00822
-3.42061 5.85119 3.00685
-3.49055 5.77188 3.00548
-3.5605 5.69256 3.00412
-3.63044 5.61325 3.00275
-3.70038 5.53393 3.00139
-3.77032 5.45462 3.00002
-3.84027 5.3753 2.99866
-3.91021 5.29599 2.99728
-3.89965 5.15421 2.9935
-3.96959 5.07489 2.99213
-4.03953 4.99558 2.99077
-4.10948 4.91626 2.9894
-4.17942 4.83695 2.98804
-4.24937 4.75763 2.98666
-4.31931 4.67832 2.98531
-4.38925 4.599 2.98393
-4.37869 4.45722 2.98015
-4.44864 4.37791 2.97878
-4.51858 4.2986 2.97742
-4.50801 4.15681 2.97363
-4.17455 5.67868 3.01056
-4.19546 5.57502 3.00919
-4.31733 5.48521 3.01025
-4.33824 5.38155 3.00888
-4.35916 5.27789 3.00752
-4.48103 5.18807 3.00858
-4.50194 5.08441 3.0072
-4.52286 4.98075 3.00584
-4.54377 4.87709 3.00447
-4.56469 4.77343 3.00311
-4.5856 4.66977 3.00174
-4.60652 4.56611 3.00038
-4.62743 4.46245 2.99901
-4.64835 4.35879 2.99765
-4.77021 4.26897 2.9987
-4.79113 4.16531 2.99733
-4.81205 4.06165 2.99597
-4.83296 3.95799 2.9946
-4.85388 3.85433 2.99324
-4.87479 3.75067 2.99187
-4.89571 3.64701 2.99051
-4.91662 3.54335 2.98914
-4.93754 3.43969 2.98778
-4.95845 3.33603 2.9864
-4.97937 3.23237 2.98505
-5.00028 3.12871 2.98367
-4.92025 3.01121 2.97989
-4.94116 2.90755 2.97852
-4.96208 2.80389 2.97716
-4.98299 2.70023 2.97578
-4.90295 2.58272 2.972
-4.92387 2.47906 2.97064
-4.94478 2.3754 2.96927
-4.9657 2.27174 2.9679
-4.98661 2.16808 2.96654
-5.00753 2.06442 2.96516
-5.02844 1.96076 2.96381
-5.04936 1.8571 2.96243
-5.07027 1.75344 2.96107
-5.09119 1.64978 2.9597
-5.1121 1.54612 2.95834
-5.13302 1.44246 2.95697
-5.15393 1.3388 2.95561
-5.0739 1.2213 2.95181
-5.09481 1.11764 2.95045
-5.11573 1.01398 2.94908
-5.13665 0.910317 2.94772
-5.15756 0.806656 2.94635
-5.17847 0.702996 2.94499
-5.19939 0.599336 2.94362
-5.11935 0.48183 2.93983
-5.14027 0.37817 2.93846
-5.16119 0.274512 2.9371
-5.1821 0.170852 2.93573
-5.20301 0.0671921 2.93437
-5.22393 -0.0364693 2.933
-5.24485 -0.140129 2.93164
-5.26576 -0.243791 2.93027
-5.28667 -0.347449 2.92891
-5.30759 -0.45111 2.92754
-5.32851 -0.55477 2.92618
-5.34942 -0.658429 2.9248
-5.37033 -0.762091 2.92345
-5.39125 -0.865751 2.92207
-5.41217 -0.96941 2.92072
-5.33213 -1.08692 2.91692
-5.35304 -1.19058 2.91556
-5.37395 -1.29424 2.91418
-5.39487 -1.3979 2.91283
-5.41579 -1.50156 2.91145
-5.4367 -1.60522 2.9101
-5.45762 -1.70888 2.90872
-5.37758 -1.82638 2.90494
-5.39849 -1.93004 2.90356
-6.10354 -0.44569 2.98654
-6.16417 -0.584404 2.98759
-6.13045 -0.684636 2.98624
-6.19109 -0.823352 2.98729
-6.15737 -0.923579 2.98592
-6.12365 -1.02381 2.98456
-6.08993 -1.12404 2.98318
-6.05622 -1.22427 2.98183
-6.0225 -1.3245 2.98045
-5.98878 -1.42473 2.9791
-5.95507 -1.52496 2.97772
-5.92135 -1.62519 2.97636
-5.88763 -1.72542 2.97499
-5.85391 -1.82565 2.97363
-5.91455 -1.96437 2.97469
-5.88083 -2.0646 2.97331
-5.84712 -2.16483 2.97195
-5.8134 -2.26506 2.97058
-5.77968 -2.36529 2.96922
-5.74596 -2.46552 2.96785
-5.71225 -2.56575 2.96649
-5.67853 -2.66598 2.96512
-5.64482 -2.76621 2.96376
-5.6111 -2.86644 2.96239
-5.57738 -2.96667 2.96103
-5.54366 -3.0669 2.95966
-5.50995 -3.16713 2.9583
-5.47623 -3.26736 2.95692
-5.44251 -3.36759 2.95557
-5.40879 -3.46782 2.95419
-5.37508 -3.56805 2.95284
-5.24701 -3.62979 2.94904
-5.21329 -3.73002 2.94768
-5.17957 -3.83025 2.9463
-5.14586 -3.93048 2.94495
-5.11214 -4.03071 2.94357
-5.07843 -4.13094 2.94221
-5.0447 -4.23117 2.94084
-5.01099 -4.3314 2.93948
-4.97727 -4.43163 2.93811
-4.94356 -4.53186 2.93675
-4.90984 -4.63209 2.93538
-4.87612 -4.73232 2.93401
-4.8424 -4.83255 2.93265
-4.71434 -4.89429 2.92886
-4.68062 -4.99452 2.92749
-4.6469 -5.09475 2.92613
-4.61319 -5.19498 2.92476
-4.57947 -5.29521 2.9234
-4.45141 -5.35696 2.9196
-4.41769 -5.45719 2.91824
-4.38397 -5.55741 2.91687
-4.35025 -5.65765 2.91551
-4.31654 -5.75787 2.91414
-4.18847 -5.81962 2.91035
-4.15476 -5.91985 2.90898
-4.12104 -6.02008 2.90762
-3.99297 -6.08182 2.90382
-3.95925 -6.18205 2.90247
-3.92554 -6.28228 2.90109
-3.89182 -6.38251 2.89973
-3.8581 -6.48274 2.89836
-3.73004 -6.54449 2.89458
-3.60197 -6.60623 2.89079
-3.19086 -6.55251 2.87973
-3.15714 -6.65274 2.87836
-3.12343 -6.75297 2.877
-3.08971 -6.8532 2.87563
-3.05599 -6.95343 2.87427
-3.02228 -7.05366 2.87289
-2.98856 -7.15389 2.87154
-2.95484 -7.25412 2.87016
-2.92112 -7.35435 2.8688
-2.79306 -7.41609 2.86501
-2.75934 -7.51633 2.86365
-2.72562 -7.61655 2.86227
-2.59755 -7.6783 2.85849
-2.56384 -7.77853 2.85713
-2.43577 -7.84027 2.85333
-2.40206 -7.9405 2.85197
-2.27399 -8.00224 2.84818
-6.01475 -2.59843 3.00293
-6.06037 -2.82938 3.00641
-5.98105 -2.89932 3.00505
-5.9642 -3.04977 3.0061
-5.88489 -3.11971 3.00473
-5.86804 -3.27016 3.0058
-5.78872 -3.3401 3.00443
-5.77188 -3.49055 3.00548
-5.75503 -3.641 3.00655
-5.67571 -3.71094 3.00517
-5.65886 -3.86139 3.00623
-5.57955 -3.93133 3.00487
-5.50023 -4.00128 3.00349
-5.48338 -4.15172 3.00456
-5.46653 -4.30217 3.00562
-5.38722 -4.37212 3.00424
-5.30791 -4.44206 3.00288
-5.29106 -4.59251 3.00394
-5.21174 -4.66245 3.00258
-5.13243 -4.7324 3.00121
-5.05311 -4.80234 2.99985
-5.03626 -4.95278 3.0009
-4.95695 -5.02273 2.99953
-4.87763 -5.09267 2.99817
-4.79832 -5.16261 2.9968
-4.78147 -5.31306 2.99786
-4.70215 -5.383 2.99649
-4.68531 -5.53345 2.99754
-4.60599 -5.6034 2.99619
-4.52668 -5.67334 2.99481
-4.50983 -5.82378 2.99588
-4.43051 -5.89373 2.99451
-4.3512 -5.96367 2.99315
-4.27188 -6.03362 2.99178
-4.25503 -6.18406 2.99283
-4.17572 -6.254 2.99147
-4.0964 -6.32395 2.9901
-4.07956 -6.4744 2.99117
-4.00024 -6.54434 2.98979
-3.92092 -6.61429 2.98843
-3.84161 -6.68423 2.98706
-3.82476 -6.83467 2.98811
-3.74545 -6.90462 2.98676
-3.66613 -6.97456 2.98538
-3.64928 -7.12501 2.98645
-3.56997 -7.19495 2.98508
-3.49065 -7.2649 2.9837
-3.47381 -7.41534 2.98477
-3.39449 -7.48529 2.9834
-3.31517 -7.55523 2.98204
-3.29833 -7.70568 2.98309
-3.21901 -7.77562 2.98172
-3.1397 -7.84556 2.98036
-3.06039 -7.91551 2.97899
-3.04353 -8.06595 2.98006
-2.96422 -8.1359 2.97868
-2.8849 -8.20584 2.97733
-2.80559 -8.27579 2.97595
-2.72627 -8.34573 2.97459
-2.64696 -8.41567 2.97322
-2.56765 -8.48561 2.97186
-2.5508 -8.63606 2.97292
-2.47148 -8.70601 2.97154
-2.39217 -8.77595 2.97018
-2.31285 -8.84589 2.96881
-2.23354 -8.91583 2.96745
-2.15422 -8.98578 2.96608
-2.07491 -9.05572 2.96472
-1.99559 -9.12566 2.96335
-1.97875 -9.27611 2.9644
-1.89943 -9.34606 2.96304
-1.82012 -9.416 2.96167
-1.7408 -9.48594 2.96031
-1.66149 -9.55588 2.95894
-1.58217 -9.62583 2.95758
-1.50286 -9.69577 2.95621
-1.42354 -9.76572 2.95485
-1.34423 -9.83566 2.95348
-1.20245 -9.8251 2.94969
-1.12313 -9.89504 2.94832
-1.04382 -9.96498 2.94696
-0.964502 -10.0349 2.94559
-0.822721 -10.0244 2.9418
-0.743406 -10.0943 2.94044
-0.664093 -10.1642 2.93907
-0.58478 -10.2342 2.9377
-0.505465 -10.3041 2.93634
-0.426148 -10.3741 2.93497
-0.346833 -10.444 2.93361
-0.267519 -10.514 2.93224
-0.188205 -10.5839 2.93088
-0.108891 -10.6539 2.9295
0.0328898 -10.6433 2.92572
0.112205 -10.7132 2.92435
0.191519 -10.7832 2.92299
0.270833 -10.8531 2.92162
0.412617 -10.8426 2.91783
0.49193 -10.9125 2.91647
0.633709 -10.9019 2.91267
