ply
format ascii 1.0
comment VCGLIB generated
element vertex 1115
property float x
property float y
property float z
element face 0
property list uchar int vertex_indices
end_header
3.34291 -11.9358 3.16418
3.57386 -11.9814 3.16766
3.80481 -12.0271 3.17114
3.95526 -12.0102 3.17221
4.10571 -11.9934 3.17326
4.25615 -11.9765 3.17432
4.48711 -12.0221 3.1778
4.63756 -12.0053 3.17886
4.788 -11.9884 3.17992
4.93845 -11.9716 3.18097
5.0889 -11.9547 3.18204
5.23935 -11.9379 3.18309
5.30929 -11.8586 3.18172
5.45974 -11.8417 3.18279
5.52968 -11.7624 3.18141
5.68013 -11.7456 3.18246
5.83058 -11.7287 3.18353
5.98102 -11.7119 3.18459
6.13147 -11.695 3.18564
6.28192 -11.6782 3.18669
6.35186 -11.5988 3.18533
6.50231 -11.582 3.18639
6.57225 -11.5027 3.18503
6.6422 -11.4234 3.18365
6.79264 -11.4065 3.18471
6.86259 -11.3272 3.18335
7.01304 -11.3104 3.1844
7.16348 -11.2935 3.18546
7.31393 -11.2766 3.18652
7.46438 -11.2598 3.18758
7.53432 -11.1805 3.1862
7.68477 -11.1636 3.18727
7.83522 -11.1468 3.18832
7.98567 -11.1299 3.18938
8.05561 -11.0506 3.18802
8.12555 -10.9713 3.18665
8.1955 -10.892 3.18529
8.34594 -10.8751 3.18634
8.41588 -10.7958 3.18497
8.56634 -10.779 3.18604
8.63628 -10.6997 3.18466
8.78672 -10.6828 3.18573
8.85667 -10.6035 3.18436
8.92661 -10.5242 3.18298
8.99655 -10.4449 3.18163
9.147 -10.428 3.18268
9.21694 -10.3487 3.18132
9.28689 -10.2694 3.17995
9.35683 -10.1901 3.17859
9.42678 -10.1108 3.17722
9.49672 -10.0315 3.17586
9.64716 -10.0146 3.17691
9.71711 -9.93528 3.17554
9.78705 -9.85597 3.17418
9.857 -9.77666 3.17281
9.92694 -9.69734 3.17145
9.99688 -9.61803 3.17007
10.0668 -9.53871 3.16872
10.1368 -9.4594 3.16734
10.2067 -9.38008 3.16599
10.2767 -9.30077 3.16461
10.3466 -9.22145 3.16325
10.4165 -9.14214 3.16188
10.4865 -9.06283 3.16052
10.5564 -8.98351 3.15915
10.6264 -8.90419 3.15779
10.6963 -8.82488 3.15642
10.8468 -8.80803 3.15747
10.9167 -8.72872 3.15611
10.9866 -8.6494 3.15474
11.0566 -8.57009 3.15338
11.1265 -8.49077 3.15201
11.1965 -8.41146 3.15065
11.2664 -8.33214 3.14928
11.2559 -8.19036 3.14549
11.3258 -8.11105 3.14412
11.3957 -8.03173 3.14276
11.4657 -7.95242 3.14139
11.5356 -7.87311 3.14003
11.6056 -7.79379 3.13866
11.595 -7.65201 3.13487
11.665 -7.57269 3.1335
11.7349 -7.49338 3.13214
11.7243 -7.3516 3.12836
11.7138 -7.20982 3.12456
11.7837 -7.1305 3.1232
11.7732 -6.98872 3.1194
11.8431 -6.90941 3.11804
11.8325 -6.76763 3.11426
11.9025 -6.68831 3.11288
11.8919 -6.54654 3.1091
11.8814 -6.40475 3.1053
11.9513 -6.32544 3.10394
11.5739 -7.36845 4.12729
11.6438 -7.28914 4.12593
11.6333 -7.14735 4.12213
11.7032 -7.06804 4.12077
11.7732 -6.98872 4.1194
11.7626 -6.84695 4.11562
11.752 -6.70517 4.11183
11.822 -6.62585 4.11046
11.8114 -6.48407 4.10667
11.8814 -6.40475 4.1053
11.8708 -6.26298 4.10152
11.9407 -6.18366 4.10016
12.0107 -6.10435 4.09879
12.0001 -5.96256 4.095
11.9896 -5.82078 4.0912
12.0595 -5.74147 4.08984
12.0489 -5.59969 4.08604
12.0384 -5.45791 4.08226
12.0278 -5.31613 4.07848
12.0173 -5.17435 4.07469
12.0067 -5.03257 4.07089
11.9961 -4.89079 4.06711
11.9856 -4.74901 4.06332
11.8945 -4.54476 4.0571
11.6424 -4.21559 4.04605
11.6319 -4.07381 4.04225
11.6213 -3.93202 4.03847
11.6107 -3.79024 4.03468
11.6002 -3.64846 4.03088
11.5896 -3.50669 4.0271
11.5791 -3.36491 4.02332
11.4075 -3.09819 4.01468
11.3164 -2.89395 4.00847
11.3864 -2.81463 4.0071
11.3758 -2.67285 4.00331
11.3652 -2.53107 3.99951
11.3547 -2.38929 3.99573
11.1831 -2.12258 3.98709
11.092 -1.91834 3.98088
12.015 -2.81236 4.12964
11.935 -2.69485 4.12584
11.9559 -2.5912 4.12448
11.8759 -2.47369 4.1207
11.8968 -2.37003 4.11932
11.8168 -2.25253 4.11554
11.8377 -2.14887 4.11417
11.7576 -2.03136 4.11038
11.7786 -1.9277 4.10901
11.7995 -1.82404 4.10765
11.7194 -1.70654 4.10385
11.5384 -1.57519 4.09764
11.4584 -1.45768 4.09386
11.4793 -1.35402 4.09248
11.5002 -1.25036 4.09113
11.5212 -1.1467 4.08975
11.4411 -1.0292 4.08597
11.462 -0.92554 4.08461
11.4829 -0.821878 4.08324
11.4029 -0.704373 4.07945
11.4238 -0.600711 4.07808
11.4447 -0.497053 4.07672
11.3647 -0.379548 4.07292
11.3856 -0.275889 4.07156
11.2046 -0.14454 4.06535
11.1246 -0.0270342 4.06155
11.0446 0.0904697 4.05777
11.0655 0.194129 4.05641
11.0864 0.297789 4.05504
11.1073 0.401448 4.05367
11.1282 0.505111 4.05231
11.0482 0.622615 4.04852
11.0691 0.726275 4.04715
11.09 0.829934 4.04579
11.1109 0.933594 4.04442
11.0309 1.0511 4.04063
11.0518 1.15476 4.03926
10.9718 1.27226 4.03548
10.8917 1.38977 4.03169
10.8117 1.50727 4.02789
10.7317 1.62478 4.02411
10.7526 1.72844 4.02274
10.7735 1.8321 4.02138
10.6935 1.9496 4.01759
10.7144 2.05326 4.01622
10.6343 2.17077 4.01244
10.4533 2.30211 4.00623
10.3733 2.41962 4.00243
10.3942 2.52328 4.00107
10.4151 2.62694 3.99969
10.436 2.7306 3.99834
10.356 2.8481 3.99454
10.3769 2.95176 3.99318
10.3978 3.05542 3.99181
10.3178 3.17293 3.98802
10.2378 3.29044 3.98424
10.1577 3.40794 3.98044
10.0777 3.52544 3.97665
9.99766 3.64295 3.97287
9.91762 3.76045 3.96907
9.83758 3.87796 3.96529
9.65659 4.00931 3.95908
9.57656 4.12681 3.95529
9.59747 4.23047 3.95392
9.61839 4.33413 3.95256
9.53835 4.45163 3.94876
9.55927 4.55529 3.9474
9.47923 4.6728 3.9436
9.39919 4.7903 3.93982
9.42011 4.89396 3.93846
9.23912 5.02531 3.93224
7.2087 -11.2081 3.17305
7.73437 -11.1737 3.18381
7.95719 -11.0977 3.18729
8.07906 -11.0079 3.18834
8.20093 -10.9181 3.18939
8.32279 -10.8283 3.19046
8.34371 -10.7246 3.18909
8.46557 -10.6348 3.19014
8.48649 -10.5311 3.18878
8.50741 -10.4275 3.18741
8.62927 -10.3377 3.18846
9.35685 -10.3309 3.20407
9.57967 -10.255 3.20755
9.70154 -10.1651 3.2086
9.72245 -10.0615 3.20723
9.84432 -9.97166 3.2083
9.96619 -9.88185 3.20935
10.0881 -9.79203 3.2104
10.109 -9.68837 3.20905
10.2308 -9.59855 3.2101
10.3527 -9.50874 3.21115
10.4746 -9.41892 3.21222
10.4955 -9.31526 3.21085
10.6174 -9.22545 3.2119
10.6383 -9.12178 3.21054
10.7601 -9.03197 3.21159
10.781 -8.92831 3.21024
10.9029 -8.83849 3.21129
10.9238 -8.73483 3.20992
11.0457 -8.64502 3.21098
11.0666 -8.54136 3.20961
11.1885 -8.45154 3.21066
11.2094 -8.34788 3.2093
11.3313 -8.25807 3.21036
11.3522 -8.15441 3.209
11.3731 -8.05075 3.20763
11.495 -7.96093 3.20868
11.5159 -7.85727 3.20732
11.5368 -7.75361 3.20595
11.6587 -7.66379 3.20702
11.6796 -7.56013 3.20564
11.7005 -7.45647 3.20428
11.8224 -7.36666 3.20534
11.8433 -7.263 3.20396
11.8642 -7.15934 3.20261
11.986 -7.06952 3.20366
12.007 -6.96586 3.2023
12.0279 -6.8622 3.20093
12.0488 -6.75854 3.19955
12.1707 -6.66872 3.20062
12.1916 -6.56506 3.19925
12.2125 -6.4614 3.19789
12.2334 -6.35775 3.19652
12.2543 -6.25408 3.19516
12.2752 -6.15042 3.19379
12.2962 -6.04676 3.19243
12.3171 -5.9431 3.19106
12.237 -5.8256 3.18727
12.2579 -5.72194 3.1859
12.2789 -5.61828 3.18454
12.2998 -5.51462 3.18317
12.3207 -5.41096 3.18181
12.3416 -5.3073 3.18044
12.3625 -5.20364 3.17908
12.2825 -5.08613 3.17528
12.3034 -4.98247 3.17392
12.3243 -4.87881 3.17255
12.2443 -4.76131 3.16876
12.2652 -4.65765 3.16739
12.2861 -4.55399 3.16603
12.2061 -4.43649 3.16225
12.227 -4.33282 3.16087
12.2479 -4.22916 3.1595
12.1679 -4.11166 3.15572
12.1888 -4.008 3.15436
12.2097 -3.90434 3.15298
12.1297 -3.78683 3.1492
12.1506 -3.68317 3.14783
12.1715 -3.57951 3.14647
12.0915 -3.46201 3.14267
12.1124 -3.35835 3.14131
12.1333 -3.25469 3.13994
12.0532 -3.13719 3.13615
12.0742 -3.03352 3.1348
11.9941 -2.91602 3.131
12.015 -2.81236 3.12964
12.036 -2.7087 3.12827
12.0569 -2.60504 3.12691
11.9768 -2.48754 3.12311
11.9978 -2.38388 3.12175
12.0187 -2.28021 3.12038
11.9386 -2.16271 3.11659
11.9595 -2.05905 3.11522
11.8795 -1.94155 3.11143
11.7995 -1.82404 3.10765
11.8204 -1.72038 3.10628
11.7403 -1.60288 3.10249
11.6923 -7.87505 3.17657
11.6586 -7.77482 3.17522
11.7192 -7.6361 3.17627
12.1572 -7.34344 3.18703
12.3122 -7.16624 3.19051
12.3729 -7.02752 3.19156
12.4335 -6.8888 3.19261
12.5885 -6.7116 3.19609
12.5547 -6.61137 3.19473
12.6154 -6.47266 3.19579
12.5817 -6.37242 3.19443
12.5479 -6.27219 3.19305
12.6086 -6.13348 3.19411
12.5749 -6.03325 3.19275
12.7298 -5.85605 3.19623
12.8848 -5.67884 3.19971
12.8511 -5.57861 3.19833
12.9117 -5.4399 3.1994
12.878 -5.33967 3.19803
12.8443 -5.23944 3.19667
12.8106 -5.13921 3.1953
12.7769 -5.03898 3.19394
12.7432 -4.93875 3.19257
12.7094 -4.83852 3.19121
12.6757 -4.73829 3.18983
12.7364 -4.59957 3.19089
12.7026 -4.49934 3.18953
12.6689 -4.39911 3.18816
12.6352 -4.29888 3.1868
12.6958 -4.16017 3.18785
12.6621 -4.05994 3.18648
12.6284 -3.95971 3.18512
12.5947 -3.85948 3.18375
12.6553 -3.72076 3.18481
12.6216 -3.62053 3.18344
12.5879 -3.5203 3.18208
12.5542 -3.42007 3.18071
12.5204 -3.31984 3.17935
12.4867 -3.21961 3.17798
12.5474 -3.08089 3.17903
12.5136 -2.98066 3.17767
12.4799 -2.88043 3.1763
12.4462 -2.7802 3.17494
12.5068 -2.64149 3.17599
12.4731 -2.54126 3.17464
12.4394 -2.44103 3.17326
12.4057 -2.3408 3.17191
12.372 -2.24057 3.17053
12.3383 -2.14034 3.16916
12.3045 -2.04011 3.1678
12.2708 -1.93988 3.16643
12.2371 -1.83965 3.16507
12.2977 -1.70093 3.16612
12.264 -1.6007 3.16476
12.2303 -1.50047 3.16339
12.1966 -1.40024 3.16203
12.1629 -1.30001 3.16066
12.2235 -1.1613 3.16171
12.1898 -1.06107 3.16035
12.1561 -0.960837 3.15898
12.1224 -0.860606 3.15762
12.0886 -0.760376 3.15625
12.0549 -0.660146 3.15489
12.0212 -0.559917 3.15352
11.9875 -0.459687 3.15216
11.9538 -0.359457 3.15079
11.9201 -0.259226 3.14943
11.8863 -0.158997 3.14806
11.8526 -0.0587683 3.1467
11.8189 0.0414624 3.14532
11.7852 0.141693 3.14397
11.7515 0.241923 3.14259
11.7178 0.342153 3.14124
11.684 0.442382 3.13986
11.7447 0.581099 3.14091
11.7109 0.681328 3.13956
11.6772 0.781559 3.13818
11.6435 0.881787 3.13683
11.7041 1.0205 3.13788
11.6704 1.12073 3.13651
11.6367 1.22096 3.13515
11.603 1.32119 3.13377
11.5693 1.42142 3.13242
11.5356 1.52165 3.13104
11.5018 1.62188 3.12968
11.4681 1.72211 3.12831
11.4344 1.82234 3.12695
11.4007 1.92257 3.12558
11.367 2.0228 3.12422
11.3333 2.12303 3.12285
11.2995 2.22326 3.12149
11.2658 2.32349 3.12012
11.2321 2.42372 3.11876
11.1984 2.52395 3.11739
11.1647 2.62418 3.11603
11.131 2.72441 3.11465
11.0972 2.82464 3.1133
11.0635 2.92487 3.11192
11.1242 3.06359 3.11298
11.0904 3.16382 3.11162
11.0567 3.26405 3.11024
10.9287 3.32579 3.10646
10.8949 3.42602 3.10509
10.8612 3.52625 3.10373
10.8275 3.62648 3.10236
11.4749 1.38294 4.12999
11.4412 1.48317 4.12863
11.4075 1.5834 4.12726
11.3738 1.68363 4.1259
11.3401 1.78386 4.12453
11.3063 1.88409 4.12315
11.2726 1.98432 4.1218
11.2389 2.08455 4.12042
11.2052 2.18478 4.11906
11.2658 2.32349 4.12012
11.2321 2.42372 4.11876
11.1984 2.52395 4.11739
11.1647 2.62418 4.11603
11.131 2.72441 4.11465
11.0972 2.82464 4.1133
11.0635 2.92487 4.11192
11.0298 3.0251 4.11057
10.9961 3.12533 4.10919
10.9624 3.22556 4.10782
10.8343 3.28731 4.10403
10.8006 3.38753 4.10268
10.7669 3.48777 4.1013
10.7332 3.588 4.09995
10.6994 3.68823 4.09857
10.5714 3.74997 4.09479
10.5377 3.8502 4.09341
10.5039 3.95043 4.09206
10.4702 4.05066 4.09068
10.4365 4.15089 4.08932
10.4028 4.25112 4.08795
10.3691 4.35135 4.08659
10.3354 4.45158 4.08522
10.3016 4.55181 4.08386
10.2679 4.65204 4.08249
10.1398 4.71378 4.0787
10.1061 4.81401 4.07733
10.0724 4.91424 4.07597
10.0387 5.01447 4.0746
10.005 5.1147 4.07324
9.87692 5.17645 4.06944
9.8432 5.27668 4.06808
9.80949 5.37691 4.06671
9.77577 5.47714 4.06535
9.6477 5.53888 4.06155
9.61398 5.63911 4.0602
9.58027 5.73934 4.05882
9.54655 5.83957 4.05746
9.51284 5.9398 4.05609
9.47912 6.04003 4.05473
9.35105 6.10177 4.05093
9.22299 6.16352 4.04715
12.9875 -4.77071 4.1109
12.9706 -4.62026 4.11195
12.9538 -4.46981 4.11301
12.9369 -4.31937 4.11406
12.9825 -4.08841 4.11755
13.0282 -3.85746 4.12103
13.0113 -3.70702 4.12209
12.9945 -3.55657 4.12314
12.9151 -3.48662 4.12178
12.8983 -3.33617 4.12283
12.819 -3.26623 4.12146
12.8021 -3.11579 4.12253
12.7228 -3.04584 4.12115
12.706 -2.89539 4.12221
12.6891 -2.74495 4.12328
12.6723 -2.5945 4.12433
12.5929 -2.52455 4.12296
12.5761 -2.3741 4.12402
12.4968 -2.30416 4.12265
12.4175 -2.23422 4.12129
12.4631 -2.00327 4.12477
12.4462 -1.85282 4.12582
12.4294 -1.70237 4.12688
12.3501 -1.63243 4.12552
12.3332 -1.48198 4.12657
12.2539 -1.41204 4.12521
12.1746 -1.34209 4.12384
12.0953 -1.27215 4.12248
12.0784 -1.1217 4.12354
9.43844 6.49434 4.13062
9.35912 6.56429 4.12924
9.27981 6.63423 4.12788
9.20049 6.70417 4.12651
9.12118 6.77411 4.12514
9.04186 6.84406 4.12378
8.96255 6.914 4.12241
8.88324 6.98395 4.12105
8.86639 7.1344 4.1221
8.78707 7.20434 4.12074
8.70776 7.27428 4.11937
8.62844 7.34423 4.11801
8.48666 7.33366 4.11421
8.40735 7.40361 4.11285
8.32803 7.47355 4.11148
8.24872 7.54349 4.11012
8.1694 7.61343 4.10875
8.09009 7.68338 4.10739
8.01077 7.75332 4.10602
7.93146 7.82326 4.10466
7.85214 7.89321 4.10329
7.77283 7.96315 4.10193
7.63105 7.95259 4.09813
7.55173 8.02253 4.09677
7.47242 8.09248 4.0954
7.39311 8.16242 4.09404
7.31379 8.23236 4.09267
7.23448 8.30231 4.09131
7.15516 8.37225 4.08994
7.01338 8.36169 4.08615
6.93407 8.43163 4.08478
6.85475 8.50158 4.08342
6.71297 8.49101 4.07962
6.63365 8.56095 4.07826
6.55434 8.6309 4.07689
6.47502 8.70084 4.07553
6.33325 8.69028 4.07175
6.25393 8.76023 4.07037
6.04968 8.66916 4.06416
5.90791 8.65859 4.06038
5.70366 8.56753 4.05415
5.49941 8.47647 4.04794
5.4201 8.54641 4.04659
5.27832 8.53584 4.04279
5.199 8.60579 4.04143
5.11969 8.67573 4.04005
4.97791 8.66517 4.03627
4.89859 8.73511 4.03491
4.56941 8.48304 4.02385
4.42764 8.47247 4.02007
4.28586 8.46191 4.01627
4.20654 8.53186 4.01491
4.06476 8.52129 4.01111
12.0973 0.62429 3.14137
12.018 0.694232 3.14
12.0012 0.844684 3.14107
11.9219 0.914627 3.13969
11.905 1.06507 3.14075
11.8257 1.13502 3.13939
11.8088 1.28546 3.14044
11.7295 1.35541 3.13908
11.6502 1.42535 3.13771
11.6334 1.5758 3.13876
11.5541 1.64574 3.13741
11.5372 1.79619 3.13846
11.5203 1.94664 3.13953
11.5035 2.09709 3.14058
11.4867 2.24753 3.14163
11.4698 2.39798 3.14268
11.3905 2.46792 3.14133
11.3736 2.61837 3.14238
11.2943 2.68832 3.14102
11.215 2.75826 3.13965
11.1982 2.90871 3.1407
11.1188 2.97865 3.13934
11.102 3.1291 3.1404
11.0227 3.19904 3.13904
11.0058 3.34949 3.14009
10.9265 3.41943 3.13872
10.9097 3.56988 3.13979
10.8928 3.72033 3.14084
10.876 3.87078 3.14189
10.7967 3.94072 3.14053
10.7798 4.09117 3.14159
10.763 4.24162 3.14264
10.6836 4.31156 3.14128
10.6668 4.46201 3.14233
10.6499 4.61245 3.14339
10.5706 4.6824 3.14203
10.5538 4.83284 3.14308
10.4745 4.90279 3.14171
10.4576 5.05324 3.14278
10.3783 5.12318 3.1414
10.299 5.19312 3.14005
10.2821 5.34357 3.1411
10.2028 5.41351 3.13972
10.186 5.56396 3.14079
10.1067 5.6339 3.13942
10.0273 5.70385 3.13806
10.0105 5.8543 3.13911
9.93118 5.92424 3.13774
9.85186 5.99418 3.13638
9.77255 6.06413 3.13501
9.69323 6.13407 3.13365
9.61392 6.20401 3.13228
9.53461 6.27396 3.13092
9.51775 6.4244 3.13197
9.43844 6.49434 3.13062
9.35912 6.56429 3.12924
9.27981 6.63423 3.12788
9.26296 6.78468 3.12894
9.18365 6.85462 3.12756
9.10433 6.92457 3.12621
9.02502 6.99451 3.12483
8.9457 7.06445 3.12347
8.86639 7.1344 3.1221
8.78707 7.20434 3.12074
8.70776 7.27428 3.11937
8.62844 7.34423 3.11801
8.54913 7.41417 3.11664
8.46981 7.48411 3.11528
8.3905 7.55405 3.11391
8.24872 7.54349 3.11012
8.1694 7.61343 3.10875
8.09009 7.68338 3.10739
8.01077 7.75332 3.10602
7.93146 7.82326 3.10466
7.85214 7.89321 3.10329
7.77283 7.96315 3.10193
9.21766 6.6766 3.12665
9.12785 6.79847 3.12772
9.02419 6.81938 3.12634
8.93437 6.94125 3.12741
8.83071 6.96217 3.12604
8.74089 7.08403 3.12709
8.63723 7.10495 3.12573
8.6028 7.63062 3.13647
8.52682 7.85344 3.13995
8.43701 7.97531 3.14102
8.33335 7.99623 3.13965
8.24353 8.11809 3.1407
8.13987 8.13901 3.13934
8.03621 8.15992 3.13797
7.93255 8.18084 3.13661
7.84274 8.3027 3.13766
7.73908 8.32362 3.13631
7.64926 8.44548 3.13736
7.5456 8.4664 3.13599
7.45578 8.58827 3.13705
7.35212 8.60919 3.13568
7.24846 8.6301 3.13432
7.1448 8.65102 3.13295
7.04114 8.67193 3.13158
6.93748 8.69285 3.13022
6.83382 8.71376 3.12885
6.74401 8.83563 3.12991
6.64035 8.85654 3.12854
6.53669 8.87746 3.12718
6.43303 8.89837 3.12581
6.32937 8.91929 3.12445
6.22571 8.9402 3.12308
6.12205 8.96112 3.12172
6.01839 8.98203 3.12035
5.91473 9.00295 3.11899
5.81107 9.02386 3.11761
5.70741 9.04478 3.11624
5.60374 9.06569 3.11488
5.50009 9.08661 3.11351
5.39643 9.10753 3.11215
5.29276 9.12844 3.11078
5.1891 9.14935 3.10942
5.08544 9.17027 3.10805
4.98178 9.19119 3.10669
4.87812 9.2121 3.10532
9.12785 6.79847 4.12772
9.03803 6.92034 4.12877
8.93437 6.94125 4.12741
8.83071 6.96217 4.12604
8.74089 7.08403 4.12709
8.63723 7.10495 4.12573
8.53357 7.12586 4.12436
6.93748 8.69285 4.13022
6.83382 8.71376 4.12885
6.73016 8.73467 4.12749
6.6265 8.75559 4.12611
6.52284 8.77651 4.12476
6.41918 8.79742 4.12338
6.31552 8.81834 4.12202
6.22571 8.9402 4.12308
6.12205 8.96112 4.12172
6.01839 8.98203 4.12035
5.91473 9.00295 4.11899
5.81107 9.02386 4.11761
5.70741 9.04478 4.11624
5.60374 9.06569 4.11488
5.50009 9.08661 4.11351
5.39643 9.10753 4.11215
5.29276 9.12844 4.11078
5.1891 9.14935 4.10942
5.08544 9.17027 4.10805
4.98178 9.19119 4.10669
4.86428 9.11115 4.10289
4.76062 9.13206 4.10153
4.65696 9.15298 4.10016
4.5533 9.17389 4.0988
4.44964 9.19481 4.09743
4.34598 9.21572 4.09607
4.24232 9.23664 4.0947
4.13866 9.25755 4.09334
4.035 9.27847 4.09196
3.93134 9.29939 4.09061
3.82768 9.3203 4.08923
3.72402 9.34121 4.08788
3.60651 9.26118 4.08408
3.50285 9.28209 4.08272
3.39919 9.30301 4.08134
3.28169 9.22297 4.07756
3.17803 9.24388 4.0762
3.07437 9.2648 4.07483
2.95686 9.18477 4.07104
2.83936 9.10473 4.06725
2.7357 9.12564 4.06589
2.61819 9.0456 4.06209
2.51453 9.06652 4.06073
2.41087 9.08744 4.05936
2.30721 9.10835 4.058
2.18971 9.02831 4.05421
2.08605 9.04923 4.05284
1.88548 8.36348 4.03452
1.76797 8.28344 4.03073
1.65047 8.2034 4.02693
1.53297 8.12337 4.02315
1.42931 8.14429 4.02177
1.3118 8.06425 4.01799
1.20814 8.08517 4.01663
1.09064 8.00513 4.01283
0.986977 8.02604 4.01147
0.869471 7.94601 4.00768
0.765812 7.96692 4.00632
0.648307 7.88689 4.00253
0.544647 7.9078 4.00116
0.427144 7.82776 3.99738
0.309638 7.74772 3.99358
0.178289 7.56674 3.98737
0.0469384 7.38575 3.98116
-0.0705637 7.30571 3.97737
6.85586 8.88165 4.09489
6.71715 8.94227 4.09595
6.61692 8.90856 4.09459
6.4782 8.96919 4.09564
6.33949 9.02983 4.09669
6.20077 9.09045 4.09776
6.06206 9.15109 4.09882
5.92334 9.21172 4.09987
5.82311 9.178 4.09851
5.68439 9.23864 4.09956
5.58416 9.20492 4.09819
5.44545 9.26555 4.09926
5.34522 9.23183 4.09789
5.2065 9.29246 4.09894
5.06778 9.3531 4.10001
4.96755 9.31938 4.09863
4.82884 9.38001 4.09969
4.69012 9.44064 4.10075
4.5514 9.50128 4.10181
4.41269 9.56191 4.10286
4.31246 9.52819 4.1015
4.17374 9.58882 4.10255
4.07351 9.55511 4.10118
3.97328 9.52139 4.09982
3.87305 9.48767 4.09845
3.77282 9.45395 4.09709
3.67259 9.42024 4.09572
3.53388 9.48087 4.09679
3.43365 9.44715 4.09541
3.33342 9.41344 4.09406
3.23319 9.37972 4.09268
3.13296 9.346 4.09132
3.03273 9.31229 4.08995
2.9325 9.27857 4.08859
2.83227 9.24485 4.08722
2.73204 9.21113 4.08585
2.63181 9.17742 4.08449
2.53158 9.1437 4.08311
2.43135 9.10999 4.08176
2.33112 9.07627 4.08038
2.23089 9.04255 4.07903
2.13066 9.00883 4.07765
2.03043 8.97512 4.07629
1.89171 9.03575 4.07735
1.79148 9.00203 4.07599
1.69125 8.96831 4.07462
1.59102 8.9346 4.07326
1.49079 8.90088 4.07188
1.42905 8.77282 4.0681
1.32882 8.7391 4.06673
1.22859 8.70538 4.06537
1.12836 8.67166 4.064
1.02813 8.63795 4.06264
0.927898 8.60423 4.06126
0.827669 8.57051 4.05991
0.727438 8.53679 4.05853
0.627208 8.50308 4.05716
0.526978 8.46936 4.0558
0.426749 8.43564 4.05443
0.32652 8.40193 4.05307
0.226289 8.36821 4.0517
0.126059 8.33449 4.05034
0.0258286 8.30078 4.04897
-0.0743997 8.26706 4.04761
-0.136145 8.13899 4.04382
-0.236374 8.10528 4.04245
-0.336604 8.07156 4.04108
-0.436836 8.03784 4.03972
-0.537064 8.00412 4.03835
-0.637294 7.97041 4.03699
-0.699037 7.84234 4.0332
-0.799267 7.80862 4.03183
-0.899497 7.77491 4.03047
-0.999725 7.74119 4.0291
-1.06147 7.61312 4.02531
-1.1617 7.57941 4.02394
-1.26193 7.54569 4.02258
-1.32367 7.41762 4.01878
-1.38542 7.28956 4.015
-1.48565 7.25584 4.01363
-1.54739 7.12778 4.00984
-1.60914 6.99971 4.00606
-1.67088 6.87164 4.00226
-1.61716 6.46053 3.99121
5.50719 9.39362 3.10304
5.32999 9.54859 3.10652
5.19127 9.60923 3.10757
5.09104 9.57551 3.10622
4.95232 9.63615 3.10727
4.85209 9.60243 3.10591
4.75186 9.56871 3.10454
4.65163 9.53499 3.10316
4.51292 9.59562 3.10423
4.41269 9.56191 3.10286
0.510757 9.07926 4.05167
0.279805 9.12487 4.05515
0.209861 9.04556 4.05379
0.059413 9.02871 4.05484
-0.0105276 8.94939 4.05347
-0.0804715 8.87008 4.05211
-0.150414 8.79076 4.05074
-0.22036 8.71145 4.04938
-0.370808 8.6946 4.05043
-0.440748 8.61528 4.04907
-0.591196 8.59844 4.05013
-0.66114 8.51912 4.04875
-0.811592 8.50227 4.04982
-0.881535 8.42296 4.04845
-1.03198 8.40611 4.0495
-1.10192 8.32679 4.04814
-1.17186 8.24748 4.04677
-1.24181 8.16817 4.04541
-1.31175 8.08885 4.04404
-1.38169 8.00953 4.04268
-1.45164 7.93022 4.04131
-1.60209 7.91337 4.04237
-1.67203 7.83406 4.041
-1.74197 7.75474 4.03964
-1.81192 7.67543 4.03827
-1.88186 7.59611 4.0369
-1.9518 7.5168 4.03554
-2.02175 7.43749 4.03416
-2.09169 7.35817 4.03281
-2.16163 7.27886 4.03143
-2.23158 7.19954 4.03008
-2.30152 7.12023 4.0287
-2.37146 7.04091 4.02734
-2.4414 6.9616 4.02597
-2.51135 6.88228 4.02461
-2.58129 6.80297 4.02324
-2.65124 6.72365 4.02188
-2.72118 6.64434 4.02051
-2.79112 6.56502 4.01915
-2.86106 6.48571 4.01778
-2.93101 6.40639 4.01642
-3.00095 6.32708 4.01505
-3.07089 6.24776 4.01369
-3.14084 6.16845 4.01231
-3.21078 6.08914 4.01096
-3.28072 6.00982 4.00958
-3.35067 5.93051 4.00822
-3.42061 5.85119 4.00685
-3.49055 5.77188 4.00548
-3.5605 5.69256 4.00412
-3.63044 5.61325 4.00275
-3.70038 5.53393 4.00139
-3.77032 5.45462 4.00002
-3.84027 5.3753 3.99866
-3.91021 5.29599 3.99728
-3.98016 5.21667 3.99593
-4.0501 5.13736 3.99455
-4.12004 5.05804 3.99319
-4.18998 4.97873 3.99182
-4.25993 4.89942 3.99046
-4.32987 4.8201 3.98909
-4.31931 4.67832 3.98531
-4.38925 4.599 3.98393
-4.45919 4.51969 3.98257
-4.52914 4.44037 3.9812
-4.59908 4.36106 3.97984
-4.58852 4.21928 3.97604
-4.65846 4.13997 3.97469
-4.72841 4.06065 3.97331
-4.71784 3.91887 3.96953
-4.35916 5.27789 4.00752
-4.38007 5.17423 4.00615
-4.50194 5.08441 4.0072
-4.52286 4.98075 4.00584
-4.64473 4.89094 4.0069
-4.66564 4.78728 4.00554
-4.68655 4.68361 4.00417
-4.70747 4.57995 4.00281
-4.72839 4.47629 4.00143
-4.7493 4.37263 4.00008
-4.77021 4.26897 3.9987
-4.79113 4.16531 3.99733
-4.81205 4.06165 3.99597
-4.83296 3.95799 3.9946
-4.85388 3.85433 3.99324
-4.87479 3.75067 3.99187
-4.89571 3.64701 3.99051
-5.01757 3.5572 3.99156
-5.03849 3.45354 3.9902
-5.05941 3.34988 3.98883
-5.08032 3.24622 3.98747
-5.10123 3.14256 3.9861
-5.12215 3.0389 3.98474
-5.04211 2.92139 3.98094
-5.06303 2.81773 3.97958
-5.08394 2.71407 3.97821
-5.10486 2.61041 3.97685
-5.02482 2.49291 3.97305
-5.04574 2.38925 3.97169
-5.06665 2.28559 3.97032
-5.08757 2.18193 3.96896
-5.10848 2.07827 3.96759
-5.1294 1.97461 3.96623
-5.15031 1.87094 3.96486
-5.17123 1.76728 3.9635
-5.19214 1.66363 3.96213
-5.21306 1.55997 3.96077
-5.13302 1.44246 3.95697
-5.15393 1.3388 3.95561
-5.0739 1.2213 3.95181
-5.09481 1.11764 3.95045
-5.11573 1.01398 3.94908
-5.13665 0.910317 3.94772
-5.15756 0.806656 3.94635
-5.17847 0.702996 3.94499
-5.19939 0.599336 3.94362
-5.22031 0.495675 3.94226
-5.24122 0.392015 3.94089
-5.26214 0.288356 3.93953
-5.28305 0.184695 3.93816
-5.30397 0.0810357 3.9368
-5.32488 -0.0226257 3.93542
-5.24485 -0.140129 3.93164
-5.26576 -0.243791 3.93027
-5.28667 -0.347449 3.92891
-5.30759 -0.45111 3.92754
-5.32851 -0.55477 3.92618
-5.34942 -0.658429 3.9248
-5.26938 -0.775937 3.92102
-5.2903 -0.879597 3.91965
-5.31121 -0.983257 3.91829
-5.33213 -1.08692 3.91692
-5.35304 -1.19058 3.91556
-5.37395 -1.29424 3.91418
-5.29392 -1.41174 3.9104
-5.31484 -1.5154 3.90903
-5.33575 -1.61906 3.90767
-5.35667 -1.72272 3.9063
-5.37758 -1.82638 3.90494
-5.39849 -1.93004 3.90356
-5.41941 -2.0337 3.90221
-5.33938 -2.15121 3.89841
-5.36029 -2.25487 3.89705
-5.28025 -2.37237 3.89326
-4.89736 -2.53141 3.8822
-6.10354 -0.44569 3.98654
-6.16417 -0.584404 3.98759
-6.13045 -0.684636 3.98624
-6.09674 -0.784866 3.98486
-6.06302 -0.885093 3.98351
-6.12365 -1.02381 3.98456
-6.08993 -1.12404 3.98318
-6.05622 -1.22427 3.98183
-6.0225 -1.3245 3.98045
-5.98878 -1.42473 3.9791
-5.95507 -1.52496 3.97772
-5.92135 -1.62519 3.97636
-5.88763 -1.72542 3.97499
-5.85391 -1.82565 3.97363
-5.91455 -1.96437 3.97469
-5.88083 -2.0646 3.97331
-5.84712 -2.16483 3.97195
-5.8134 -2.26506 3.97058
-5.77968 -2.36529 3.96922
-5.74596 -2.46552 3.96785
-5.71225 -2.56575 3.96649
-5.67853 -2.66598 3.96512
-5.64482 -2.76621 3.96376
-5.6111 -2.86644 3.96239
-5.57738 -2.96667 3.96103
-5.54366 -3.0669 3.95966
-5.50995 -3.16713 3.9583
-5.47623 -3.26736 3.95692
-5.44251 -3.36759 3.95557
-5.40879 -3.46782 3.95419
-5.37508 -3.56805 3.95284
-5.34136 -3.66828 3.95146
-5.21329 -3.73002 3.94768
-5.17957 -3.83025 3.9463
-5.14586 -3.93048 3.94495
-5.11214 -4.03071 3.94357
-5.07843 -4.13094 3.94221
-5.0447 -4.23117 3.94084
-5.01099 -4.3314 3.93948
-4.97727 -4.43163 3.93811
-4.94356 -4.53186 3.93675
-4.90984 -4.63209 3.93538
-4.87612 -4.73232 3.93401
-4.8424 -4.83255 3.93265
-4.71434 -4.89429 3.92886
-4.68062 -4.99452 3.92749
-4.6469 -5.09475 3.92613
-4.61319 -5.19498 3.92476
-4.48512 -5.25672 3.92097
-4.45141 -5.35696 3.9196
-4.41769 -5.45719 3.91824
-4.28962 -5.51893 3.91444
-4.16156 -5.58067 3.91066
-4.12784 -5.6809 3.9093
-4.09412 -5.78113 3.90793
-4.06041 -5.88136 3.90656
-4.02669 -5.98159 3.9052
-3.99297 -6.08182 3.90382
-3.95925 -6.18205 3.90247
-3.83119 -6.2438 3.89868
-3.79747 -6.34403 3.89731
-3.6694 -6.40577 3.89352
-3.63569 -6.506 3.89215
-3.60197 -6.60623 3.89079
-3.56826 -6.70646 3.88942
-3.44019 -6.7682 3.88564
-3.40647 -6.86843 3.88426
-3.2784 -6.93017 3.88048
-3.24469 -7.0304 3.8791
-3.21097 -7.13064 3.87775
-3.0829 -7.19238 3.87396
-3.04919 -7.29261 3.87259
-3.01547 -7.39284 3.87123
-4.43051 -5.89373 3.99451
-4.41366 -6.04418 3.99556
-4.33435 -6.11412 3.9942
-4.3175 -6.26457 3.99525
-4.23818 -6.33451 3.9939
-4.22133 -6.48496 3.99495
-4.14202 -6.5549 3.99358
-4.06271 -6.62484 3.99222
-3.98339 -6.69479 3.99084
-3.90408 -6.76473 3.98949
-3.82476 -6.83467 3.98811
-3.74545 -6.90462 3.98676
-3.7286 -7.05507 3.98781
-3.64928 -7.12501 3.98645
-3.63243 -7.27546 3.9875
-3.55312 -7.3454 3.98613
-3.47381 -7.41534 3.98477
-3.45696 -7.56579 3.98582
-3.37764 -7.63573 3.98447
-3.29833 -7.70568 3.98309
-3.21901 -7.77562 3.98172
-3.20216 -7.92607 3.98279
-3.12285 -7.99601 3.98141
-3.04353 -8.06595 3.98006
-3.02668 -8.2164 3.98111
-2.94737 -8.28635 3.97974
-2.86805 -8.35629 3.97838
-2.78874 -8.42623 3.97701
-2.70942 -8.49617 3.97565
-2.63011 -8.56612 3.97427
-2.5508 -8.63606 3.97292
-2.47148 -8.70601 3.97154
-2.39217 -8.77595 3.97018
-2.31285 -8.84589 3.96881
-2.23354 -8.91583 3.96745
-2.21669 -9.06629 3.96851
-2.13738 -9.13623 3.96713
-2.05806 -9.20617 3.96577
-1.97875 -9.27611 3.9644
-1.89943 -9.34606 3.96304
-1.82012 -9.416 3.96167
-1.7408 -9.48594 3.96031
-1.66149 -9.55588 3.95894
-1.58217 -9.62583 3.95758
-1.50286 -9.69577 3.95621
-1.42354 -9.76572 3.95485
-1.34423 -9.83566 3.95348
-1.20245 -9.8251 3.94969
-1.12313 -9.89504 3.94832
-1.04382 -9.96498 3.94696
-0.964502 -10.0349 3.94559
-0.885186 -10.1049 3.94423
-0.805871 -10.1748 3.94286
-0.726558 -10.2448 3.9415
-0.647244 -10.3147 3.94012
-0.567929 -10.3846 3.93877
-0.426148 -10.3741 3.93497
-0.346833 -10.444 3.93361
-0.205054 -10.4335 3.92982
-0.125741 -10.5034 3.92845
-0.0464268 -10.5733 3.92709
0.095356 -10.5628 3.92329
0.174671 -10.6327 3.92194
0.31645 -10.6222 3.91814
0.395764 -10.6921 3.91678
0.537546 -10.6815 3.91299
0.616861 -10.7515 3.91162
0.75864 -10.7409 3.90784
0.837954 -10.8109 3.90646
0.979735 -10.8003 3.90268
1.12152 -10.7897 3.89888
1.2633 -10.7792 3.8951
