ply
format ascii 1.0
comment VCGLIB generated
element vertex 1233
property float x
property float y
property float z
element face 0
property list uchar int vertex_indices
end_header
3.04201 -11.9695 4.16208
3.27296 -12.0151 4.16556
3.42341 -11.9983 4.16661
3.57386 -11.9814 4.16766
3.72431 -11.9646 4.16873
3.95526 -12.0102 4.17221
4.18621 -12.0558 4.17569
4.33666 -12.039 4.17674
4.48711 -12.0221 4.1778
4.63756 -12.0053 4.17886
4.788 -11.9884 4.17992
4.93845 -11.9716 4.18097
5.0889 -11.9547 4.18204
5.23935 -11.9379 4.18309
5.3898 -11.921 4.18414
5.54024 -11.9042 4.1852
5.69069 -11.8873 4.18626
5.84114 -11.8705 4.18732
5.91108 -11.7912 4.18594
6.06153 -11.7743 4.18701
6.21198 -11.7575 4.18806
6.28192 -11.6782 4.18669
6.43237 -11.6613 4.18776
6.50231 -11.582 4.18639
6.65276 -11.5651 4.18744
6.80321 -11.5483 4.18851
6.87315 -11.469 4.18713
7.0236 -11.4521 4.18819
7.09354 -11.3728 4.18683
7.24399 -11.356 4.18788
7.31393 -11.2766 4.18652
7.46438 -11.2598 4.18758
7.53432 -11.1805 4.1862
7.68477 -11.1636 4.18727
7.91572 -11.2093 4.19075
7.98567 -11.1299 4.18938
8.05561 -11.0506 4.18802
8.20606 -11.0338 4.18907
8.276 -10.9545 4.18771
8.34594 -10.8751 4.18634
8.49639 -10.8583 4.18739
8.56634 -10.779 4.18604
8.63628 -10.6997 4.18466
8.70622 -10.6203 4.1833
8.77616 -10.541 4.18193
8.92661 -10.5242 4.18298
8.99655 -10.4449 4.18163
9.0665 -10.3656 4.18025
9.13644 -10.2862 4.17889
9.20638 -10.2069 4.17752
9.35683 -10.1901 4.17859
9.42678 -10.1108 4.17722
9.49672 -10.0315 4.17586
9.56666 -9.95213 4.17448
9.63661 -9.87282 4.17313
9.70655 -9.79351 4.17175
9.77649 -9.71419 4.17039
9.84644 -9.63488 4.16902
9.91638 -9.55556 4.16765
9.98632 -9.47625 4.16629
10.0563 -9.39693 4.16492
10.2067 -9.38008 4.16599
10.2767 -9.30077 4.16461
10.3466 -9.22145 4.16325
10.4165 -9.14214 4.16188
10.4865 -9.06283 4.16052
10.5564 -8.98351 4.15915
10.6264 -8.90419 4.15779
10.6963 -8.82488 4.15642
10.7663 -8.74557 4.15506
10.8362 -8.66625 4.15369
10.9061 -8.58694 4.15231
10.9761 -8.50762 4.15096
11.046 -8.42831 4.14958
11.116 -8.34899 4.14822
11.1859 -8.26968 4.14685
11.2559 -8.19036 4.14549
11.3258 -8.11105 4.14412
11.3957 -8.03173 4.14276
11.3852 -7.88995 4.13898
11.4551 -7.81064 4.1376
11.5251 -7.73132 4.13623
11.595 -7.65201 4.13487
11.5845 -7.51023 4.13109
10.5564 -8.98351 5.15915
10.6264 -8.90419 5.15779
10.6963 -8.82488 5.15642
10.7663 -8.74557 5.15506
10.8362 -8.66625 5.15369
10.9061 -8.58694 5.15231
10.9761 -8.50762 5.15096
11.046 -8.42831 5.14958
11.116 -8.34899 5.14822
11.1859 -8.26968 5.14685
11.1754 -8.1279 5.14307
11.2453 -8.04858 5.14171
11.3152 -7.96927 5.14034
11.3047 -7.82749 5.13655
11.3746 -7.74817 5.13518
11.3641 -7.60639 5.13139
11.434 -7.52708 5.13002
11.4234 -7.38529 5.12624
11.4934 -7.30598 5.12486
11.4828 -7.16421 5.12108
11.4723 -7.02242 5.11729
11.5422 -6.94311 5.11592
11.6121 -6.8638 5.11456
11.6016 -6.72201 5.11076
11.6715 -6.6427 5.10941
11.7415 -6.56338 5.10803
11.7309 -6.42161 5.10425
11.7204 -6.27982 5.10046
11.7903 -6.20051 5.09909
11.7797 -6.05873 5.09531
11.8497 -5.97941 5.09393
11.8391 -5.83764 5.09015
11.8286 -5.69585 5.08636
11.818 -5.55407 5.08257
11.8074 -5.41229 5.07878
11.7969 -5.27051 5.075
11.8668 -5.1912 5.07362
11.8563 -5.04942 5.06984
11.8457 -4.90764 5.06606
11.8351 -4.76586 5.06226
11.8246 -4.62408 5.05847
11.653 -4.35737 5.04984
11.6424 -4.21559 5.04605
11.6319 -4.07381 5.04225
11.6213 -3.93202 5.03847
11.6107 -3.79024 5.03468
11.6002 -3.64846 5.03088
11.5896 -3.50669 5.0271
12.0251 -4.30513 5.15602
12.046 -4.20147 5.15466
12.0669 -4.09781 5.15329
11.9869 -3.98031 5.14951
12.0078 -3.87665 5.14815
12.0287 -3.77299 5.14677
12.0496 -3.66933 5.1454
11.9696 -3.55182 5.14162
11.9905 -3.44817 5.14026
12.0114 -3.3445 5.13889
12.0323 -3.24084 5.13753
11.9523 -3.12334 5.13373
11.9732 -3.01968 5.13237
11.9941 -2.91602 5.131
11.9141 -2.79851 5.12721
11.935 -2.69485 5.12584
11.9559 -2.5912 5.12448
11.8759 -2.47369 5.1207
11.8968 -2.37003 5.11932
11.8168 -2.25253 5.11554
11.8377 -2.14887 5.11417
11.7576 -2.03136 5.11038
11.7786 -1.9277 5.10901
11.6985 -1.8102 5.10522
11.6185 -1.69269 5.10144
11.5384 -1.57519 5.09764
11.5594 -1.47153 5.09628
11.4793 -1.35402 5.09248
11.2983 -1.22267 5.08627
11.3193 -1.11901 5.08492
11.3402 -1.01535 5.08354
11.3611 -0.911694 5.08218
11.382 -0.808033 5.08081
11.4029 -0.704373 5.07945
11.4238 -0.600711 5.07808
11.3438 -0.48321 5.0743
11.3647 -0.379548 5.07292
11.2847 -0.262044 5.06914
11.2046 -0.14454 5.06535
11.0236 -0.0131898 5.05914
11.0446 0.0904697 5.05777
10.9645 0.207972 5.05399
10.9854 0.311632 5.05261
11.0064 0.415292 5.05125
11.0273 0.518955 5.04988
11.0482 0.622615 5.04852
11.0691 0.726275 5.04715
10.9891 0.843778 5.04337
10.909 0.961282 5.03957
10.9299 1.06494 5.03821
10.8499 1.18245 5.03442
10.8708 1.28611 5.03305
10.8917 1.38977 5.03169
10.9126 1.49343 5.03032
10.8326 1.61093 5.02654
10.7526 1.72844 5.02274
10.5716 1.85979 5.01653
10.3906 1.99113 5.01031
10.3106 2.10864 5.00653
10.3315 2.2123 5.00516
10.3524 2.31596 5.0038
10.2724 2.43346 5
10.2933 2.53712 4.99864
10.3142 2.64078 4.99727
10.2341 2.75829 4.99348
10.2551 2.86195 4.99213
10.276 2.96561 4.99075
10.1959 3.08311 4.98697
10.1159 3.20062 4.98317
9.93491 3.33197 4.97696
9.85488 3.44947 4.97318
9.87579 3.55313 4.9718
9.79575 3.67064 4.96802
9.81667 3.7743 4.96666
9.73663 3.8918 4.96286
9.65659 4.00931 4.95908
9.47561 4.14066 4.95287
9.29462 4.272 4.94666
9.21458 4.38951 4.94286
9.2355 4.49317 4.9415
9.15546 4.61067 4.9377
9.17638 4.71433 4.93634
9.09634 4.83184 4.93256
9.0163 4.94934 4.92876
8.83531 5.08069 4.92255
8.65432 5.21204 4.91634
8.27143 5.37108 4.90527
8.09044 5.50243 4.89906
8.11136 5.60609 4.89771
8.03132 5.72359 4.89391
7.95128 5.8411 4.89012
7.7703 5.97244 4.88391
7.69026 6.08995 4.88013
7.49064 -11.3533 4.18169
7.6125 -11.2635 4.18274
7.73437 -11.1737 4.18381
7.85624 -11.0839 4.18486
7.97811 -10.9941 4.18591
8.20093 -10.9181 4.18939
8.32279 -10.8283 4.19046
8.44466 -10.7385 4.19151
8.56653 -10.6487 4.19257
8.68839 -10.5588 4.19362
8.81026 -10.469 4.19469
8.93213 -10.3792 4.19574
9.15495 -10.3032 4.19922
9.27681 -10.2134 4.20027
9.39868 -10.1236 4.20134
9.4196 -10.0199 4.19997
9.64241 -9.94397 4.20345
9.76428 -9.85416 4.2045
9.9871 -9.77818 4.20798
10.109 -9.68837 4.20905
10.2308 -9.59855 4.2101
10.3527 -9.50874 4.21115
10.3736 -9.40508 4.20979
10.3945 -9.30142 4.20842
10.4155 -9.19776 4.20706
10.4364 -9.0941 4.20569
10.4573 -8.99044 4.20433
10.5791 -8.90062 4.20538
10.701 -8.81081 4.20644
10.8229 -8.72099 4.2075
10.9447 -8.63117 4.20856
11.0666 -8.54136 4.20961
11.0875 -8.4377 4.20825
11.2094 -8.34788 4.2093
11.2303 -8.24422 4.20793
11.3522 -8.15441 4.209
11.3731 -8.05075 4.20763
11.495 -7.96093 4.20868
11.5159 -7.85727 4.20732
11.5368 -7.75361 4.20595
11.5577 -7.64995 4.20459
11.5786 -7.54629 4.20322
11.7005 -7.45647 4.20428
11.7214 -7.35281 4.20291
11.7423 -7.24915 4.20154
11.8642 -7.15934 4.20261
11.8851 -7.05568 4.20123
11.906 -6.95202 4.19987
11.9269 -6.84836 4.1985
11.9478 -6.7447 4.19714
12.0697 -6.65488 4.1982
12.0906 -6.55122 4.19682
12.1115 -6.44756 4.19547
12.1325 -6.3439 4.19409
12.1534 -6.24024 4.19273
12.1743 -6.13658 4.19136
12.1952 -6.03292 4.19
12.2161 -5.92926 4.18863
12.237 -5.8256 4.18727
12.2579 -5.72194 4.1859
12.2789 -5.61828 4.18454
12.1988 -5.50077 4.18074
12.2197 -5.39711 4.17938
12.2407 -5.29345 4.17801
12.2616 -5.18979 4.17665
12.1815 -5.07229 4.17285
12.2024 -4.96863 4.17149
12.2234 -4.86497 4.17012
12.1433 -4.74747 4.16634
12.1642 -4.6438 4.16498
12.1852 -4.54014 4.1636
12.1051 -4.42264 4.15982
12.126 -4.31898 4.15845
12.046 -4.20147 4.15466
12.0669 -4.09781 4.15329
12.0878 -3.99415 4.15193
12.1087 -3.89049 4.15056
12.1297 -3.78683 4.1492
12.1506 -3.68317 4.14783
12.0705 -3.56567 4.14404
12.0915 -3.46201 4.14267
12.1124 -3.35835 4.14131
12.0323 -3.24084 4.13753
12.0532 -3.13719 4.13615
12.0742 -3.03352 4.1348
11.9941 -2.91602 4.131
11.3554 -8.4684 4.16992
11.5104 -8.2912 4.1734
11.6654 -8.11399 4.1769
11.8204 -7.93679 4.18037
11.881 -7.79807 4.18143
11.9416 -7.65936 4.18248
11.9079 -7.55913 4.18112
11.9685 -7.42041 4.18217
11.9348 -7.32018 4.1808
11.9011 -7.21995 4.17944
11.9617 -7.08124 4.1805
12.2111 -6.86555 4.1864
12.3661 -6.68834 4.18988
12.4267 -6.54963 4.19093
12.4873 -6.41091 4.192
12.4536 -6.31068 4.19063
12.5142 -6.17197 4.19168
12.6692 -5.99476 4.19518
12.7298 -5.85605 4.19623
12.6961 -5.75582 4.19485
12.7568 -5.6171 4.19592
12.8174 -5.47838 4.19698
12.7837 -5.37815 4.1956
12.8443 -5.23944 4.19667
12.8106 -5.13921 4.1953
12.7769 -5.03898 4.19394
12.7432 -4.93875 4.19257
12.7094 -4.83852 4.19121
12.6757 -4.73829 4.18983
12.642 -4.63806 4.18846
12.7026 -4.49934 4.18953
12.6689 -4.39911 4.18816
12.6352 -4.29888 4.1868
12.6015 -4.19865 4.18542
12.5678 -4.09842 4.18407
12.6284 -3.95971 4.18512
12.5947 -3.85948 4.18375
12.561 -3.75924 4.18239
12.6216 -3.62053 4.18344
12.5879 -3.5203 4.18208
12.5542 -3.42007 4.18071
12.5204 -3.31984 4.17935
12.4867 -3.21961 4.17798
12.453 -3.11938 4.17662
12.4193 -3.01915 4.17525
12.4799 -2.88043 4.1763
12.4462 -2.7802 4.17494
12.4125 -2.67997 4.17357
12.3788 -2.57974 4.17221
12.3451 -2.47951 4.17084
12.3113 -2.37928 4.16948
12.2776 -2.27905 4.16811
12.2439 -2.17882 4.16675
12.2102 -2.07859 4.16537
12.2708 -1.93988 4.16643
12.2371 -1.83965 4.16507
12.2034 -1.73942 4.1637
12.1697 -1.63919 4.16234
12.136 -1.53896 4.16096
12.1022 -1.43873 4.15961
12.0685 -1.3385 4.15823
12.0348 -1.23827 4.15688
12.0011 -1.13804 4.1555
11.9674 -1.03781 4.15414
11.9337 -0.937579 4.15277
11.9943 -0.798865 4.15382
11.9606 -0.698635 4.15247
11.9268 -0.598406 4.15109
11.9875 -0.459687 4.15216
11.9538 -0.359457 4.15079
11.9201 -0.259226 4.14943
11.8863 -0.158997 4.14806
11.8526 -0.0587683 4.1467
11.8189 0.0414624 4.14532
11.7852 0.141693 4.14397
11.7515 0.241923 4.14259
11.7178 0.342153 4.14124
11.684 0.442382 4.13986
11.7447 0.581099 4.14091
11.7109 0.681328 4.13956
11.6772 0.781559 4.13818
11.6435 0.881787 4.13683
11.6098 0.982017 4.13545
11.5761 1.08225 4.13409
11.5424 1.18248 4.13272
11.5086 1.28271 4.13136
10.8837 -8.66083 5.15781
12.0416 -1.57744 5.15855
12.1022 -1.43873 5.15961
12.0685 -1.3385 5.15823
12.0348 -1.23827 5.15688
12.0011 -1.13804 5.1555
11.9674 -1.03781 5.15414
11.9337 -0.937579 5.15277
11.8999 -0.837349 5.15141
11.8662 -0.73712 5.15004
11.8325 -0.63689 5.14868
11.7988 -0.53666 5.14731
11.8594 -0.397945 5.14836
11.8257 -0.297714 5.147
11.792 -0.197485 5.14563
11.7583 -0.0972564 5.14427
11.7245 0.00297403 5.1429
11.6908 0.103205 5.14154
11.6571 0.203435 5.14017
11.6234 0.303664 5.13881
11.5897 0.403894 5.13744
11.6503 0.542613 5.13849
11.6166 0.642842 5.13713
11.5829 0.743073 5.13576
11.5492 0.843301 5.1344
11.5154 0.943531 5.13303
11.4817 1.04376 5.13167
11.5424 1.18248 5.13272
11.5086 1.28271 5.13136
11.4749 1.38294 5.12999
11.4412 1.48317 5.12863
11.4075 1.5834 5.12726
11.3738 1.68363 5.1259
11.3401 1.78386 5.12453
11.3063 1.88409 5.12315
11.2726 1.98432 5.1218
11.2389 2.08455 5.12042
11.2052 2.18478 5.11906
11.1715 2.28501 5.11769
11.1378 2.38524 5.11633
11.104 2.48547 5.11496
11.0703 2.5857 5.1136
11.0366 2.68593 5.11223
11.0029 2.78616 5.11087
10.9692 2.88639 5.1095
10.9355 2.98662 5.10814
10.9017 3.08685 5.10677
10.868 3.18708 5.10541
10.8343 3.28731 5.10403
10.8006 3.38753 5.10268
10.7669 3.48777 5.1013
10.6388 3.54951 5.09752
10.6051 3.64974 5.09615
10.5714 3.74997 5.09479
10.4433 3.81171 5.09099
10.4096 3.91194 5.08963
10.3759 4.01217 5.08826
10.3422 4.1124 5.0869
10.3084 4.21263 5.08553
10.2747 4.31286 5.08417
10.241 4.41309 5.08279
10.2073 4.51332 5.08144
10.1736 4.61355 5.08006
10.0455 4.6753 5.07628
10.0118 4.77553 5.07491
9.97807 4.87576 5.07355
9.94435 4.97599 5.07217
9.81629 5.03773 5.06839
9.78257 5.13796 5.06702
9.74885 5.23819 5.06566
9.71514 5.33842 5.06429
9.68142 5.43865 5.06293
9.6477 5.53888 5.06155
9.51963 5.60062 5.05777
9.48592 5.70085 5.05641
9.4522 5.80108 5.05504
9.41848 5.90131 5.05367
9.29042 5.96306 5.04988
9.16235 6.0248 5.0461
9.12863 6.12503 5.04472
9.00057 6.18677 5.04094
8.77816 6.21003 5.03473
8.74444 6.31026 5.03336
8.61637 6.372 5.02957
8.48831 6.43375 5.02579
8.45459 6.53398 5.02441
8.32652 6.59572 5.02063
8.2928 6.69595 5.01926
8.25909 6.79618 5.0179
8.13102 6.85792 5.0141
8.09731 6.95815 5.01274
7.96923 7.01989 5.00896
7.93552 7.12013 5.00758
7.80745 7.18187 5.0038
7.58504 7.20513 4.99759
7.45697 7.26687 4.99379
7.32891 7.32861 4.99001
7.20084 7.39036 4.98622
7.16712 7.49059 4.98485
7.03906 7.55233 4.98106
6.91099 7.61408 4.97726
6.87727 7.7143 4.97591
6.74921 7.77605 4.97212
12.8576 -4.24942 5.1127
12.8408 -4.09897 5.11375
12.7614 -4.02903 5.1124
12.7446 -3.87859 5.11345
12.7277 -3.72814 5.1145
12.7109 -3.57769 5.11557
12.694 -3.42724 5.11662
12.8021 -3.11579 5.12253
12.7853 -2.96533 5.12358
12.7684 -2.81489 5.12463
12.6891 -2.74495 5.12328
12.6723 -2.5945 5.12433
12.5929 -2.52455 5.12296
12.5761 -2.3741 5.12402
12.5592 -2.22366 5.12508
12.5424 -2.07321 5.12613
12.5256 -1.92276 5.1272
12.5087 -1.77231 5.12825
12.4919 -1.62187 5.1293
12.475 -1.47142 5.13036
12.4582 -1.32097 5.13142
12.3788 -1.25103 5.13005
12.362 -1.10058 5.1311
12.3451 -0.950132 5.13217
12.3283 -0.799681 5.13322
12.249 -0.729738 5.13185
12.2321 -0.579295 5.13292
12.1528 -0.509351 5.13155
12.0735 -0.439408 5.13019
12.0567 -0.288956 5.13124
12.0398 -0.138511 5.13229
12.023 0.0119376 5.13336
11.9436 0.0818815 5.13199
11.9268 0.23233 5.13304
11.9099 0.382777 5.13411
11.8931 0.533226 5.13516
11.8762 0.683672 5.13622
11.7969 0.753615 5.13486
11.7176 0.823559 5.13348
11.6383 0.893503 5.13213
11.6214 1.04395 5.13318
11.6671 1.2749 5.13666
11.6502 1.42535 5.13771
11.6334 1.5758 5.13876
11.5541 1.64574 5.13741
11.4747 1.71568 5.13603
11.4579 1.86613 5.1371
11.3786 1.93608 5.13573
11.2993 2.00602 5.13437
11.4698 2.39798 5.14268
11.3905 2.46792 5.14133
11.3736 2.61837 5.14238
11.2943 2.68832 5.14102
11.215 2.75826 5.13965
11.1357 2.8282 5.13829
11.0564 2.89814 5.13692
10.9771 2.96809 5.13554
10.9602 3.11854 5.13661
10.9434 3.26898 5.13766
10.9265 3.41943 5.13872
10.8472 3.48937 5.13736
10.8304 3.63982 5.13841
10.8135 3.79027 5.13947
10.7342 3.86022 5.13811
10.7173 4.01066 5.13916
10.638 4.08061 5.1378
10.5587 4.15055 5.13643
10.4794 4.22049 5.13507
10.4625 4.37094 5.13612
10.3832 4.44088 5.13475
10.3039 4.51083 5.13339
10.2871 4.66127 5.13445
10.2702 4.81172 5.1355
10.2534 4.96217 5.13657
10.2365 5.11262 5.13762
10.2197 5.26307 5.13867
10.1404 5.33301 5.13731
10.1235 5.48346 5.13837
10.0442 5.5534 5.13699
9.96488 5.62334 5.13564
9.94803 5.77379 5.13669
9.86871 5.84374 5.13533
9.7894 5.91368 5.13396
9.71008 5.98362 5.1326
9.63077 6.05357 5.13123
9.61392 6.20401 5.13228
9.53461 6.27396 5.13092
9.45529 6.3439 5.12955
9.37597 6.41384 5.12819
9.29666 6.48379 5.12682
9.21735 6.55373 5.12546
9.20049 6.70417 5.12651
9.12118 6.77411 5.12514
9.04186 6.84406 5.12378
8.96255 6.914 5.12241
8.88324 6.98395 5.12105
8.80392 7.05389 5.11967
8.7246 7.12383 5.11832
8.64529 7.19377 5.11694
8.56598 7.26372 5.11559
8.48666 7.33366 5.11421
8.40735 7.40361 5.11285
8.32803 7.47355 5.11148
8.24872 7.54349 5.11012
8.1694 7.61343 5.10875
8.02762 7.60288 5.10497
7.94831 7.67282 5.10359
7.86899 7.74276 5.10223
7.78968 7.81271 5.10086
7.71036 7.88265 5.0995
7.63105 7.95259 5.09813
7.48927 7.94203 5.09435
7.40996 8.01197 5.09297
7.33064 8.08192 5.09161
7.25133 8.15186 5.09024
7.17201 8.22181 5.08888
7.09269 8.29175 5.08751
6.95091 8.28118 5.08372
6.8716 8.35112 5.08235
6.79228 8.42107 5.08099
6.65051 8.41051 5.07721
6.57119 8.48045 5.07584
6.42941 8.46989 5.07205
6.22516 8.37882 5.06584
6.14585 8.44877 5.06447
6.00407 8.43821 5.06068
5.92475 8.50815 5.05931
5.78297 8.49759 5.05553
5.64119 8.48703 5.05174
5.49941 8.47647 5.04794
5.35763 8.4659 5.04416
5.27832 8.53584 5.04279
5.13654 8.52528 5.039
4.99476 8.51472 5.03522
4.91544 8.58466 5.03384
4.77366 8.5741 5.03006
4.63188 8.56354 5.02628
4.4901 8.55298 5.02248
4.41079 8.62292 5.02112
4.26901 8.61236 5.01732
4.18969 8.6823 5.01596
4.04791 8.67174 5.01218
3.90613 8.66118 5.00838
3.76435 8.65062 5.00459
3.49764 8.47905 4.99596
3.35586 8.46849 4.99217
3.15161 8.37742 4.98596
12.249 -0.729738 4.13185
12.2321 -0.579295 4.13292
12.2153 -0.428844 4.13397
12.136 -0.358901 4.13261
12.1191 -0.208452 4.13367
12.0398 -0.138511 4.13229
12.023 0.0119376 4.13336
12.0061 0.162386 4.13441
12.0517 0.393342 4.13789
12.0349 0.543787 4.13895
12.018 0.694232 4.14
11.9387 0.764176 4.13864
11.9219 0.914627 4.13969
11.8425 0.984571 4.13834
11.7632 1.05451 4.13696
11.6839 1.12446 4.1356
11.6671 1.2749 4.13666
11.5877 1.34484 4.13528
11.5709 1.4953 4.13635
11.5541 1.64574 4.13741
11.4747 1.71568 4.13603
11.4579 1.86613 4.1371
11.3786 1.93608 4.13573
11.3617 2.08653 4.13678
11.4073 2.31748 4.14027
11.3905 2.46792 4.14133
11.3736 2.61837 4.14238
11.2943 2.68832 4.14102
11.215 2.75826 4.13965
11.1982 2.90871 4.1407
11.1188 2.97865 4.13934
11.0395 3.04859 4.13797
10.8977 3.03803 4.13419
10.8184 3.10798 4.13281
10.8472 3.48937 4.13736
10.8928 3.72033 4.14084
10.876 3.87078 4.14189
10.8591 4.02123 4.14294
10.7798 4.09117 4.14159
10.7005 4.16111 4.14021
10.6836 4.31156 4.14128
10.6043 4.3815 4.13991
10.525 4.45144 4.13855
10.5082 4.60189 4.1396
10.4288 4.67184 4.13823
10.412 4.82228 4.1393
10.3327 4.89223 4.13792
10.3158 5.04267 4.13898
10.299 5.19312 4.14005
10.2821 5.34357 4.1411
10.2028 5.41351 4.13972
10.186 5.56396 4.14079
10.1067 5.6339 4.13942
10.0273 5.70385 4.13806
9.94803 5.77379 4.13669
9.86871 5.84374 4.13533
9.85186 5.99418 4.13638
9.77255 6.06413 4.13501
9.69323 6.13407 4.13365
9.67638 6.28451 4.1347
9.59707 6.35446 4.13335
9.51775 6.4244 4.13197
8.48529 7.55059 4.13269
8.39547 7.67246 4.13374
8.30566 7.79432 4.1348
8.21584 7.91619 4.13586
8.11218 7.9371 4.13449
8.02237 8.05897 4.13554
7.93255 8.18084 4.13661
7.82889 8.20176 4.13524
7.73908 8.32362 4.13631
7.63542 8.34453 4.13493
7.5456 8.4664 4.13599
7.44194 8.48732 4.13463
7.33828 8.50823 4.13326
7.24846 8.6301 4.13432
7.1448 8.65102 4.13295
7.04114 8.67193 4.13158
8.90668 6.73935 5.12256
8.81687 6.86121 5.12361
8.72705 6.98309 5.12466
8.62339 7.004 5.12331
8.53357 7.12586 5.12436
8.42991 7.14678 5.123
8.32625 7.16769 5.12163
8.22259 7.18861 5.12027
8.13278 7.31048 5.12132
8.04296 7.43234 5.12238
7.98083 7.75611 5.12828
7.90486 7.97893 5.13176
7.82889 8.20176 5.13524
7.72523 8.22267 5.13388
7.63542 8.34453 5.13493
7.53176 8.36545 5.13356
7.44194 8.48732 5.13463
7.33828 8.50823 5.13326
7.23462 8.52914 5.1319
7.13096 8.55006 5.13052
7.0273 8.57098 5.12917
6.92364 8.59189 5.12779
6.81998 8.6128 5.12643
6.71632 8.63372 5.12506
6.61266 8.65464 5.1237
6.52284 8.77651 5.12476
6.41918 8.79742 5.12338
6.31552 8.81834 5.12202
6.21186 8.83925 5.12065
6.1082 8.86017 5.11929
6.00454 8.88108 5.11792
5.90088 8.902 5.11656
5.79722 8.92291 5.11519
5.69356 8.94383 5.11383
5.5899 8.96474 5.11246
5.48624 8.98566 5.1111
5.38258 9.00657 5.10973
5.27892 9.02749 5.10837
5.17526 9.0484 5.10699
5.0716 9.06932 5.10564
4.96794 9.09023 5.10426
4.86428 9.11115 5.10289
4.76062 9.13206 5.10153
4.65696 9.15298 5.10016
4.5533 9.17389 5.0988
4.43579 9.09385 5.09502
4.33213 9.11477 5.09364
4.22847 9.13568 5.09229
4.12481 9.1566 5.09091
4.02115 9.17752 5.08954
3.91749 9.19843 5.08818
3.81383 9.21934 5.08681
3.71017 9.24026 5.08545
3.60651 9.26118 5.08408
3.50285 9.28209 5.08272
3.38535 9.20205 5.07893
3.28169 9.22297 5.07756
3.17803 9.24388 5.0762
3.07437 9.2648 5.07483
2.95686 9.18477 5.07104
2.8532 9.20568 5.06967
2.7357 9.12564 5.06589
2.63204 9.14656 5.06451
2.51453 9.06652 5.06073
2.41087 9.08744 5.05936
2.29337 9.0074 5.05557
2.17587 8.92736 5.05179
2.05836 8.84733 5.04799
1.94086 8.76729 5.0442
1.82335 8.68725 5.04042
1.692 8.50626 5.03421
1.5745 8.42623 5.03041
1.45699 8.34619 5.02663
1.33949 8.26615 5.02284
1.23583 8.28707 5.02147
1.11833 8.20703 5.01768
1.00082 8.12699 5.0139
0.89716 8.14791 5.01253
0.779656 8.06787 5.00874
7.07156 8.63231 5.08899
6.93284 8.69295 5.09004
6.79412 8.75358 5.09111
6.69389 8.71986 5.08974
6.55517 8.78049 5.09079
6.45494 8.74678 5.08943
6.31623 8.80741 5.09048
6.17751 8.86804 5.09154
6.07728 8.83432 5.09018
5.93857 8.89496 5.09123
5.83834 8.86124 5.08987
5.73811 8.82752 5.0885
5.59939 8.88815 5.08955
5.46067 8.94879 5.09062
5.32196 9.00942 5.09167
5.22173 8.9757 5.0903
5.1215 8.94199 5.08894
4.79035 9.47436 5.10211
4.65163 9.53499 5.10316
4.51292 9.59562 5.10423
4.41269 9.56191 5.10286
4.31246 9.52819 5.1015
4.17374 9.58882 5.10255
4.07351 9.55511 5.10118
3.97328 9.52139 5.09982
3.87305 9.48767 5.09845
3.77282 9.45395 5.09709
3.67259 9.42024 5.09572
3.57236 9.38652 5.09436
3.47213 9.35281 5.09299
3.3719 9.31909 5.09163
3.27167 9.28537 5.09026
3.13296 9.346 5.09132
3.03273 9.31229 5.08995
2.9325 9.27857 5.08859
2.83227 9.24485 5.08722
2.73204 9.21113 5.08585
2.63181 9.17742 5.08449
2.53158 9.1437 5.08311
2.43135 9.10999 5.08176
2.33112 9.07627 5.08038
2.23089 9.04255 5.07903
2.13066 9.00883 5.07765
2.03043 8.97512 5.07629
1.9302 8.9414 5.07492
1.82997 8.90768 5.07356
1.72974 8.87396 5.07219
1.62951 8.84025 5.07083
1.52928 8.80653 5.06946
1.42905 8.77282 5.0681
1.32882 8.7391 5.06673
1.22859 8.70538 5.06537
1.12836 8.67166 5.064
1.02813 8.63795 5.06264
0.927898 8.60423 5.06126
0.827669 8.57051 5.05991
0.727438 8.53679 5.05853
0.627208 8.50308 5.05716
0.526978 8.46936 5.0558
0.426749 8.43564 5.05443
0.32652 8.40193 5.05307
0.226289 8.36821 5.0517
0.126059 8.33449 5.05034
0.0258286 8.30078 5.04897
-0.0743997 8.26706 5.04761
-0.136145 8.13899 5.04382
-0.236374 8.10528 5.04245
-0.336604 8.07156 5.04108
-0.436836 8.03784 5.03972
-0.537064 8.00412 5.03835
-0.598807 7.87605 5.03456
-0.699037 7.84234 5.0332
-0.799267 7.80862 5.03183
-0.899497 7.77491 5.03047
-0.96124 7.64684 5.02667
-1.06147 7.61312 5.02531
-1.1617 7.57941 5.02394
-1.22345 7.45134 5.02016
-1.32367 7.41762 5.01878
-1.4239 7.3839 5.01743
-1.52413 7.35019 5.01605
-1.58588 7.22212 5.01227
-1.68611 7.18841 5.01089
-1.78634 7.15469 5.00954
-1.84808 7.02663 5.00575
-1.94831 6.99291 5.00438
-2.04854 6.95919 5.00302
-2.14877 6.92548 5.00165
0.741709 9.03364 5.04819
0.591262 9.01679 5.04924
0.440814 8.99994 5.05031
0.370869 8.92063 5.04893
0.220422 8.90378 5.04999
0.150481 8.82446 5.04863
3.29018e-05 8.80761 5.04968
-0.150414 8.79076 5.05074
-0.300864 8.77392 5.0518
-0.451312 8.75707 5.05286
-0.521252 8.67775 5.05148
-0.591196 8.59844 5.05013
-0.741648 8.58159 5.05118
-0.811592 8.50227 5.04982
-0.881535 8.42296 5.04845
-1.03198 8.40611 5.0495
-1.10192 8.32679 5.04814
-1.17186 8.24748 5.04677
-1.24181 8.16817 5.04541
-1.39226 8.15132 5.04646
-1.4622 8.072 5.0451
-1.53214 7.99269 5.04373
-1.60209 7.91337 5.04237
-1.67203 7.83406 5.041
-1.74197 7.75474 5.03964
-1.81192 7.67543 5.03827
-1.88186 7.59611 5.0369
-1.9518 7.5168 5.03554
-2.02175 7.43749 5.03416
-2.09169 7.35817 5.03281
-2.16163 7.27886 5.03143
-2.23158 7.19954 5.03008
-2.30152 7.12023 5.0287
-2.37146 7.04091 5.02734
-2.4414 6.9616 5.02597
-2.51135 6.88228 5.02461
-2.58129 6.80297 5.02324
-2.65124 6.72365 5.02188
-2.72118 6.64434 5.02051
-2.79112 6.56502 5.01915
-2.86106 6.48571 5.01778
-2.93101 6.40639 5.01642
-3.00095 6.32708 5.01505
-3.07089 6.24776 5.01369
-3.14084 6.16845 5.01231
-3.21078 6.08914 5.01096
-3.28072 6.00982 5.00958
-3.35067 5.93051 5.00822
-3.42061 5.85119 5.00685
-3.49055 5.77188 5.00548
-3.5605 5.69256 5.00412
-3.63044 5.61325 5.00275
-3.70038 5.53393 5.00139
-3.77032 5.45462 5.00002
-3.84027 5.3753 4.99866
-3.91021 5.29599 4.99728
-3.98016 5.21667 4.99593
-4.0501 5.13736 4.99455
-4.12004 5.05804 4.99319
-4.18998 4.97873 4.99182
-4.25993 4.89942 4.99046
-4.32987 4.8201 4.98909
-4.39981 4.74078 4.98773
-4.46976 4.66147 4.98636
-4.5397 4.58216 4.985
-4.52914 4.44037 4.9812
-4.59908 4.36106 4.97984
-4.66902 4.28174 4.97847
-4.73897 4.20243 4.97711
-4.72841 4.06065 4.97331
-4.79835 3.98134 4.97195
-4.78779 3.83956 4.96817
-4.54377 4.87709 5.00447
-4.66564 4.78728 5.00554
-4.68655 4.68361 5.00417
-4.70747 4.57995 5.00281
-4.72839 4.47629 5.00143
-4.85025 4.38648 5.00249
-4.87117 4.28282 5.00113
-4.89208 4.17916 4.99976
-4.913 4.0755 4.9984
-4.93391 3.97184 4.99702
-5.05578 3.88202 4.99809
-5.07669 3.77836 4.99672
-5.09761 3.6747 4.99535
-5.11853 3.57104 4.99399
-5.13944 3.46738 4.99261
-5.16036 3.36372 4.99126
-5.18127 3.26006 4.98988
-5.20219 3.1564 4.98853
-5.12215 3.0389 4.98474
-5.14306 2.93524 4.98337
-5.16398 2.83158 4.98199
-5.18489 2.72792 4.98064
-5.10486 2.61041 4.97685
-5.12577 2.50675 4.97548
-5.14669 2.40309 4.97412
-5.16761 2.29943 4.97275
-5.08757 2.18193 4.96896
-5.10848 2.07827 4.96759
-5.1294 1.97461 4.96623
-5.15031 1.87094 4.96486
-5.17123 1.76728 4.9635
-5.19214 1.66363 4.96213
-5.21306 1.55997 4.96077
-5.23397 1.45631 4.9594
-5.25489 1.35264 4.95804
-5.2758 1.24898 4.95667
-5.29672 1.14532 4.95529
-5.21668 1.02782 4.95151
-5.23759 0.92416 4.95015
-5.25851 0.820499 4.94878
-5.27942 0.716839 4.94742
-5.30034 0.613179 4.94604
-5.32125 0.509518 4.94469
-5.34217 0.405858 4.94331
-5.36309 0.302199 4.94196
-5.384 0.198538 4.94058
-5.40491 0.0948787 4.93921
-5.42583 -0.00878274 4.93785
-5.3458 -0.126285 4.93407
-5.36671 -0.229947 4.93269
-5.38763 -0.333605 4.93134
-5.40854 -0.437266 4.92996
-5.42946 -0.540926 4.9286
-5.45037 -0.644586 4.92723
-5.47129 -0.748248 4.92586
-5.4922 -0.851907 4.9245
-5.51312 -0.955567 4.92313
-5.43308 -1.07307 4.91934
-5.454 -1.17673 4.91798
-5.47491 -1.28039 4.91661
-5.39487 -1.3979 4.91283
-5.41579 -1.50156 4.91145
-5.33575 -1.61906 4.90767
-5.35667 -1.72272 4.9063
-5.27663 -1.84023 4.90251
-4.89374 -1.99926 4.89145
-4.8137 -2.11677 4.88766
-4.83462 -2.22043 4.88629
-4.85553 -2.32409 4.88493
-4.87645 -2.42775 4.88356
-4.89736 -2.53141 4.8822
-4.91828 -2.63507 4.88083
-4.83824 -2.75257 4.87704
-4.85915 -2.85623 4.87569
-4.77912 -2.97374 4.87189
-5.68592 0.864501 4.98082
-5.74655 0.725785 4.98187
-5.71283 0.625555 4.9805
-5.86781 0.448351 4.98398
-5.92844 0.309637 4.98505
-5.98908 0.17092 4.9861
-5.95536 0.0706903 4.98474
-5.92164 -0.0295395 4.98337
-5.98228 -0.168257 4.98442
-5.94856 -0.268485 4.98306
-6.00919 -0.407203 4.98412
-6.06982 -0.545918 4.98517
-6.13045 -0.684636 4.98624
-6.19109 -0.823352 4.98729
-6.15737 -0.923579 4.98592
-6.218 -1.0623 4.98698
-6.18429 -1.16253 4.98561
-6.15057 -1.26276 4.98425
-6.11685 -1.36299 4.98288
-6.08313 -1.46322 4.98152
-6.04942 -1.56345 4.98015
-6.0157 -1.66368 4.97878
-5.98199 -1.76391 4.97742
-5.94827 -1.86414 4.97604
-5.91455 -1.96437 4.97469
-5.88083 -2.0646 4.97331
-5.84712 -2.16483 4.97195
-5.90775 -2.30354 4.97301
-5.87403 -2.40377 4.97165
-5.84031 -2.504 4.97028
-5.80659 -2.60423 4.96892
-5.77288 -2.70446 4.96754
-5.73916 -2.80469 4.96619
-5.70544 -2.90492 4.96481
-5.67173 -3.00515 4.96344
-5.63801 -3.10538 4.96208
-5.60429 -3.20561 4.96071
-5.47623 -3.26736 4.95692
-5.44251 -3.36759 4.95557
-5.40879 -3.46782 4.95419
-5.37508 -3.56805 4.95284
-5.34136 -3.66828 4.95146
-5.30764 -3.76851 4.9501
-5.27393 -3.86874 4.94873
-5.24021 -3.96897 4.94736
-5.20649 -4.0692 4.946
-5.17278 -4.16943 4.94463
-5.13906 -4.26966 4.94327
-5.10534 -4.36989 4.94189
-5.07162 -4.47012 4.94054
-4.94356 -4.53186 4.93675
-4.90984 -4.63209 4.93538
-4.87612 -4.73232 4.93401
-4.8424 -4.83255 4.93265
-4.80869 -4.93278 4.93127
-4.77497 -5.03301 4.92992
-4.74125 -5.13324 4.92854
-4.70754 -5.23347 4.92719
-4.57947 -5.29521 4.9234
-4.54575 -5.39544 4.92203
-4.51204 -5.49567 4.92065
-4.47832 -5.5959 4.9193
-4.35025 -5.65765 4.91551
-4.31654 -5.75787 4.91414
-4.28282 -5.8581 4.91278
-4.2491 -5.95833 4.91141
-4.12104 -6.02008 4.90762
-4.08732 -6.12031 4.90625
-3.95925 -6.18205 4.90247
-3.92554 -6.28228 4.90109
-3.79747 -6.34403 4.89731
-3.76375 -6.44425 4.89595
-3.73004 -6.54449 4.89458
-3.60197 -6.60623 4.89079
-3.56826 -6.70646 4.88942
-3.44019 -6.7682 4.88564
-3.40647 -6.86843 4.88426
-3.37276 -6.96866 4.8829
-3.24469 -7.0304 4.8791
-5.8105 -2.50736 4.99672
-5.85612 -2.73831 5.0002
-5.83927 -2.88876 5.00125
-5.75996 -2.9587 4.99989
-5.74311 -3.10915 5.00095
-5.72626 -3.2596 5.002
-5.70941 -3.41005 5.00307
-5.63009 -3.47999 5.00169
-5.61325 -3.63044 5.00275
-5.5964 -3.78089 5.00381
-5.57955 -3.93133 5.00487
-5.50023 -4.00128 5.00349
-5.48338 -4.15172 5.00456
-5.40407 -4.22167 5.00319
-5.38722 -4.37212 5.00424
-5.30791 -4.44206 5.00288
-5.22859 -4.512 5.00151
-5.21174 -4.66245 5.00258
-5.13243 -4.7324 5.00121
-5.11558 -4.88284 5.00226
-5.03626 -4.95278 5.0009
-4.95695 -5.02273 4.99953
-4.87763 -5.09267 4.99817
-4.86078 -5.24312 4.99922
-4.84394 -5.39357 5.00027
-4.82709 -5.54401 5.00134
-4.74777 -5.61396 4.99997
-4.73092 -5.7644 5.00102
-4.65161 -5.83435 4.99966
-4.57229 -5.90429 4.99829
-4.49298 -5.97423 4.99693
-4.41366 -6.04418 4.99556
-4.39681 -6.19463 4.99663
-4.3175 -6.26457 4.99525
-4.23818 -6.33451 4.9939
-4.15887 -6.40446 4.99252
-4.14202 -6.5549 4.99358
-4.06271 -6.62484 4.99222
-3.98339 -6.69479 4.99084
-3.96654 -6.84524 4.99191
-3.94969 -6.99569 4.99297
-3.87038 -7.06563 4.99159
-3.79106 -7.13557 4.99023
-3.77421 -7.28602 4.99129
-3.6949 -7.35596 4.98993
-3.61559 -7.42591 4.98856
-3.53627 -7.49585 4.9872
-3.51942 -7.6463 4.98825
-3.44011 -7.71624 4.98688
-3.36079 -7.78618 4.98552
-3.28148 -7.85613 4.98415
-3.20216 -7.92607 4.98279
-3.12285 -7.99601 4.98141
-3.106 -8.14646 4.98248
-3.02668 -8.2164 4.98111
-2.94737 -8.28635 4.97974
-2.93052 -8.4368 4.9808
-2.85121 -8.50674 4.97943
-2.77189 -8.57668 4.97807
-2.69258 -8.64662 4.9767
-2.61326 -8.71657 4.97534
-2.53395 -8.78651 4.97397
-2.45463 -8.85645 4.97261
-2.37532 -8.9264 4.97124
-2.29601 -8.99634 4.96988
-2.21669 -9.06629 4.96851
-2.19984 -9.21673 4.96956
-2.12052 -9.28667 4.9682
-2.04121 -9.35662 4.96683
-1.96189 -9.42656 4.96547
-1.88258 -9.4965 4.9641
-1.80327 -9.56645 4.96274
-1.72395 -9.63639 4.96136
-1.64464 -9.70633 4.96001
-1.56532 -9.77627 4.95863
-1.48601 -9.84622 4.95728
-1.40669 -9.91616 4.9559
-1.26491 -9.9056 4.95212
-1.1856 -9.97554 4.95074
-1.10629 -10.0455 4.94939
-1.02697 -10.1154 4.94801
-0.947655 -10.1854 4.94666
-0.86834 -10.2553 4.94528
-0.789027 -10.3253 4.94392
-0.647244 -10.3147 4.94012
-0.567929 -10.3846 4.93877
-0.488613 -10.4546 4.93739
-0.409297 -10.5245 4.93604
-0.329984 -10.5945 4.93466
-0.188205 -10.5839 4.93088
-0.108891 -10.6539 4.9295
-0.0295749 -10.7238 4.92815
0.112205 -10.7132 4.92435
0.191519 -10.7832 4.92299
0.270833 -10.8531 4.92162
0.412617 -10.8426 4.91783
0.49193 -10.9125 4.91647
0.633709 -10.9019 4.91267
0.77549 -10.8914 4.90889
0.979735 -10.8003 4.90268
1.12152 -10.7897 4.89888
1.20083 -10.8597 4.89752
1.34261 -10.8491 4.89374
1.42192 -10.9191 4.89236
1.50124 -10.989 4.89101
1.58055 -11.059 4.88963
1.72234 -11.0484 4.88585
1.80165 -11.1183 4.88448
1.94343 -11.1078 4.88069
2.08521 -11.0972 4.87691
2.28946 -11.0062 4.87068
2.43124 -10.9956 4.8669
2.57302 -10.985 4.86311
2.71479 -10.9745 4.85931
2.85658 -10.9639 4.85553
