ply
format ascii 1.0
comment VCGLIB generated
element vertex 1190
property float x
property float y
property float z
element face 0
property list uchar int vertex_indices
end_header
3.04201 -11.9695 5.16208
3.27296 -12.0151 5.16556
3.42341 -11.9983 5.16661
3.65437 -12.0439 5.17009
3.72431 -11.9646 5.16873
3.87475 -11.9477 5.16978
4.10571 -11.9934 5.17326
4.25615 -11.9765 5.17432
4.4066 -11.9597 5.17538
4.55705 -11.9428 5.17644
4.788 -11.9884 5.17992
4.93845 -11.9716 5.18097
5.0889 -11.9547 5.18204
5.23935 -11.9379 5.18309
5.3898 -11.921 5.18414
5.45974 -11.8417 5.18279
5.52968 -11.7624 5.18141
5.59962 -11.6831 5.18005
5.75007 -11.6662 5.18111
6.06153 -11.7743 5.18701
6.21198 -11.7575 5.18806
6.36242 -11.7406 5.18912
6.43237 -11.6613 5.18776
6.50231 -11.582 5.18639
6.65276 -11.5651 5.18744
6.80321 -11.5483 5.18851
6.95365 -11.5314 5.18956
7.0236 -11.4521 5.18819
7.17405 -11.4353 5.18925
7.24399 -11.356 5.18788
7.31393 -11.2766 5.18652
7.46438 -11.2598 5.18758
7.53432 -11.1805 5.1862
7.68477 -11.1636 5.18727
7.83522 -11.1468 5.18832
7.98567 -11.1299 5.18938
8.05561 -11.0506 5.18802
8.20606 -11.0338 5.18907
8.276 -10.9545 5.18771
8.34594 -10.8751 5.18634
8.49639 -10.8583 5.18739
8.56634 -10.779 5.18604
8.63628 -10.6997 5.18466
8.70622 -10.6203 5.1833
8.77616 -10.541 5.18193
8.84611 -10.4617 5.18057
8.99655 -10.4449 5.18163
9.0665 -10.3656 5.18025
9.13644 -10.2862 5.17889
9.20638 -10.2069 5.17752
9.27633 -10.1276 5.17616
9.34627 -10.0483 5.17479
9.41621 -9.96899 5.17343
9.48616 -9.88967 5.17206
9.63661 -9.87282 5.17313
9.70655 -9.79351 5.17175
9.77649 -9.71419 5.17039
9.84644 -9.63488 5.16902
9.91638 -9.55556 5.16765
9.98632 -9.47625 5.16629
10.0563 -9.39693 5.16492
10.1262 -9.31762 5.16356
10.2767 -9.30077 5.16461
10.3466 -9.22145 5.16325
10.4165 -9.14214 5.16188
10.4865 -9.06283 5.16052
3.33235 -11.794 6.1604
3.88532 -12.0895 6.17357
4.03576 -12.0727 6.17464
4.18621 -12.0558 6.17569
4.33666 -12.039 6.17674
4.48711 -12.0221 6.1778
4.63756 -12.0053 6.17886
4.788 -11.9884 6.17992
4.93845 -11.9716 6.18097
5.0889 -11.9547 6.18204
5.23935 -11.9379 6.18309
5.3898 -11.921 6.18414
5.54024 -11.9042 6.1852
5.69069 -11.8873 6.18626
5.76063 -11.808 6.18489
5.91108 -11.7912 6.18594
6.06153 -11.7743 6.18701
6.13147 -11.695 6.18564
6.28192 -11.6782 6.18669
6.35186 -11.5988 6.18533
6.50231 -11.582 6.18639
6.57225 -11.5027 6.18503
6.7227 -11.4858 6.18608
6.87315 -11.469 6.18713
7.0236 -11.4521 6.18819
7.09354 -11.3728 6.18683
7.24399 -11.356 6.18788
7.31393 -11.2766 6.18652
7.38387 -11.1973 6.18515
7.53432 -11.1805 6.1862
7.60427 -11.1012 6.18484
7.75471 -11.0843 6.1859
7.90516 -11.0675 6.18697
7.97511 -10.9882 6.18559
8.12555 -10.9713 6.18665
8.1955 -10.892 6.18529
8.26544 -10.8127 6.18391
8.41588 -10.7958 6.18497
8.48583 -10.7165 6.18361
8.55577 -10.6372 6.18224
8.70622 -10.6203 6.1833
8.77616 -10.541 6.18193
8.84611 -10.4617 6.18057
8.91605 -10.3824 6.1792
8.986 -10.3031 6.17784
9.05593 -10.2238 6.17647
9.12588 -10.1445 6.17511
9.27633 -10.1276 6.17616
9.34627 -10.0483 6.17479
9.41621 -9.96899 6.17343
9.48616 -9.88967 6.17206
9.63661 -9.87282 6.17313
9.70655 -9.79351 6.17175
9.77649 -9.71419 6.17039
9.84644 -9.63488 6.16902
9.91638 -9.55556 6.16765
9.98632 -9.47625 6.16629
10.0563 -9.39693 6.16492
10.1262 -9.31762 6.16356
10.1961 -9.2383 6.16219
10.2661 -9.15899 6.16083
10.336 -9.07967 6.15945
10.406 -9.00036 6.1581
10.5564 -8.98351 6.15915
10.6264 -8.90419 6.15779
10.6963 -8.82488 6.15642
10.6858 -8.6831 6.15263
10.7557 -8.60379 6.15126
10.8256 -8.52447 6.1499
10.8956 -8.44515 6.14853
10.9655 -8.36584 6.14717
10.955 -8.22406 6.14337
11.0249 -8.14475 6.14201
11.0949 -8.06543 6.14064
11.1648 -7.98612 6.13928
11.1542 -7.84434 6.13548
11.2242 -7.76502 6.13412
11.2941 -7.68571 6.13275
11.3641 -7.60639 6.13139
11.434 -7.52708 6.13002
11.4234 -7.38529 6.12624
11.4129 -7.24352 6.12245
11.4828 -7.16421 6.12108
11.5528 -7.08489 6.11972
11.5422 -6.94311 6.11592
11.6121 -6.8638 6.11456
11.6821 -6.78448 6.11319
11.6715 -6.6427 6.10941
11.7415 -6.56338 6.10803
11.7309 -6.42161 6.10425
11.7204 -6.27982 6.10046
11.7903 -6.20051 6.09909
11.7797 -6.05873 6.09531
11.6887 -5.85448 6.0891
11.6781 -5.7127 6.0853
11.6675 -5.57092 6.08151
11.657 -5.42914 6.07773
11.7269 -5.34983 6.07635
11.7164 -5.20805 6.07257
11.6253 -5.0038 6.06636
11.6147 -4.86202 6.06256
11.6042 -4.72024 6.05878
11.5936 -4.57846 6.05499
11.6636 -4.49915 6.05362
11.653 -4.35737 6.04984
11.6424 -4.21559 6.04605
11.6319 -4.07381 6.04225
11.6213 -3.93202 6.03847
11.6107 -3.79024 6.03468
11.6002 -3.64846 6.03088
11.5896 -3.50669 6.0271
11.5791 -3.36491 6.02332
11.327 -3.03573 6.01225
11.2359 -2.83148 6.00604
11.0644 -2.56477 5.99741
11.1343 -2.48546 5.99603
11.1237 -2.34367 5.99225
11.1132 -2.20189 5.98846
11.1831 -2.12258 5.98709
7.95719 -11.0977 6.18729
8.36462 -10.621 6.18771
8.38554 -10.5173 6.18636
8.40645 -10.4136 6.18498
12.0943 -6.01908 6.18758
12.1152 -5.91542 6.1862
12.0351 -5.79791 6.18242
12.056 -5.69425 6.18106
12.077 -5.59059 6.17969
12.0979 -5.48693 6.17833
12.0178 -5.36943 6.17453
12.0387 -5.26577 6.17317
12.0597 -5.16211 6.1718
12.0806 -5.05844 6.17044
12.1015 -4.95478 6.16907
12.1224 -4.85113 6.16771
12.0424 -4.73362 6.16391
12.0633 -4.62996 6.16255
12.0842 -4.5263 6.16118
12.0042 -4.4088 6.15739
12.0251 -4.30513 6.15602
11.945 -4.18763 6.15224
11.966 -4.08397 6.15088
11.9869 -3.98031 6.14951
11.9068 -3.86281 6.14572
11.9278 -3.75915 6.14435
11.9487 -3.65549 6.14299
11.8686 -3.53798 6.13919
11.8896 -3.43432 6.13783
11.8095 -3.31682 6.13403
11.8304 -3.21316 6.13268
11.8513 -3.1095 6.1313
11.8723 -3.00584 6.12994
11.7922 -2.88833 6.12616
11.8131 -2.78467 6.12479
11.7331 -2.66717 6.121
11.754 -2.56351 6.11963
11.674 -2.446 6.11584
11.6949 -2.34234 6.11447
11.6149 -2.22484 6.11069
11.6358 -2.12118 6.10933
11.6567 -2.01752 6.10796
11.5767 -1.90001 6.10417
11.5976 -1.79635 6.1028
11.5175 -1.67885 6.09901
11.5384 -1.57519 6.09764
11.5594 -1.47153 6.09628
11.5803 -1.36787 6.09491
11.6012 -1.26421 6.09355
11.5212 -1.1467 6.08975
11.4411 -1.0292 6.08597
11.3611 -0.911694 6.08218
11.382 -0.808033 6.08081
11.302 -0.690529 6.07703
11.2219 -0.573023 6.07324
11.2428 -0.469365 6.07187
11.1628 -0.351859 6.06808
11.1837 -0.248199 6.06671
11.2046 -0.14454 6.06535
11.1246 -0.0270342 6.06155
11.1455 0.0766255 6.0602
11.0655 0.194129 6.05641
11.0864 0.297789 6.05504
11.0064 0.415292 6.05125
11.0273 0.518955 6.04988
10.9472 0.636459 6.0461
10.9681 0.740121 6.04472
10.8881 0.857622 6.04094
10.909 0.961282 6.03957
10.829 1.07879 6.03578
10.7489 1.19629 6.032
10.6689 1.3138 6.0282
10.5889 1.4313 6.02441
10.6098 1.53496 6.02306
10.6307 1.63862 6.02168
10.6516 1.74228 6.02032
10.6725 1.84594 6.01895
10.5925 1.96345 6.01517
10.6134 2.06711 6.01379
10.5334 2.18461 6.01001
10.5543 2.28827 6.00864
10.3733 2.41962 6.00243
10.3942 2.52328 6.00107
10.3142 2.64078 5.99727
10.2341 2.75829 5.99348
10.2551 2.86195 5.99213
10.175 2.97945 5.98833
10.095 3.09696 5.98454
10.0149 3.21446 5.98076
9.73301 3.35966 5.97212
9.65297 3.47716 5.96832
9.57293 3.59467 5.96454
9.39194 3.72602 5.95833
6.62028 -11.5536 5.1664
6.74215 -11.4637 5.16745
6.86401 -11.3739 5.16852
6.98588 -11.2841 5.16957
7.2087 -11.2081 5.17305
7.73437 -11.1737 5.18381
7.85624 -11.0839 5.18486
7.97811 -10.9941 5.18591
8.09998 -10.9043 5.18697
8.22184 -10.8144 5.18803
8.34371 -10.7246 5.18909
8.46557 -10.6348 5.19014
8.48649 -10.5311 5.18878
8.50741 -10.4275 5.18741
8.62927 -10.3377 5.18846
9.15495 -10.3032 5.19922
9.27681 -10.2134 5.20027
9.29773 -10.1098 5.19891
9.31864 -10.0061 5.19754
9.44051 -9.91628 5.19859
9.46143 -9.81262 5.19724
9.48234 -9.70896 5.19586
10.109 -9.68837 5.20905
10.1299 -9.58471 5.20767
10.2518 -9.49489 5.20872
10.2727 -9.39123 5.20737
10.3945 -9.30142 5.20842
10.5164 -9.2116 5.20949
10.6383 -9.12178 5.21054
10.6592 -9.01813 5.20917
10.781 -8.92831 5.21024
10.802 -8.82465 5.20886
10.8229 -8.72099 5.2075
10.9447 -8.63117 5.20856
10.9657 -8.52751 5.20718
11.0875 -8.4377 5.20825
11.2094 -8.34788 5.2093
11.2303 -8.24422 5.20793
11.3522 -8.15441 5.209
11.3731 -8.05075 5.20763
11.495 -7.96093 5.20868
11.5159 -7.85727 5.20732
11.5368 -7.75361 5.20595
11.5577 -7.64995 5.20459
11.5786 -7.54629 5.20322
11.5995 -7.44263 5.20186
11.7214 -7.35281 5.20291
11.7423 -7.24915 5.20154
11.7632 -7.14549 5.20018
11.7841 -7.04183 5.19881
11.8051 -6.93817 5.19745
11.9269 -6.84836 5.1985
11.9478 -6.7447 5.19714
11.9688 -6.64104 5.19577
11.9897 -6.53738 5.19441
12.0106 -6.43372 5.19304
12.0315 -6.33006 5.19168
12.0524 -6.2264 5.19031
12.0733 -6.12274 5.18895
12.0943 -6.01908 5.18758
12.1152 -5.91542 5.1862
12.1361 -5.81176 5.18484
12.157 -5.70809 5.18347
12.1779 -5.60443 5.18211
12.1988 -5.50077 5.18074
12.2197 -5.39711 5.17938
12.1397 -5.27961 5.1756
12.1606 -5.17595 5.17422
12.1815 -5.07229 5.17285
12.1015 -4.95478 5.16907
12.1224 -4.85113 5.16771
12.1433 -4.74747 5.16634
12.0633 -4.62996 5.16255
12.0842 -4.5263 5.16118
12.1051 -4.42264 5.15982
11.5104 -8.2912 5.1734
11.6654 -8.11399 5.1769
11.9147 -7.8983 5.18279
11.881 -7.79807 5.18143
11.9416 -7.65936 5.18248
12.0023 -7.52064 5.18353
12.0629 -7.38193 5.1846
12.1235 -7.24321 5.18565
12.1842 -7.10449 5.18671
12.2448 -6.96578 5.18777
12.2111 -6.86555 5.1864
12.2717 -6.72683 5.18745
12.4267 -6.54963 5.19093
12.5817 -6.37242 5.19443
12.6423 -6.23371 5.19548
12.6086 -6.13348 5.19411
12.6692 -5.99476 5.19518
12.6355 -5.89453 5.1938
12.6961 -5.75582 5.19485
12.6624 -5.65559 5.1935
12.6287 -5.55536 5.19212
12.6893 -5.41664 5.19319
12.6556 -5.31641 5.19182
12.6219 -5.21618 5.19046
12.5882 -5.11595 5.18909
12.5545 -5.01572 5.18771
12.6151 -4.877 5.18878
12.5814 -4.77678 5.18741
12.642 -4.63806 5.18846
12.6083 -4.53783 5.1871
12.5746 -4.4376 5.18573
12.5409 -4.33737 5.18437
12.6015 -4.19865 5.18542
12.5678 -4.09842 5.18407
12.534 -3.99819 5.18269
12.5947 -3.85948 5.18375
12.561 -3.75924 5.18239
12.5273 -3.65901 5.18102
12.4935 -3.55879 5.17966
12.4598 -3.45856 5.17828
12.4261 -3.35833 5.17693
12.4867 -3.21961 5.17798
12.453 -3.11938 5.17662
12.4193 -3.01915 5.17525
12.3856 -2.91892 5.17389
12.3519 -2.81869 5.17252
12.3181 -2.71846 5.17114
12.2844 -2.61823 5.16978
12.2507 -2.518 5.16841
12.3113 -2.37928 5.16948
12.2776 -2.27905 5.16811
12.2439 -2.17882 5.16675
12.1158 -2.11708 5.16295
12.0821 -2.01685 5.16159
12.1428 -1.87813 5.16264
12.109 -1.7779 5.16129
12.0753 -1.67767 5.15991
11.7597 -8.07551 6.17931
11.8204 -7.93679 6.18037
11.7866 -7.83656 6.179
11.8473 -7.69785 6.18005
11.9079 -7.55913 6.18112
11.8742 -7.4589 6.17975
11.9348 -7.32018 6.1808
11.9955 -7.18147 6.18187
12.0561 -7.04275 6.18292
12.1167 -6.90403 6.18398
12.083 -6.8038 6.18262
12.1436 -6.66509 6.18367
12.1099 -6.56486 6.18231
12.1705 -6.42614 6.18336
12.1368 -6.32591 6.18199
12.2918 -6.14871 6.18547
12.5814 -4.77678 6.18741
12.5477 -4.67655 6.18605
12.5139 -4.57631 6.18468
12.5746 -4.4376 6.18573
12.5409 -4.33737 6.18437
12.5071 -4.23714 6.183
12.5678 -4.09842 6.18407
12.534 -3.99819 6.18269
12.5003 -3.89796 6.18134
12.4666 -3.79773 6.17996
12.4329 -3.6975 6.1786
12.4935 -3.55879 6.17966
12.4598 -3.45856 6.17828
12.4261 -3.35833 6.17693
12.3924 -3.2581 6.17555
12.3587 -3.15787 6.17419
12.3249 -3.05764 6.17282
12.2912 -2.95741 6.17146
12.3519 -2.81869 6.17252
12.3181 -2.71846 6.17114
12.2844 -2.61823 6.16978
12.2507 -2.518 6.16841
12.217 -2.41777 6.16705
12.1833 -2.31754 6.16568
12.1496 -2.21731 6.16432
12.1158 -2.11708 6.16295
12.0821 -2.01685 6.16159
12.0484 -1.91662 6.16022
12.0147 -1.81639 6.15886
12.0753 -1.67767 6.15991
12.0416 -1.57744 6.15855
12.0079 -1.47721 6.15718
11.9742 -1.37699 6.15581
11.9405 -1.27675 6.15445
11.9067 -1.17653 6.15308
11.9674 -1.03781 6.15414
11.9337 -0.937579 6.15277
11.8999 -0.837349 6.15141
11.8662 -0.73712 6.15004
11.8325 -0.63689 6.14868
11.8931 -0.498175 6.14973
11.8594 -0.397945 6.14836
11.8257 -0.297714 6.147
11.6976 -0.23597 6.14322
11.6639 -0.135741 6.14185
11.6302 -0.0355103 6.14047
11.6908 0.103205 6.14154
11.6571 0.203435 6.14017
11.6234 0.303664 6.13881
11.5897 0.403894 6.13744
11.6503 0.542613 6.13849
11.6166 0.642842 6.13713
11.5829 0.743073 6.13576
11.5492 0.843301 6.1344
11.5154 0.943531 6.13303
11.4817 1.04376 6.13167
11.448 1.14399 6.13029
11.4143 1.24422 6.12894
11.3806 1.34445 6.12756
11.3469 1.44468 6.12621
11.3131 1.54491 6.12483
11.2794 1.64514 6.12347
11.2457 1.74537 6.1221
11.212 1.8456 6.12074
11.1783 1.94583 6.11937
11.1446 2.04606 6.11801
11.1108 2.14629 6.11664
11.0771 2.24652 6.11528
11.0434 2.34675 6.11391
11.0097 2.44698 6.11255
10.976 2.54721 6.11118
10.9423 2.64744 6.1098
10.9085 2.74767 6.10844
10.8748 2.8479 6.10707
10.8411 2.94813 6.10571
10.8074 3.04836 6.10434
10.7737 3.14859 6.10298
10.74 3.24882 6.10161
10.7062 3.34905 6.10025
10.5782 3.41079 6.09645
10.5445 3.51102 6.09509
10.5107 3.61125 6.09372
10.477 3.71148 6.09236
10.4433 3.81171 6.09099
10.4096 3.91194 6.08963
10.2815 3.97369 6.08585
10.2478 4.07392 6.08447
10.2141 4.17415 6.08311
10.1804 4.27438 6.08174
10.1467 4.37461 6.08037
10.1129 4.47484 6.07901
10.0792 4.57507 6.07764
10.0455 4.6753 6.07628
10.0118 4.77553 6.07491
9.97807 4.87576 6.07355
9.94435 4.97599 6.07217
9.91063 5.07622 6.07082
9.78257 5.13796 6.06702
9.74885 5.23819 6.06566
9.71514 5.33842 6.06429
9.58707 5.40016 6.0605
9.55335 5.50039 6.05914
9.51963 5.60062 6.05777
9.39157 5.66237 6.05399
9.35785 5.7626 6.05261
9.22979 5.82434 6.04883
9.19607 5.92457 6.04745
9.068 5.98631 6.04367
8.93994 6.04806 6.03989
8.90622 6.14828 6.03851
8.77816 6.21003 6.03473
8.74444 6.31026 6.03336
8.61637 6.372 6.02957
8.48831 6.43375 6.02579
8.36024 6.49549 6.02199
8.32652 6.59572 6.02063
8.19845 6.65746 6.01685
8.07039 6.7192 6.01305
7.75362 6.70398 6.00441
7.71991 6.80421 6.00305
7.68619 6.90444 6.00168
7.55812 6.96618 5.99789
7.52441 7.06641 5.99652
7.49069 7.16664 5.99516
7.36262 7.22838 5.99138
7.23456 7.29013 5.98758
7.01214 7.31339 5.98137
6.88408 7.37513 5.97758
6.75601 7.43687 5.97379
6.7223 7.5371 5.97243
6.40553 7.52187 5.96379
6.27746 7.58362 5.96001
12.8001 -5.01222 6.10362
12.7832 -4.86178 6.10468
12.8288 -4.63083 6.10817
12.812 -4.48037 6.10922
12.7951 -4.32993 6.11028
12.7783 -4.17948 6.11133
12.699 -4.10954 6.10997
12.6821 -3.95909 6.11102
12.7902 -3.64763 6.11693
12.7734 -3.49718 6.11798
12.7565 -3.34674 6.11905
12.6772 -3.27679 6.11768
12.5979 -3.20685 6.11632
12.581 -3.0564 6.11737
12.5642 -2.90595 6.11842
12.5473 -2.75551 6.11948
12.5929 -2.52455 6.12296
12.5761 -2.3741 6.12402
12.5592 -2.22366 6.12508
12.5424 -2.07321 6.12613
12.4631 -2.00327 6.12477
12.4462 -1.85282 6.12582
12.4294 -1.70237 6.12688
12.4125 -1.55192 6.12794
12.3957 -1.40147 6.129
12.3788 -1.25103 6.13005
12.2995 -1.18108 6.12869
12.2827 -1.03064 6.12975
12.2034 -0.960693 6.12837
12.124 -0.890749 6.12701
12.1072 -0.740304 6.12807
12.0903 -0.589852 6.12912
12.136 -0.358901 6.13261
12.0567 -0.288956 6.13124
12.0398 -0.138511 6.13229
11.9605 -0.0685668 6.13094
11.9436 0.0818815 6.13199
11.9268 0.23233 6.13304
11.9099 0.382777 6.13411
11.8306 0.452718 6.13274
11.8138 0.60317 6.13379
11.7345 0.673114 6.13243
11.7176 0.823559 6.13348
11.6383 0.893503 6.13213
11.6214 1.04395 6.13318
11.5421 1.11389 6.13181
11.5253 1.26434 6.13287
11.446 1.33429 6.1315
11.3667 1.40423 6.13014
11.3498 1.55467 6.1312
11.2705 1.62462 6.12982
11.2536 1.77507 6.13089
11.2993 2.00602 6.13437
11.2824 2.15647 6.13542
11.2031 2.22641 6.13405
11.1238 2.29635 6.13269
11.1069 2.4468 6.13374
11.0276 2.51675 6.13239
11.0108 2.66719 6.13344
11.0564 2.89814 6.13692
11.0395 3.04859 6.13797
11.0227 3.19904 6.13904
10.9434 3.26898 6.13766
10.9265 3.41943 6.13872
10.8472 3.48937 6.13736
10.7679 3.55932 6.13599
10.751 3.70977 6.13705
10.6717 3.77971 6.13568
10.5924 3.84965 6.13432
10.5756 4.0001 6.13538
10.4962 4.07004 6.134
10.4794 4.22049 6.13507
10.4001 4.29043 6.1337
10.3832 4.44088 6.13475
10.3039 4.51083 6.13339
10.2871 4.66127 6.13445
10.2078 4.73122 6.13309
10.1909 4.88166 6.13414
10.1741 5.03211 6.13519
10.1572 5.18256 6.13625
10.0779 5.2525 6.13489
10.061 5.40296 6.13594
9.98173 5.4729 6.13458
9.90241 5.54284 6.13321
9.88556 5.69329 6.13426
9.80625 5.76323 6.1329
9.72693 5.83317 6.13153
9.64762 5.90311 6.13017
9.63077 6.05357 6.13123
9.55145 6.12351 6.12987
9.47214 6.19345 6.12849
9.39282 6.26339 6.12714
9.31351 6.33334 6.12576
9.23419 6.40328 6.12439
9.15488 6.47323 6.12303
9.07557 6.54317 6.12166
9.05871 6.69361 6.12273
8.9794 6.76356 6.12135
8.90009 6.8335 6.12
8.82077 6.90344 6.11862
8.74146 6.97339 6.11726
8.66214 7.04333 6.11589
8.58283 7.11327 6.11453
8.50351 7.18322 6.11316
8.4242 7.25316 6.11179
8.34488 7.3231 6.11043
8.26557 7.39305 6.10905
8.18625 7.46299 6.1077
8.10694 7.53293 6.10632
8.02762 7.60288 6.10497
7.94831 7.67282 6.10359
7.86899 7.74276 6.10223
7.78968 7.81271 6.10086
7.71036 7.88265 6.0995
7.63105 7.95259 6.09813
7.48927 7.94203 6.09435
7.40996 8.01197 6.09297
7.33064 8.08192 6.09161
7.25133 8.15186 6.09024
7.17201 8.22181 6.08888
7.09269 8.29175 6.08751
6.95091 8.28118 6.08372
6.8716 8.35112 6.08235
6.79228 8.42107 6.08099
6.71297 8.49101 6.07962
6.57119 8.48045 6.07584
6.42941 8.46989 6.07205
6.28763 8.45933 6.06825
6.14585 8.44877 6.06447
6.00407 8.43821 6.06068
5.92475 8.50815 6.05931
5.72051 8.41708 6.0531
5.51626 8.32602 6.04689
5.43695 8.39596 6.04553
5.35763 8.4659 6.04416
5.21585 8.45534 6.04037
5.13654 8.52528 6.039
5.05722 8.59522 6.03764
4.91544 8.58466 6.03384
4.83612 8.65461 6.03249
4.69435 8.64405 6.02869
4.55257 8.63348 6.0249
4.41079 8.62292 6.02112
4.20654 8.53186 6.01491
4.12722 8.6018 6.01353
3.98544 8.59124 6.00975
3.84366 8.58068 6.00595
3.63942 8.48961 5.99974
3.43518 8.39855 5.99353
3.16846 8.22697 5.98489
8.83071 6.96217 6.12604
8.74089 7.08403 6.12709
8.65108 7.2059 6.12816
8.54742 7.22682 6.12679
8.4576 7.34868 6.12784
8.36779 7.47055 6.12891
8.3195 7.89527 6.13722
8.22969 8.01714 6.13829
8.12603 8.03805 6.13692
8.02237 8.05897 6.13554
7.91871 8.07989 6.13419
7.82889 8.20176 6.13524
7.72523 8.22267 6.13388
7.63542 8.34453 6.13493
7.53176 8.36545 6.13356
7.4281 8.38636 6.1322
7.32444 8.40728 6.13083
7.23462 8.52914 6.1319
7.13096 8.55006 6.13052
7.0273 8.57098 6.12917
6.92364 8.59189 6.12779
6.81998 8.6128 6.12643
6.71632 8.63372 6.12506
6.61266 8.65464 6.1237
6.509 8.67555 6.12233
6.41918 8.79742 6.12338
6.31552 8.81834 6.12202
6.21186 8.83925 6.12065
6.1082 8.86017 6.11929
6.00454 8.88108 6.11792
5.90088 8.902 6.11656
5.79722 8.92291 6.11519
5.69356 8.94383 6.11383
5.5899 8.96474 6.11246
5.48624 8.98566 6.1111
5.38258 9.00657 6.10973
5.27892 9.02749 6.10837
5.17526 9.0484 6.10699
5.0716 9.06932 6.10564
4.96794 9.09023 6.10426
4.86428 9.11115 6.10289
4.76062 9.13206 6.10153
4.64312 9.05202 6.09775
4.53945 9.07294 6.09637
4.43579 9.09385 6.09502
4.33213 9.11477 6.09364
4.22847 9.13568 6.09229
4.12481 9.1566 6.09091
4.02115 9.17752 6.08954
3.91749 9.19843 6.08818
3.81383 9.21934 6.08681
3.69633 9.13931 6.08302
3.59267 9.16022 6.08167
3.48901 9.18114 6.08029
3.38535 9.20205 6.07893
3.26785 9.12202 6.07513
3.16418 9.14294 6.07378
3.06053 9.16385 6.0724
2.94302 9.08381 6.06862
2.83936 9.10473 6.06725
2.72186 9.02469 6.06346
2.60435 8.94465 6.05968
2.48685 8.86462 6.05588
2.38318 8.88553 6.05452
2.26568 8.80549 6.05072
2.16202 8.82641 6.04936
2.04452 8.74637 6.04558
1.92701 8.66634 6.04178
1.82335 8.68725 6.04042
1.70585 8.60721 6.03662
1.58834 8.52718 6.03284
1.45699 8.34619 6.02663
1.33949 8.26615 6.02284
1.22199 8.18612 6.01904
1.10448 8.10608 6.01526
0.973132 7.92509 6.00905
0.827938 7.64315 6.00041
0.710434 7.56312 5.99663
0.606774 7.58403 5.99525
0.503114 7.60494 5.9939
0.38561 7.5249 5.9901
0.268105 7.44487 5.98631
0.164445 7.46578 5.98494
0.0469384 7.38575 5.98116
-0.0705637 7.30571 5.97737
-0.174225 7.32663 5.976
-0.291728 7.24659 5.97221
-0.409232 7.16655 5.96843
5.52242 9.07685 6.09441
5.34522 9.23183 6.09789
5.24499 9.19812 6.09653
5.10627 9.25875 6.09758
4.96755 9.31938 6.09863
4.79035 9.47436 6.10211
4.65163 9.53499 6.10316
4.5514 9.50128 6.10181
4.41269 9.56191 6.10286
4.31246 9.52819 6.1015
4.17374 9.58882 6.10255
4.07351 9.55511 6.10118
3.97328 9.52139 6.09982
3.87305 9.48767 6.09845
3.77282 9.45395 6.09709
3.67259 9.42024 6.09572
3.57236 9.38652 6.09436
3.47213 9.35281 6.09299
3.3719 9.31909 6.09163
3.23319 9.37972 6.09268
3.13296 9.346 6.09132
3.03273 9.31229 6.08995
2.9325 9.27857 6.08859
2.83227 9.24485 6.08722
2.73204 9.21113 6.08585
2.63181 9.17742 6.08449
2.53158 9.1437 6.08311
2.43135 9.10999 6.08176
2.33112 9.07627 6.08038
2.23089 9.04255 6.07903
2.13066 9.00883 6.07765
2.03043 8.97512 6.07629
1.9302 8.9414 6.07492
1.82997 8.90768 6.07356
1.72974 8.87396 6.07219
1.62951 8.84025 6.07083
1.52928 8.80653 6.06946
1.42905 8.77282 6.0681
1.32882 8.7391 6.06673
1.22859 8.70538 6.06537
1.12836 8.67166 6.064
1.02813 8.63795 6.06264
0.927898 8.60423 6.06126
0.827669 8.57051 6.05991
0.727438 8.53679 6.05853
0.627208 8.50308 6.05716
0.565464 8.37501 6.05338
0.465235 8.34129 6.05202
0.365006 8.30758 6.05064
0.264775 8.27386 6.04929
0.164544 8.24014 6.04791
0.0643146 8.20643 6.04655
-0.0359137 8.17271 6.04518
-0.136145 8.13899 6.04382
-0.236374 8.10528 6.04245
-0.336604 8.07156 6.04108
-0.436836 8.03784 6.03972
-0.537064 8.00412 6.03835
-0.598807 7.87605 6.03456
-0.699037 7.84234 6.0332
-0.799267 7.80862 6.03183
-0.861012 7.68056 6.02805
-0.96124 7.64684 6.02667
-1.06147 7.61312 6.02531
-1.1617 7.57941 6.02394
-1.26193 7.54569 6.02258
-1.32367 7.41762 6.01878
-1.4239 7.3839 6.01743
-1.52413 7.35019 6.01605
-1.62436 7.31647 6.01469
-1.7246 7.28275 6.01332
-1.78634 7.15469 6.00954
-1.88656 7.12097 6.00816
-1.9868 7.08725 6.00681
-2.04854 6.95919 6.00302
-2.11029 6.83112 5.99922
-2.17203 6.70306 5.99544
-2.19529 6.48064 5.98923
-2.25703 6.35258 5.98543
-2.31877 6.22451 5.98164
0.741709 9.03364 6.04819
0.671767 8.95433 6.04683
0.521318 8.93748 6.04788
0.370869 8.92063 6.04893
0.220422 8.90378 6.04999
0.150481 8.82446 6.04863
-0.0804715 8.87008 6.05211
-0.230919 8.85323 6.05316
-0.381368 8.83638 6.05423
-0.451312 8.75707 6.05286
-0.521252 8.67775 6.05148
-0.671704 8.6609 6.05255
-0.741648 8.58159 6.05118
-0.811592 8.50227 6.04982
-0.881535 8.42296 6.04845
-0.951476 8.34364 6.04709
-1.10192 8.32679 6.04814
-1.17186 8.24748 6.04677
-1.24181 8.16817 6.04541
-1.31175 8.08885 6.04404
-1.38169 8.00953 6.04268
-1.53214 7.99269 6.04373
-1.60209 7.91337 6.04237
-1.67203 7.83406 6.041
-1.74197 7.75474 6.03964
-1.81192 7.67543 6.03827
-1.88186 7.59611 6.0369
-1.9518 7.5168 6.03554
-2.02175 7.43749 6.03416
-2.09169 7.35817 6.03281
-2.16163 7.27886 6.03143
-2.23158 7.19954 6.03008
-2.30152 7.12023 6.0287
-2.45197 7.10338 6.02977
-2.52191 7.02406 6.0284
-2.59185 6.94475 6.02704
-2.6618 6.86543 6.02567
-2.73174 6.78612 6.02431
-2.80168 6.7068 6.02293
-2.87162 6.62749 6.02158
-2.94157 6.54817 6.0202
-3.01151 6.46886 6.01883
-3.08146 6.38954 6.01747
-3.1514 6.31023 6.0161
-3.22134 6.23091 6.01474
-3.29128 6.1516 6.01337
-3.36123 6.07229 6.01201
-3.43117 5.99297 6.01064
-3.50111 5.91365 6.00928
-3.57106 5.83434 6.0079
-3.641 5.75503 6.00655
-3.71094 5.67571 6.00517
-3.78089 5.5964 6.00381
-3.85083 5.51708 6.00244
-3.84027 5.3753 5.99866
-3.91021 5.29599 5.99728
-3.98016 5.21667 5.99593
-4.0501 5.13736 5.99455
-4.12004 5.05804 5.99319
-4.18998 4.97873 5.99182
-4.25993 4.89942 5.99046
-4.32987 4.8201 5.98909
-4.39981 4.74078 5.98773
-4.46976 4.66147 5.98636
-4.5397 4.58216 5.985
-4.60964 4.50284 5.98363
-4.67959 4.42353 5.98227
-4.66902 4.28174 5.97847
-4.73897 4.20243 5.97711
-4.80891 4.12312 5.97574
-4.79835 3.98134 5.97195
-4.56107 5.30558 6.01236
-4.58198 5.20192 6.011
-4.60289 5.09826 6.00963
-4.62381 4.9946 6.00827
-4.64473 4.89094 6.0069
-4.66564 4.78728 6.00554
-4.68655 4.68361 6.00417
-4.80842 4.5938 6.00522
-4.82934 4.49014 6.00386
-4.85025 4.38648 6.00249
-4.97212 4.29666 6.00356
-4.99303 4.193 6.00218
-5.01395 4.08934 6.00082
-5.13582 3.99953 6.00188
-5.15673 3.89587 6.0005
-5.17764 3.79221 5.99915
-5.19856 3.68855 5.99777
-5.21948 3.58489 5.99641
-5.24039 3.48123 5.99504
-5.26131 3.37757 5.99368
-5.28222 3.27391 5.99231
-5.30314 3.17024 5.99095
-5.32405 3.06659 5.98958
-5.34497 2.96293 5.98822
-5.36588 2.85927 5.98685
-5.28584 2.74176 5.98306
-5.30676 2.6381 5.98169
-5.32768 2.53444 5.98033
-5.24764 2.41694 5.97653
-5.26856 2.31328 5.97517
-5.28947 2.20962 5.9738
-5.31038 2.10595 5.97244
-5.3313 2.00229 5.97107
-5.35222 1.89863 5.96971
-5.37313 1.79497 5.96834
-5.39404 1.69132 5.96698
-5.41496 1.58765 5.96561
-5.43588 1.48399 5.96425
-5.35584 1.36649 5.96045
-5.37675 1.26283 5.95909
-5.39767 1.15917 5.95772
-5.41858 1.05551 5.95636
-5.33855 0.938006 5.95256
-5.35947 0.834344 5.9512
-5.38038 0.730684 5.94983
-5.40129 0.627024 5.94847
-5.42221 0.523363 5.9471
-5.44313 0.419703 5.94574
-5.46404 0.316045 5.94437
-5.48495 0.212385 5.94301
-5.50587 0.108725 5.94164
-5.42583 -0.00878274 5.93785
-5.44675 -0.112442 5.93648
-5.46766 -0.216104 5.93512
-5.48857 -0.319762 5.93375
-5.50949 -0.423423 5.93239
-5.53041 -0.527083 5.93102
-5.55132 -0.630743 5.92966
-5.57223 -0.734405 5.92828
-5.59315 -0.838064 5.92693
-5.51312 -0.955567 5.92313
-5.53403 -1.05923 5.92177
-5.454 -1.17673 5.91798
-5.47491 -1.28039 5.91661
-5.84089 0.687299 5.9843
-5.90153 0.548583 5.98535
-5.96216 0.409865 5.9864
-5.92844 0.309637 5.98505
-5.98908 0.17092 5.9861
-5.95536 0.0706903 5.98474
-6.01599 -0.0680263 5.98579
-6.07662 -0.206743 5.98685
-6.0429 -0.306971 5.98549
-6.10354 -0.44569 5.98654
-6.16417 -0.584404 5.98759
-6.13045 -0.684636 5.98624
-6.19109 -0.823352 5.98729
-6.15737 -0.923579 5.98592
-6.12365 -1.02381 5.98456
-6.18429 -1.16253 5.98561
-6.15057 -1.26276 5.98425
-6.11685 -1.36299 5.98288
-6.08313 -1.46322 5.98152
-6.04942 -1.56345 5.98015
-6.0157 -1.66368 5.97878
-5.98199 -1.76391 5.97742
-5.94827 -1.86414 5.97604
-5.91455 -1.96437 5.97469
-5.88083 -2.0646 5.97331
-5.84712 -2.16483 5.97195
-5.90775 -2.30354 5.97301
-5.87403 -2.40377 5.97165
-5.84031 -2.504 5.97028
-5.80659 -2.60423 5.96892
-5.77288 -2.70446 5.96754
-5.73916 -2.80469 5.96619
-5.70544 -2.90492 5.96481
-5.67173 -3.00515 5.96344
-5.63801 -3.10538 5.96208
-5.50995 -3.16713 5.9583
-5.47623 -3.26736 5.95692
-5.44251 -3.36759 5.95557
-5.40879 -3.46782 5.95419
-5.37508 -3.56805 5.95284
-5.34136 -3.66828 5.95146
-5.30764 -3.76851 5.9501
-5.27393 -3.86874 5.94873
-5.24021 -3.96897 5.94736
-5.20649 -4.0692 5.946
-5.17278 -4.16943 5.94463
-5.13906 -4.26966 5.94327
-5.10534 -4.36989 5.94189
-5.07162 -4.47012 5.94054
-4.94356 -4.53186 5.93675
-4.90984 -4.63209 5.93538
-4.87612 -4.73232 5.93401
-4.8424 -4.83255 5.93265
-4.80869 -4.93278 5.93127
-4.77497 -5.03301 5.92992
-4.74125 -5.13324 5.92854
-4.70754 -5.23347 5.92719
-4.57947 -5.29521 5.9234
-4.54575 -5.39544 5.92203
-4.51204 -5.49567 5.92065
-4.47832 -5.5959 5.9193
-4.4446 -5.69613 5.91792
-4.31654 -5.75787 5.91414
-4.28282 -5.8581 5.91278
-4.2491 -5.95833 5.91141
-4.21538 -6.05856 5.91005
-4.18167 -6.15879 5.90868
-4.0536 -6.22054 5.90489
-3.92554 -6.28228 5.90109
-3.89182 -6.38251 5.89973
-3.76375 -6.44425 5.89595
-3.73004 -6.54449 5.89458
-3.69632 -6.64471 5.8932
-3.6626 -6.74495 5.89185
-3.62888 -6.84517 5.89047
-3.59517 -6.94541 5.88911
-3.4671 -7.00715 5.88533
-3.33904 -7.06889 5.88153
-3.30532 -7.16912 5.88017
-3.17725 -7.23086 5.87637
-3.04919 -7.29261 5.87259
-3.01547 -7.39284 5.87123
-2.88741 -7.45458 5.86743
-2.85369 -7.55481 5.86607
-2.81997 -7.65504 5.8647
-2.78625 -7.75527 5.86334
-2.65819 -7.81702 5.85954
-2.62447 -7.91725 5.85818
-2.49641 -7.97899 5.85439
-2.46269 -8.07922 5.85303
-2.14592 -8.06399 5.84439
-5.24544 -4.36155 6.00046
-5.22859 -4.512 6.00151
-5.21174 -4.66245 6.00258
-5.19489 -4.8129 6.00363
-5.17804 -4.96334 6.00468
-5.09873 -5.03329 6.00333
-5.01941 -5.10323 6.00195
-5.00257 -5.25368 6.00302
-4.92325 -5.32363 6.00165
-4.84394 -5.39357 6.00027
-4.76462 -5.46351 5.99892
-4.74777 -5.61396 5.99997
-4.66846 -5.6839 5.99861
-4.58914 -5.75384 5.99724
-4.50983 -5.82378 5.99588
-4.49298 -5.97423 5.99693
-4.41366 -6.04418 5.99556
-4.39681 -6.19463 5.99663
-4.3175 -6.26457 5.99525
-4.30065 -6.41501 5.99631
-4.22133 -6.48496 5.99495
-4.14202 -6.5549 5.99358
-4.06271 -6.62484 5.99222
-4.04586 -6.77529 5.99327
-3.96654 -6.84524 5.99191
-3.88723 -6.91518 5.99054
-3.87038 -7.06563 5.99159
-3.79106 -7.13557 5.99023
-3.71175 -7.20551 5.98886
-3.63243 -7.27546 5.9875
-3.61559 -7.42591 5.98856
-3.53627 -7.49585 5.9872
-3.45696 -7.56579 5.98582
-3.37764 -7.63573 5.98447
-3.36079 -7.78618 5.98552
-3.28148 -7.85613 5.98415
-3.26463 -8.00657 5.98521
-3.18532 -8.07652 5.98384
-3.106 -8.14646 5.98248
-3.02668 -8.2164 5.98111
-3.00984 -8.36685 5.98216
-2.93052 -8.4368 5.9808
-2.85121 -8.50674 5.97943
-2.77189 -8.57668 5.97807
-2.69258 -8.64662 5.9767
-2.61326 -8.71657 5.97534
-2.53395 -8.78651 5.97397
-2.45463 -8.85645 5.97261
-2.37532 -8.9264 5.97124
-2.35847 -9.07684 5.97229
-2.27915 -9.14679 5.97093
-2.19984 -9.21673 5.96956
-2.12052 -9.28667 5.9682
-2.04121 -9.35662 5.96683
-1.96189 -9.42656 5.96547
-1.88258 -9.4965 5.9641
-1.80327 -9.56645 5.96274
-1.72395 -9.63639 5.96136
-1.64464 -9.70633 5.96001
-1.56532 -9.77627 5.95863
-1.48601 -9.84622 5.95728
-1.40669 -9.91616 5.9559
-1.26491 -9.9056 5.95212
-1.1856 -9.97554 5.95074
-1.10629 -10.0455 5.94939
-1.02697 -10.1154 5.94801
-0.947655 -10.1854 5.94666
-0.86834 -10.2553 5.94528
-0.789027 -10.3253 5.94392
-0.709713 -10.3952 5.94255
-0.630398 -10.4651 5.94119
-0.551082 -10.5351 5.93982
-0.409297 -10.5245 5.93604
-0.329984 -10.5945 5.93466
-0.250669 -10.6644 5.9333
-0.171356 -10.7344 5.93193
-0.0920396 -10.8043 5.93057
0.0497403 -10.7937 5.92677
0.129054 -10.8637 5.92542
0.208368 -10.9336 5.92404
0.350151 -10.9231 5.92026
0.49193 -10.9125 5.91647
0.633709 -10.9019 5.91267
0.77549 -10.8914 5.90889
0.854804 -10.9613 5.90752
0.996585 -10.9508 5.90373
1.0759 -11.0207 5.90237
1.21768 -11.0101 5.89857
