ply
format ascii 1.0
comment VCGLIB generated
element vertex 1015
property float x
property float y
property float z
element face 0
property list uchar int vertex_indices
end_header
3.34291 -11.9358 7.16418
3.49335 -11.919 7.16525
3.72431 -11.9646 7.16873
3.87475 -11.9477 7.16978
4.18621 -12.0558 7.17569
4.33666 -12.039 7.17674
4.4066 -11.9597 7.17538
4.55705 -11.9428 7.17644
4.62699 -11.8635 7.17506
4.77744 -11.8466 7.17613
4.92789 -11.8298 7.17719
5.07834 -11.8129 7.17824
5.22879 -11.7961 7.17929
5.45974 -11.8417 7.18279
5.69069 -11.8873 7.18626
5.76063 -11.808 7.18489
5.91108 -11.7912 7.18594
5.98102 -11.7119 7.18459
6.13147 -11.695 7.18564
6.20142 -11.6157 7.18428
6.35186 -11.5988 7.18533
6.50231 -11.582 7.18639
6.57225 -11.5027 7.18503
6.7227 -11.4858 7.18608
6.79264 -11.4065 7.18471
6.9431 -11.3897 7.18578
7.09354 -11.3728 7.18683
7.16348 -11.2935 7.18546
7.31393 -11.2766 7.18652
7.38387 -11.1973 7.18515
7.53432 -11.1805 7.1862
7.60427 -11.1012 7.18484
7.67421 -11.0219 7.18347
7.82465 -11.005 7.18454
7.8946 -10.9257 7.18317
7.96454 -10.8464 7.18181
8.11499 -10.8295 7.18286
8.18493 -10.7502 7.18149
8.33538 -10.7334 7.18256
8.40533 -10.6541 7.18118
8.55577 -10.6372 7.18224
8.62571 -10.5579 7.18088
8.69566 -10.4786 7.1795
8.84611 -10.4617 7.18057
8.91605 -10.3824 7.1792
8.986 -10.3031 7.17784
9.05593 -10.2238 7.17647
9.12588 -10.1445 7.17511
9.19582 -10.0651 7.17374
9.26577 -9.98583 7.17238
9.41621 -9.96899 7.17343
9.48616 -9.88967 7.17206
9.5561 -9.81035 7.1707
9.62604 -9.73104 7.16933
9.69599 -9.65173 7.16797
9.76593 -9.57241 7.1666
9.83587 -9.4931 7.16524
9.90582 -9.41378 7.16386
9.97576 -9.33447 7.16251
10.0457 -9.25515 7.16113
10.1961 -9.2383 7.16219
10.2661 -9.15899 7.16083
10.336 -9.07967 7.15945
10.406 -9.00036 7.1581
10.4759 -8.92104 7.15672
10.5459 -8.84173 7.15536
10.6158 -8.76241 7.15399
10.6858 -8.6831 7.15263
10.7557 -8.60379 7.15126
10.8256 -8.52447 7.1499
10.8956 -8.44515 7.14853
10.885 -8.30338 7.14474
10.955 -8.22406 7.14337
11.0249 -8.14475 7.14201
11.0143 -8.00297 7.13821
11.0843 -7.92365 7.13686
11.1542 -7.84434 7.13548
11.2242 -7.76502 7.13412
11.2136 -7.62324 7.13034
11.2836 -7.54392 7.12897
11.273 -7.40215 7.12518
11.3429 -7.32283 7.12381
11.3324 -7.18105 7.12003
11.4023 -7.10174 7.11865
11.4723 -7.02242 7.11729
11.5422 -6.94311 7.11592
11.5316 -6.80133 7.11214
11.6016 -6.72201 7.11076
11.591 -6.58024 7.10698
11.5805 -6.43845 7.1032
11.5699 -6.29667 7.0994
11.6398 -6.21736 7.09804
11.6293 -6.07558 7.09425
11.6992 -5.99627 7.09288
11.6887 -5.85448 7.0891
11.6781 -5.7127 7.0853
11.748 -5.63339 7.08394
11.7375 -5.49161 7.08015
11.7269 -5.34983 7.07635
11.7969 -5.27051 7.075
11.7863 -5.12873 7.0712
11.7757 -4.98695 7.06741
11.6847 -4.78271 7.0612
11.5936 -4.57846 7.05499
11.5831 -4.43668 7.05121
11.5725 -4.2949 7.04741
11.6424 -4.21559 7.04605
11.6319 -4.07381 7.04225
11.6213 -3.93202 7.03847
11.4497 -3.66531 7.02983
11.3587 -3.46107 7.02362
11.1871 -3.19436 7.01498
11.096 -2.99011 7.00877
11.166 -2.9108 7.0074
11.1554 -2.76902 7.00362
11.1449 -2.62724 6.99983
11.2148 -2.54792 6.99846
11.2042 -2.40614 6.99467
11.1937 -2.26436 6.99089
11.1831 -2.12258 6.98709
10.77 -1.66847 6.97119
10.5985 -1.40176 6.96255
10.5879 -1.25998 6.95877
10.5773 -1.1182 6.95497
10.4863 -0.913954 6.94876
10.4757 -0.772176 6.94498
10.3846 -0.567929 6.93877
10.3741 -0.426148 6.93497
10.3635 -0.284368 6.93118
10.1919 -0.0176558 6.92255
10.2619 0.0616584 6.92119
10.2513 0.203436 6.91739
9.17586 -10.1996 7.19785
9.29773 -10.1098 7.19891
9.4196 -10.0199 7.19997
9.54146 -9.93013 7.20102
9.76428 -9.85416 7.2045
9.88615 -9.76434 7.20557
10.008 -9.67452 7.20662
10.0289 -9.57087 7.20525
10.1508 -9.48105 7.20631
10.2727 -9.39123 7.20737
10.2936 -9.28757 7.20599
10.4155 -9.19776 7.20706
10.4364 -9.0941 7.20569
10.5582 -9.00428 7.20674
10.6801 -8.91447 7.20781
10.701 -8.81081 7.20644
10.8229 -8.72099 7.2075
10.8438 -8.61733 7.20613
10.9657 -8.52751 7.20718
10.9866 -8.42385 7.20583
11.0075 -8.32019 7.20445
11.1294 -8.23038 7.20551
11.1503 -8.12672 7.20415
11.2721 -8.0369 7.2052
11.2931 -7.93324 7.20384
11.4149 -7.84343 7.2049
11.4358 -7.73977 7.20352
11.4568 -7.6361 7.20216
11.4777 -7.53244 7.20079
11.4986 -7.42879 7.19943
11.5195 -7.32513 7.19806
11.5404 -7.22146 7.1967
11.5613 -7.1178 7.19533
11.6832 -7.02799 7.1964
11.7041 -6.92433 7.19502
11.725 -6.82067 7.19366
11.8469 -6.73085 7.19472
11.8678 -6.62719 7.19334
11.8887 -6.52353 7.19199
11.9096 -6.41987 7.19061
11.9306 -6.31621 7.18925
11.9515 -6.21255 7.18788
11.9724 -6.10889 7.18652
11.9933 -6.00523 7.18515
12.0142 -5.90157 7.18379
12.0351 -5.79791 7.18242
12.056 -5.69425 7.18106
12.077 -5.59059 7.17969
12.0979 -5.48693 7.17833
12.0178 -5.36943 7.17453
12.0387 -5.26577 7.17317
11.9587 -5.14826 7.16937
11.9796 -5.0446 7.16801
12.0006 -4.94094 7.16664
12.0215 -4.83728 7.16528
12.0424 -4.73362 7.16391
11.9623 -4.61612 7.16013
11.9833 -4.51246 7.15875
11.9032 -4.39495 7.15497
11.9241 -4.29129 7.15361
11.945 -4.18763 7.15224
11.966 -4.08397 7.15088
11.9869 -3.98031 7.14951
11.9068 -3.86281 7.14572
11.9278 -3.75915 7.14435
11.8477 -3.64164 7.14056
11.8686 -3.53798 7.13919
11.8896 -3.43432 7.13783
11.8095 -3.31682 7.13403
11.8304 -3.21316 7.13268
11.8513 -3.1095 7.1313
11.7713 -2.99199 7.12752
11.7922 -2.88833 7.12616
11.8131 -2.78467 7.12479
11.7331 -2.66717 7.121
11.6531 -2.54966 7.1172
11.674 -2.446 7.11584
11.5939 -2.3285 7.11206
11.6149 -2.22484 7.11069
11.6358 -2.12118 7.10933
11.6567 -2.01752 7.10796
11.5767 -1.90001 7.10417
11.4966 -1.78251 7.10037
11.5175 -1.67885 7.09901
11.4375 -1.56134 7.09523
11.4584 -1.45768 7.09386
11.3784 -1.34018 7.09007
11.3993 -1.23652 7.0887
11.3193 -1.11901 7.08492
11.3402 -1.01535 7.08354
11.3611 -0.911694 7.08218
11.281 -0.794189 7.07838
11.302 -0.690529 7.07703
11.2219 -0.573023 7.07324
11.2428 -0.469365 7.07187
11.1628 -0.351859 7.06808
11.1837 -0.248199 7.06671
11.1037 -0.130696 7.06293
11.1246 -0.0270342 7.06155
11.0446 0.0904697 7.05777
11.0655 0.194129 7.05641
11.0864 0.297789 7.05504
11.0064 0.415292 7.05125
11.0273 0.518955 7.04988
10.9472 0.636459 7.0461
10.9681 0.740121 7.04472
10.8881 0.857622 7.04094
10.8081 0.975125 7.03716
10.829 1.07879 7.03578
10.7489 1.19629 7.032
10.6689 1.3138 7.0282
10.6898 1.41746 7.02684
10.6098 1.53496 7.02306
10.6307 1.63862 7.02168
10.6516 1.74228 7.02032
10.6725 1.84594 7.01895
10.5925 1.96345 7.01517
10.6134 2.06711 7.01379
10.6343 2.17077 7.01244
10.5543 2.28827 7.00864
10.4743 2.40578 7.00485
10.3942 2.52328 7.00107
10.4151 2.62694 6.99969
10.3351 2.74445 6.99591
10.2551 2.86195 6.99213
10.175 2.97945 6.98833
9.89308 3.12465 6.97969
9.81304 3.24215 6.97591
9.83396 3.34581 6.97453
9.75392 3.46332 6.97075
9.67389 3.58082 6.96696
9.6948 3.68448 6.96559
9.61476 3.80199 6.96181
9.53473 3.91949 6.95802
9.15184 4.07853 6.94696
9.17275 4.18219 6.94559
9.09271 4.29969 6.9418
9.11363 4.40335 6.94044
8.18001 -11.0218 6.19077
8.20093 -10.9181 6.18939
8.32279 -10.8283 6.19046
8.34371 -10.7246 6.18909
8.83118 -10.3654 6.19331
9.15495 -10.3032 6.19922
9.27681 -10.2134 6.20027
9.49963 -10.1374 6.20375
9.6215 -10.0476 6.20482
9.64241 -9.94397 6.20345
9.76428 -9.85416 6.2045
9.88615 -9.76434 6.20557
9.90706 -9.66068 6.20419
10.0289 -9.57087 6.20525
10.0498 -9.46721 6.20389
10.0708 -9.36354 6.20251
10.1926 -9.27373 6.20358
10.3145 -9.18391 6.20464
10.5373 -9.10794 6.20811
10.6592 -9.01813 6.20917
10.781 -8.92831 6.21024
10.9029 -8.83849 6.21129
10.9238 -8.73483 6.20992
11.0457 -8.64502 6.21098
11.0666 -8.54136 6.20961
11.0875 -8.4377 6.20825
11.1084 -8.33404 6.20688
11.1294 -8.23038 6.20551
11.2512 -8.14056 6.20657
11.2721 -8.0369 6.2052
11.394 -7.94709 6.20627
11.4149 -7.84343 6.2049
11.4358 -7.73977 6.20352
11.5577 -7.64995 6.20459
11.5786 -7.54629 6.20322
11.5995 -7.44263 6.20186
11.6205 -7.33897 6.20049
11.6414 -7.23531 6.19913
11.6623 -7.13165 6.19775
11.6832 -7.02799 6.1964
11.8051 -6.93817 6.19745
11.826 -6.83451 6.19608
11.8469 -6.73085 6.19472
11.8678 -6.62719 6.19334
11.8887 -6.52353 6.19199
11.9096 -6.41987 6.19061
11.9306 -6.31621 6.18925
12.0524 -6.2264 6.19031
12.0733 -6.12274 6.18895
12.4468 -5.97151 6.18895
12.5074 -5.83279 6.19002
12.4737 -5.73256 6.18864
12.5343 -5.59384 6.1897
12.595 -5.45513 6.19077
12.5613 -5.3549 6.18939
12.6219 -5.21618 6.19046
12.5882 -5.11595 6.18909
12.6488 -4.97723 6.19014
12.6151 -4.877 6.18878
10.978 -8.62235 7.16023
11.6047 -8.25271 7.17583
11.6654 -8.11399 7.1769
11.6317 -8.01376 7.17552
11.5979 -7.91353 7.17416
11.6586 -7.77482 7.17522
11.6249 -7.67459 7.17384
11.9685 -7.42041 7.18217
12.0292 -7.2817 7.18323
12.0898 -7.14298 7.1843
12.1504 -7.00426 7.18535
12.1167 -6.90403 7.18398
12.1774 -6.76532 7.18504
12.238 -6.6266 7.1861
12.2043 -6.52637 7.18472
12.3592 -6.34917 7.1882
12.4199 -6.21045 7.18927
12.4805 -6.07174 7.19032
12.4468 -5.97151 7.18895
12.5074 -5.83279 7.19002
12.4737 -5.73256 7.18864
12.44 -5.63233 7.18729
12.5006 -5.49361 7.18834
12.4669 -5.39338 7.18697
12.5275 -5.25467 7.18803
12.4938 -5.15444 7.18666
12.5545 -5.01572 7.18771
12.5207 -4.91549 7.18636
12.487 -4.81526 7.18498
12.5477 -4.67655 7.18605
12.5139 -4.57631 7.18468
12.4802 -4.47609 7.18332
12.4465 -4.37585 7.18195
12.5071 -4.23714 7.183
12.4734 -4.13691 7.18164
12.4397 -4.03668 7.18027
12.5003 -3.89796 7.18134
12.4666 -3.79773 7.17996
12.4329 -3.6975 7.1786
12.3992 -3.59727 7.17723
12.3655 -3.49704 7.17587
12.3317 -3.39681 7.1745
12.3924 -3.2581 7.17555
12.3587 -3.15787 7.17419
12.3249 -3.05764 7.17282
12.2912 -2.95741 7.17146
12.3519 -2.81869 7.17252
12.3181 -2.71846 7.17114
12.2844 -2.61823 7.16978
12.2507 -2.518 7.16841
12.217 -2.41777 7.16705
12.1833 -2.31754 7.16568
12.1496 -2.21731 7.16432
12.1158 -2.11708 7.16295
12.0821 -2.01685 7.16159
12.0484 -1.91662 7.16022
12.0147 -1.81639 7.15886
11.981 -1.71616 7.15749
12.0416 -1.57744 7.15855
12.0079 -1.47721 7.15718
11.9742 -1.37699 7.15581
11.9405 -1.27675 7.15445
11.9067 -1.17653 7.15308
11.873 -1.0763 7.15172
11.8393 -0.976065 7.15034
11.8056 -0.875835 7.14899
11.7719 -0.775605 7.14761
11.8325 -0.63689 7.14868
11.7988 -0.53666 7.14731
11.7651 -0.43643 7.14595
11.7314 -0.3362 7.14458
11.6976 -0.23597 7.14322
11.6639 -0.135741 7.14185
11.6302 -0.0355103 7.14047
11.5965 0.0647202 7.13911
11.5628 0.16495 7.13774
11.6234 0.303664 7.13881
11.5897 0.403894 7.13744
11.556 0.504124 7.13608
11.5222 0.604354 7.1347
11.4885 0.704585 7.13335
11.4548 0.804813 7.13197
11.4211 0.905043 7.13062
11.3874 1.00527 7.12924
11.3537 1.1055 7.12788
11.3199 1.20573 7.12651
11.2862 1.30596 7.12514
11.3469 1.44468 7.12621
11.3131 1.54491 7.12483
11.2794 1.64514 7.12347
11.2457 1.74537 7.1221
11.212 1.8456 7.12074
11.1783 1.94583 7.11937
11.1446 2.04606 7.11801
11.1108 2.14629 7.11664
11.0771 2.24652 7.11528
11.0434 2.34675 7.11391
11.0097 2.44698 7.11255
10.976 2.54721 7.11118
10.9423 2.64744 7.1098
10.9085 2.74767 7.10844
10.8748 2.8479 7.10707
10.8411 2.94813 7.10571
10.8074 3.04836 7.10434
10.6793 3.1101 7.10056
10.6456 3.21033 7.0992
10.6119 3.31056 7.09782
10.5782 3.41079 7.09645
10.5445 3.51102 7.09509
10.5107 3.61125 7.09372
10.3827 3.673 7.08994
10.349 3.77323 7.08858
10.3152 3.87346 7.0872
10.2815 3.97369 7.08585
10.2478 4.07392 7.08447
10.2141 4.17415 7.08311
10.1804 4.27438 7.08174
10.1467 4.37461 7.08037
10.1129 4.47484 7.07901
10.0792 4.57507 7.07764
10.0455 4.6753 7.07628
10.0118 4.77553 7.07491
9.88372 4.83727 7.07112
9.85001 4.9375 7.06976
9.81629 5.03773 7.06839
9.78257 5.13796 7.06702
9.74885 5.23819 7.06566
9.71514 5.33842 7.06429
9.58707 5.40016 7.0605
9.55335 5.50039 7.05914
9.51963 5.60062 7.05777
9.39157 5.66237 7.05399
9.2635 5.72411 7.05019
9.13544 5.78585 7.0464
9.10172 5.88608 7.04504
8.97365 5.94782 7.04124
8.93994 6.04806 7.03989
8.90622 6.14828 7.03851
8.77816 6.21003 7.03473
8.65009 6.27177 7.03094
8.42767 6.29503 7.02472
8.39396 6.39526 7.02336
8.26589 6.45701 7.01958
8.23217 6.55723 7.0182
8.1041 6.61898 7.01442
8.07039 6.7192 7.01305
8.03667 6.81944 7.01169
7.9086 6.88118 7.00789
7.87489 6.98141 7.00653
7.74682 7.04316 7.00275
7.71311 7.14338 7.00137
7.58504 7.20513 6.99759
7.45697 7.26687 6.99379
7.04586 7.21315 6.98274
7.01214 7.31339 6.98137
6.88408 7.37513 6.97758
6.75601 7.43687 6.97379
11.2319 2.60781 7.1386
11.215 2.75826 7.13965
11.1982 2.90871 7.1407
11.1813 3.05915 7.14177
11.102 3.1291 7.1404
11.0851 3.27954 7.14145
11.0058 3.34949 7.14009
10.9265 3.41943 7.13872
10.8472 3.48937 7.13736
10.7679 3.55932 7.13599
10.6886 3.62926 7.13463
10.6717 3.77971 7.13568
10.5924 3.84965 7.13432
10.5131 3.9196 7.13295
10.4962 4.07004 7.134
10.4169 4.13999 7.13264
10.4001 4.29043 7.1337
10.3208 4.36038 7.13232
10.3039 4.51083 7.13339
10.2871 4.66127 7.13445
10.2702 4.81172 7.1355
10.1909 4.88166 7.13414
10.1741 5.03211 7.13519
10.0947 5.10206 7.13383
10.0779 5.2525 7.13489
10.061 5.40296 7.13594
9.98173 5.4729 7.13458
9.90241 5.54284 7.13321
9.8231 5.61278 7.13185
9.74378 5.68273 7.13048
9.72693 5.83317 7.13153
9.64762 5.90311 7.13017
9.5683 5.97306 7.1288
9.48899 6.043 7.12744
9.40967 6.11295 7.12607
9.33036 6.18289 7.12471
9.25104 6.25283 7.12334
9.23419 6.40328 7.12439
9.15488 6.47323 7.12303
9.07557 6.54317 7.12166
8.99625 6.61311 7.1203
8.91693 6.68305 7.11893
8.90009 6.8335 7.12
8.82077 6.90344 7.11862
8.74146 6.97339 7.11726
8.66214 7.04333 7.11589
8.58283 7.11327 7.11453
8.50351 7.18322 7.11316
8.4242 7.25316 7.11179
8.34488 7.3231 7.11043
8.26557 7.39305 7.10905
8.12379 7.38249 7.10527
8.04447 7.45243 7.10391
7.96516 7.52237 7.10254
7.88584 7.59232 7.10118
7.80653 7.66226 7.09981
7.66475 7.65169 7.09602
7.58543 7.72164 7.09465
7.50612 7.79158 7.09329
7.4268 7.86152 7.09192
7.34749 7.93146 7.09056
7.26817 8.00141 7.08919
7.18886 8.07135 7.08783
7.10954 8.1413 7.08646
7.03023 8.21124 7.0851
6.95091 8.28118 7.08372
6.8716 8.35112 7.08235
6.72982 8.34057 7.07857
6.65051 8.41051 7.07721
6.50872 8.39995 7.07341
6.36694 8.38938 7.06963
6.28763 8.45933 7.06825
6.14585 8.44877 7.06447
6.06654 8.51871 7.06311
5.98722 8.58865 7.06174
5.90791 8.65859 7.06038
5.82859 8.72854 7.05901
5.68681 8.71798 7.05522
5.35763 8.4659 7.04416
5.21585 8.45534 7.04037
5.07407 8.44478 7.03658
4.99476 8.51472 7.03522
4.85298 8.50416 7.03142
4.71119 8.4936 7.02763
8.35394 7.3696 7.12648
8.27797 7.59242 7.12996
8.202 7.81523 7.13344
8.11218 7.9371 7.13449
8.00852 7.95802 7.13313
7.90486 7.97893 7.13176
7.8012 7.99985 7.1304
7.72523 8.22267 7.13388
7.62157 8.24358 7.13251
7.53176 8.36545 7.13356
7.4281 8.38636 7.1322
7.32444 8.40728 7.13083
7.22077 8.42819 7.12947
7.11711 8.44911 7.1281
7.01346 8.47002 7.12674
6.92364 8.59189 7.12779
6.81998 8.6128 7.12643
6.71632 8.63372 7.12506
6.61266 8.65464 7.1237
6.509 8.67555 7.12233
6.41918 8.79742 7.12338
6.31552 8.81834 7.12202
6.21186 8.83925 7.12065
6.1082 8.86017 7.11929
6.00454 8.88108 7.11792
5.90088 8.902 7.11656
5.79722 8.92291 7.11519
5.69356 8.94383 7.11383
5.5899 8.96474 7.11246
5.48624 8.98566 7.1111
5.38258 9.00657 7.10973
5.27892 9.02749 7.10837
5.17526 9.0484 7.10699
5.0716 9.06932 7.10564
4.95409 8.98928 7.10184
4.85043 9.01019 7.10048
4.74678 9.03111 7.09911
4.64312 9.05202 7.09775
4.53945 9.07294 7.09637
4.43579 9.09385 7.09502
4.33213 9.11477 7.09364
4.22847 9.13568 7.09229
4.12481 9.1566 7.09091
4.02115 9.17752 7.08954
3.90365 9.09748 7.08575
3.79999 9.11839 7.0844
3.69633 9.13931 7.08302
3.57883 9.05928 7.07924
3.47517 9.08019 7.07787
3.35766 9.00015 7.07408
3.24016 8.92011 7.0703
3.12265 8.84008 7.0665
3.01899 8.86099 7.06514
2.90149 8.78096 7.06134
2.79783 8.80187 7.05998
2.68032 8.72183 7.0562
2.57666 8.74275 7.05482
2.473 8.76367 7.05347
2.3555 8.68363 7.04967
2.25184 8.70454 7.04831
2.13433 8.62451 7.04451
2.01683 8.54447 7.04073
1.89932 8.46443 7.03694
1.78182 8.3844 7.03314
1.65047 8.2034 7.02693
1.54681 8.22432 7.02557
1.42931 8.14429 7.02177
1.32565 8.16521 7.02042
1.20814 8.08517 7.01663
1.10448 8.10608 7.01526
0.986977 8.02604 7.01147
0.869471 7.94601 7.00768
0.751966 7.86597 7.00389
0.620619 7.68498 6.99768
0.503114 7.60494 6.9939
0.38561 7.5249 6.9901
5.5609 8.9825 7.09198
5.34522 9.23183 7.09789
5.24499 9.19812 7.09653
5.10627 9.25875 7.09758
5.00604 9.22503 7.09621
4.86732 9.28566 7.09727
4.76709 9.25195 7.0959
4.66686 9.21823 7.09454
4.52815 9.27886 7.0956
4.42792 9.24514 7.09422
4.2892 9.30577 7.09529
4.18897 9.27206 7.09392
4.08874 9.23834 7.09256
3.95002 9.29898 7.09361
3.8498 9.26526 7.09224
3.71108 9.32589 7.09331
3.61085 9.29217 7.09193
3.47213 9.35281 7.09299
3.3719 9.31909 7.09163
3.27167 9.28537 7.09026
3.17144 9.25165 7.0889
3.03273 9.31229 7.08995
2.9325 9.27857 7.08859
2.83227 9.24485 7.08722
2.73204 9.21113 7.08585
2.63181 9.17742 7.08449
2.53158 9.1437 7.08311
2.43135 9.10999 7.08176
2.33112 9.07627 7.08038
2.23089 9.04255 7.07903
2.13066 9.00883 7.07765
2.03043 8.97512 7.07629
1.9302 8.9414 7.07492
1.82997 8.90768 7.07356
1.72974 8.87396 7.07219
1.62951 8.84025 7.07083
1.52928 8.80653 7.06946
1.42905 8.77282 7.0681
1.32882 8.7391 7.06673
1.22859 8.70538 7.06537
1.12836 8.67166 7.064
1.02813 8.63795 7.06264
0.966384 8.50988 7.05884
0.866155 8.47616 7.05748
0.765924 8.44245 7.05611
0.665695 8.40873 7.05475
0.565464 8.37501 7.05338
0.465235 8.34129 7.05202
0.365006 8.30758 7.05064
0.264775 8.27386 7.04929
0.164544 8.24014 7.04791
0.0643146 8.20643 7.04655
-0.0359137 8.17271 7.04518
-0.136145 8.13899 7.04382
-0.236374 8.10528 7.04245
-0.336604 8.07156 7.04108
-0.436836 8.03784 7.03972
-0.537064 8.00412 7.03835
-0.598807 7.87605 7.03456
-0.699037 7.84234 7.0332
-0.799267 7.80862 7.03183
-0.899497 7.77491 7.03047
-0.999725 7.74119 7.0291
-1.09996 7.70747 7.02773
-1.1617 7.57941 7.02394
-1.26193 7.54569 7.02258
-1.36216 7.51198 7.02121
-1.46239 7.47826 7.01985
-1.56262 7.44454 7.01848
-1.66285 7.41082 7.01712
-1.76308 7.37711 7.01575
-1.82482 7.24903 7.01196
-1.92505 7.21532 7.01059
-1.9868 7.08725 7.00681
-2.08703 7.05354 7.00543
-2.14877 6.92548 7.00165
-2.21051 6.7974 6.99786
-2.23377 6.57499 6.99165
-2.29552 6.44693 6.98785
0.601823 8.87501 7.04546
0.290365 8.98309 7.05136
0.139918 8.96624 7.05241
-0.0105276 8.94939 7.05347
-0.160976 8.93254 7.05453
-0.230919 8.85323 7.05316
-0.381368 8.83638 7.05423
-0.451312 8.75707 7.05286
-0.521252 8.67775 7.05148
-0.591196 8.59844 7.05013
-0.66114 8.51912 7.04875
-0.811592 8.50227 7.04982
-0.881535 8.42296 7.04845
-0.951476 8.34364 7.04709
-1.10192 8.32679 7.04814
-1.17186 8.24748 7.04677
-1.24181 8.16817 7.04541
-1.31175 8.08885 7.04404
-1.4622 8.072 7.0451
-1.53214 7.99269 7.04373
-1.60209 7.91337 7.04237
-1.67203 7.83406 7.041
-1.74197 7.75474 7.03964
-1.81192 7.67543 7.03827
-1.88186 7.59611 7.0369
-1.9518 7.5168 7.03554
-2.02175 7.43749 7.03416
-2.17219 7.42063 7.03523
-2.24214 7.34132 7.03386
-2.31208 7.26201 7.0325
-2.38202 7.18269 7.03113
-2.45197 7.10338 7.02977
-2.52191 7.02406 7.0284
-2.59185 6.94475 7.02704
-2.6618 6.86543 7.02567
-2.73174 6.78612 7.02431
-2.80168 6.7068 7.02293
-2.87162 6.62749 7.02158
-2.94157 6.54817 7.0202
-3.01151 6.46886 7.01883
-3.08146 6.38954 7.01747
-3.1514 6.31023 7.0161
-3.22134 6.23091 7.01474
-3.29128 6.1516 7.01337
-3.36123 6.07229 7.01201
-3.43117 5.99297 7.01064
-3.50111 5.91365 7.00928
-3.57106 5.83434 7.0079
-3.641 5.75503 7.00655
-3.71094 5.67571 7.00517
-3.78089 5.5964 7.00381
-3.85083 5.51708 7.00244
-3.92077 5.43777 7.00108
-3.99072 5.35845 6.99971
-4.06066 5.27914 6.99835
-4.1306 5.19982 6.99698
-4.12004 5.05804 6.99319
-4.18998 4.97873 6.99182
-4.25993 4.89942 6.99046
-4.32987 4.8201 6.98909
-4.39981 4.74078 6.98773
-4.46976 4.66147 6.98636
-4.5397 4.58216 6.985
-4.60964 4.50284 6.98363
-4.67959 4.42353 6.98227
-4.74953 4.34421 6.9809
-4.81947 4.2649 6.97954
-4.80891 4.12312 6.97574
-4.87885 4.0438 6.97438
-4.62678 3.71462 6.96332
-4.69672 3.63531 6.96194
-4.68616 3.49353 6.95816
-4.6756 3.35175 6.95438
-4.51923 5.5129 7.01509
-4.6411 5.42308 7.01616
-4.66202 5.31942 7.01479
-4.78388 5.2296 7.01584
-4.8048 5.12594 7.01448
-4.82571 5.02228 7.01311
-4.84663 4.91862 7.01175
-4.86754 4.81496 7.01038
-4.88846 4.7113 7.00902
-4.90937 4.60764 7.00764
-4.93029 4.50398 7.00629
-5.05216 4.41417 7.00734
-5.07307 4.31051 7.00597
-5.09398 4.20685 7.00461
-5.1149 4.10319 7.00323
-5.23677 4.01337 7.0043
-5.25768 3.90971 7.00293
-5.2786 3.80605 7.00157
-5.29951 3.70239 7.0002
-5.32043 3.59873 6.99884
-5.34134 3.49507 6.99747
-5.36226 3.39141 6.99609
-5.38317 3.28775 6.99474
-5.40409 3.18409 6.99336
-5.425 3.08043 6.992
-5.34497 2.96293 6.98822
-5.36588 2.85927 6.98685
-5.3868 2.7556 6.98549
-5.40771 2.65194 6.98412
-5.32768 2.53444 6.98033
-5.34859 2.43078 6.97896
-5.36951 2.32712 6.9776
-5.39042 2.22346 6.97623
-5.31038 2.10595 6.97244
-5.3313 2.00229 6.97107
-5.35222 1.89863 6.96971
-5.37313 1.79497 6.96834
-5.39404 1.69132 6.96698
-5.41496 1.58765 6.96561
-5.43588 1.48399 6.96425
-5.45679 1.38033 6.96288
-5.4777 1.27667 6.96152
-5.49862 1.17301 6.96014
-5.41858 1.05551 6.95636
-5.4395 0.95185 6.95499
-5.35947 0.834344 6.9512
-5.38038 0.730684 6.94983
-5.50224 0.640869 6.9509
-5.52316 0.537207 6.94952
-5.54408 0.433548 6.94817
-5.56499 0.329888 6.94679
-5.48495 0.212385 6.94301
-5.50587 0.108725 6.94164
-5.52678 0.00506347 6.94028
-5.5477 -0.098596 6.9389
-5.46766 -0.216104 6.93512
-5.48857 -0.319762 6.93375
-5.40854 -0.437266 6.92996
-5.32851 -0.55477 6.92618
-6.0361 -0.646149 6.98381
-6.19109 -0.823352 6.98729
-6.15737 -0.923579 6.98592
-6.12365 -1.02381 6.98456
-6.08993 -1.12404 6.98318
-6.05622 -1.22427 6.98183
-6.11685 -1.36299 6.98288
-6.08313 -1.46322 6.98152
-6.04942 -1.56345 6.98015
-6.11005 -1.70216 6.9812
-6.07633 -1.80239 6.97984
-6.04261 -1.90262 6.97847
-6.00889 -2.00285 6.97711
-5.97518 -2.10308 6.97574
-5.94146 -2.20331 6.97438
-5.90775 -2.30354 6.97301
-5.87403 -2.40377 6.97165
-5.84031 -2.504 6.97028
-5.80659 -2.60423 6.96892
-5.77288 -2.70446 6.96754
-5.73916 -2.80469 6.96619
-5.70544 -2.90492 6.96481
-5.67173 -3.00515 6.96344
-5.63801 -3.10538 6.96208
-5.60429 -3.20561 6.96071
-5.57057 -3.30584 6.95935
-5.53686 -3.40607 6.95798
-5.50314 -3.5063 6.95662
-5.46942 -3.60653 6.95525
-5.43571 -3.70676 6.95389
-5.30764 -3.76851 6.9501
-5.27393 -3.86874 6.94873
-5.24021 -3.96897 6.94736
-5.20649 -4.0692 6.946
-5.17278 -4.16943 6.94463
-5.13906 -4.26966 6.94327
-5.10534 -4.36989 6.94189
-5.07162 -4.47012 6.94054
-5.03791 -4.57034 6.93916
-5.00419 -4.67058 6.93781
-4.97047 -4.77081 6.93643
-4.93676 -4.87104 6.93507
-4.80869 -4.93278 6.93127
-4.77497 -5.03301 6.92992
-4.74125 -5.13324 6.92854
-4.70754 -5.23347 6.92719
-4.67382 -5.3337 6.92581
-4.54575 -5.39544 6.92203
-4.51204 -5.49567 6.92065
-4.47832 -5.5959 6.9193
-4.4446 -5.69613 6.91792
-4.31654 -5.75787 6.91414
-4.28282 -5.8581 6.91278
-4.2491 -5.95833 6.91141
-4.12104 -6.02008 6.90762
-4.08732 -6.12031 6.90625
-4.0536 -6.22054 6.90489
-4.01989 -6.32077 6.90352
-3.98617 -6.421 6.90216
-3.95245 -6.52123 6.90079
-3.91874 -6.62146 6.89943
-3.88502 -6.72169 6.89806
-3.75695 -6.78343 6.89427
-3.72323 -6.88366 6.8929
-3.59517 -6.94541 6.88911
-3.56145 -7.04563 6.88774
-3.43339 -7.10738 6.88396
-3.21097 -7.13064 6.87775
-3.0829 -7.19238 6.87396
-3.04919 -7.29261 6.87259
-2.92112 -7.35435 6.8688
-2.88741 -7.45458 6.86743
-2.75934 -7.51633 6.86365
-5.46653 -4.30217 7.00562
-5.38722 -4.37212 7.00424
-5.37037 -4.52256 7.00531
-5.29106 -4.59251 7.00394
-5.21174 -4.66245 7.00258
-5.19489 -4.8129 7.00363
-5.11558 -4.88284 7.00226
-5.03626 -4.95278 7.0009
-5.01941 -5.10323 7.00195
-4.9401 -5.17317 7.0006
-4.86078 -5.24312 6.99922
-4.78147 -5.31306 6.99786
-4.70215 -5.383 6.99649
-4.68531 -5.53345 6.99754
-4.60599 -5.6034 6.99619
-4.52668 -5.67334 6.99481
-4.50983 -5.82378 6.99588
-4.36805 -5.81323 6.99208
-4.28873 -5.88317 6.99072
-4.20942 -5.95311 6.98935
-4.3175 -6.26457 6.99525
-4.30065 -6.41501 6.99631
-4.2838 -6.56546 6.99738
-4.20449 -6.63541 6.996
-4.18764 -6.78586 6.99706
-4.10832 -6.8558 6.9957
-4.02901 -6.92574 6.99432
-4.01216 -7.07619 6.99539
-3.93285 -7.14613 6.99402
-3.85353 -7.21608 6.99266
-3.77421 -7.28602 6.99129
-3.75736 -7.43647 6.99234
-3.67805 -7.50641 6.99098
-3.59874 -7.57635 6.98961
-3.51942 -7.6463 6.98825
-3.44011 -7.71624 6.98688
-3.42326 -7.86669 6.98795
-3.34394 -7.93663 6.98657
-3.26463 -8.00657 6.98521
-3.18532 -8.07652 6.98384
-3.106 -8.14646 6.98248
-3.08915 -8.29691 6.98354
-3.00984 -8.36685 6.98216
-2.93052 -8.4368 6.9808
-2.85121 -8.50674 6.97943
-2.83436 -8.65718 6.98048
-2.75504 -8.72713 6.97913
-2.67573 -8.79707 6.97775
-2.59641 -8.86701 6.97639
-2.5171 -8.93696 6.97502
-2.43778 -9.0069 6.97366
-2.35847 -9.07684 6.97229
-2.27915 -9.14679 6.97093
-2.19984 -9.21673 6.96956
-2.18299 -9.36718 6.97063
-2.10367 -9.43712 6.96925
-2.02436 -9.50706 6.9679
-1.94505 -9.57701 6.96652
-1.86573 -9.64695 6.96515
-1.72395 -9.63639 6.96136
-1.64464 -9.70633 6.96001
-1.56532 -9.77627 6.95863
-1.48601 -9.84622 6.95728
-1.40669 -9.91616 6.9559
-1.32738 -9.9861 6.95454
-1.24806 -10.056 6.95317
-1.16875 -10.126 6.95181
-1.02697 -10.1154 6.94801
-0.947655 -10.1854 6.94666
-0.86834 -10.2553 6.94528
-0.789027 -10.3253 6.94392
-0.709713 -10.3952 6.94255
-0.630398 -10.4651 6.94119
-0.488613 -10.4546 6.93739
-0.409297 -10.5245 6.93604
-0.329984 -10.5945 6.93466
-0.188205 -10.5839 6.93088
-0.108891 -10.6539 6.9295
-0.0295749 -10.7238 6.92815
0.112205 -10.7132 6.92435
0.191519 -10.7832 6.92299
0.270833 -10.8531 6.92162
0.412617 -10.8426 6.91783
0.49193 -10.9125 6.91647
0.696177 -10.8214 6.91025
