ply
format ascii 1.0
comment VCGLIB generated
element vertex 1015
property float x
property float y
property float z
element face 0
property list uchar int vertex_indices
end_header
1.95719 -11.6621 8.14331
2.10764 -11.6453 8.14436
2.25809 -11.6284 8.14542
2.32803 -11.5491 8.14406
2.8005 -11.7821 8.1548
3.19246 -11.9527 8.16313
3.34291 -11.9358 8.16418
3.49335 -11.919 8.16525
3.80481 -12.0271 8.17114
3.95526 -12.0102 8.17221
4.10571 -11.9934 8.17326
4.33666 -12.039 8.17674
4.56761 -12.0846 8.18022
4.71806 -12.0677 8.18127
4.86851 -12.0509 8.18234
5.01896 -12.034 8.1834
5.1694 -12.0172 8.18445
5.23935 -11.9379 8.18309
5.3898 -11.921 8.18414
5.54024 -11.9042 8.1852
5.61019 -11.8249 8.18384
5.76063 -11.808 8.18489
5.83058 -11.7287 8.18353
5.90052 -11.6494 8.18216
6.05097 -11.6325 8.18321
6.12091 -11.5532 8.18185
6.27136 -11.5364 8.18291
6.42181 -11.5195 8.18396
6.57225 -11.5027 8.18503
6.7227 -11.4858 8.18608
6.87315 -11.469 8.18713
6.9431 -11.3897 8.18578
7.09354 -11.3728 8.18683
7.24399 -11.356 8.18788
7.31393 -11.2766 8.18652
7.46438 -11.2598 8.18758
7.53432 -11.1805 8.1862
7.68477 -11.1636 8.18727
7.75471 -11.0843 8.1859
7.82465 -11.005 8.18454
7.97511 -10.9882 8.18559
8.04505 -10.9088 8.18422
8.11499 -10.8295 8.18286
8.18493 -10.7502 8.18149
8.33538 -10.7334 8.18256
8.40533 -10.6541 8.18118
8.47527 -10.5747 8.17982
8.54521 -10.4954 8.17845
8.69566 -10.4786 8.1795
8.7656 -10.3993 8.17815
8.83554 -10.3199 8.17677
8.90549 -10.2406 8.17542
9.05593 -10.2238 8.17647
9.12588 -10.1445 8.17511
9.19582 -10.0651 8.17374
9.26577 -9.98583 8.17238
9.33571 -9.90652 8.17101
9.48616 -9.88967 8.17206
9.5561 -9.81035 8.1707
9.62604 -9.73104 8.16933
9.69599 -9.65173 8.16797
9.76593 -9.57241 8.1666
9.83587 -9.4931 8.16524
9.90582 -9.41378 8.16386
9.97576 -9.33447 8.16251
10.0457 -9.25515 8.16113
10.1156 -9.17584 8.15977
10.1856 -9.09652 8.1584
10.2555 -9.01721 8.15704
10.3255 -8.93789 8.15567
10.3954 -8.85858 8.1543
10.4654 -8.77926 8.15294
10.5353 -8.69995 8.15157
10.6052 -8.62064 8.15021
10.6752 -8.54132 8.14883
10.6646 -8.39954 8.14505
10.7346 -8.32022 8.14369
10.8045 -8.24091 8.14232
10.8745 -8.1616 8.14096
10.9444 -8.08228 8.13959
11.0143 -8.00297 8.13821
11.0843 -7.92365 8.13686
11.0737 -7.78187 8.13307
11.1437 -7.70255 8.1317
11.2136 -7.62324 8.13034
11.2836 -7.54392 8.12897
11.273 -7.40215 8.12518
11.2624 -7.26037 8.12138
11.2519 -7.11859 8.1176
11.2413 -6.97681 8.11382
11.3113 -6.89749 8.11244
11.3007 -6.75571 8.10866
11.2901 -6.61393 8.10487
11.3601 -6.53462 8.1035
11.3495 -6.39284 8.09972
11.4195 -6.31352 8.09834
11.4089 -6.17174 8.09456
11.4788 -6.09243 8.09319
11.4683 -5.95065 8.0894
11.5382 -5.87133 8.08804
11.5277 -5.72955 8.08424
11.5976 -5.65024 8.08289
11.587 -5.50846 8.07909
11.5765 -5.36668 8.0753
11.6464 -5.28736 8.07393
11.5554 -5.08312 8.06772
11.5448 -4.94134 8.06393
11.5342 -4.79955 8.06015
11.5237 -4.65778 8.05635
11.5936 -4.57846 8.05499
11.5831 -4.43668 8.05121
11.492 -4.23244 8.04498
11.4814 -4.09065 8.0412
11.3904 -3.88641 8.03499
11.3798 -3.74463 8.0312
11.3692 -3.60285 8.0274
11.2782 -3.3986 8.02119
11.1871 -3.19436 8.01498
11.096 -2.99011 8.00877
11.005 -2.78587 8.00256
11.0749 -2.70655 8.00119
11.0644 -2.56477 7.99741
10.9733 -2.36052 7.9912
10.9627 -2.21874 7.9874
10.9522 -2.07696 7.98361
10.8611 -1.87272 7.9774
10.6895 -1.60601 7.96877
10.5985 -1.40176 7.96255
10.5879 -1.25998 7.95877
10.5773 -1.1182 7.95497
10.4863 -0.913954 7.94876
10.4757 -0.772176 7.94498
10.4651 -0.630398 7.94119
10.4546 -0.488613 7.93739
9.17586 -10.1996 8.19785
9.29773 -10.1098 8.19891
9.4196 -10.0199 8.19997
9.54146 -9.93013 8.20102
9.66333 -9.84031 8.20209
9.7852 -9.7505 8.20314
9.90706 -9.66068 8.20419
9.92798 -9.55702 8.20284
9.94889 -9.45336 8.20146
10.0708 -9.36354 8.20251
10.1926 -9.27373 8.20358
10.3145 -9.18391 8.20464
10.4364 -9.0941 8.20569
10.5582 -9.00428 8.20674
10.6801 -8.91447 8.20781
10.701 -8.81081 8.20644
10.8229 -8.72099 8.2075
10.8438 -8.61733 8.20613
10.8647 -8.51367 8.20476
10.9866 -8.42385 8.20583
11.0075 -8.32019 8.20445
11.0284 -8.21653 8.20309
11.1503 -8.12672 8.20415
11.1712 -8.02306 8.20277
11.2931 -7.93324 8.20384
11.314 -7.82958 8.20247
11.3349 -7.72592 8.20111
11.4568 -7.6361 8.20216
11.4777 -7.53244 8.20079
11.4986 -7.42879 8.19943
11.5195 -7.32513 8.19806
11.5404 -7.22146 8.1967
11.5613 -7.1178 8.19533
11.5822 -7.01414 8.19397
11.7041 -6.92433 8.19502
11.725 -6.82067 8.19366
11.7459 -6.71701 8.19229
11.7669 -6.61335 8.19093
11.8887 -6.52353 8.19199
11.9096 -6.41987 8.19061
11.9306 -6.31621 8.18925
11.9515 -6.21255 8.18788
11.9724 -6.10889 8.18652
11.9933 -6.00523 8.18515
12.0142 -5.90157 8.18379
12.0351 -5.79791 8.18242
11.9551 -5.68041 8.17863
11.976 -5.57675 8.17726
11.9969 -5.47309 8.1759
11.9169 -5.35558 8.1721
11.9378 -5.25192 8.17075
11.9587 -5.14826 8.16937
11.8787 -5.03076 8.16559
11.8996 -4.9271 8.16423
11.9205 -4.82344 8.16286
11.9414 -4.71978 8.1615
11.9623 -4.61612 8.16013
11.9833 -4.51246 8.15875
11.9032 -4.39495 8.15497
11.9241 -4.29129 8.15361
11.945 -4.18763 8.15224
11.865 -4.07013 8.14845
11.8859 -3.96647 8.14708
11.8059 -3.84896 8.1433
11.8268 -3.7453 8.14192
11.7468 -3.6278 8.13814
11.7677 -3.52414 8.13678
11.6876 -3.40663 8.13298
11.7086 -3.30297 8.13162
11.6285 -3.18547 8.12782
11.6494 -3.08181 8.12646
11.5694 -2.9643 8.12268
11.4894 -2.8468 8.11888
11.5103 -2.74314 8.11752
11.5312 -2.63948 8.11615
11.5521 -2.53582 8.11479
11.4721 -2.41831 8.11099
11.493 -2.31465 8.10963
11.5139 -2.21099 8.10826
11.4339 -2.09349 8.10448
11.4548 -1.98983 8.1031
11.4757 -1.88617 8.10175
11.3957 -1.76866 8.09796
11.4166 -1.665 8.09659
11.4375 -1.56134 8.09523
11.4584 -1.45768 8.09386
11.3784 -1.34018 8.09007
11.3993 -1.23652 8.0887
11.3193 -1.11901 8.08492
11.2392 -1.00151 8.08112
11.2601 -0.89785 8.07976
11.1801 -0.780345 8.07597
11.201 -0.676685 8.0746
11.2219 -0.573023 8.07324
11.1419 -0.45552 8.06944
11.1628 -0.351859 8.06808
11.0828 -0.234356 8.06429
11.0027 -0.116852 8.0605
10.9227 0.000653148 8.05672
10.9436 0.104313 8.05534
10.8636 0.221818 8.05156
10.8845 0.325478 8.05019
10.9054 0.429138 8.04883
10.8254 0.546643 8.04504
10.7453 0.664147 8.04124
10.6653 0.781654 8.03746
10.5853 0.899155 8.03368
10.6062 1.00281 8.0323
10.5261 1.12032 8.02852
10.547 1.22398 8.02715
10.467 1.34149 8.02336
10.387 1.45899 8.01958
10.3069 1.57649 8.01578
10.3278 1.68015 8.01442
10.3488 1.78381 8.01305
10.3697 1.88747 8.01169
10.2896 2.00498 8.00789
10.3106 2.10864 8.00653
10.2305 2.22614 8.00275
10.2514 2.3298 8.00137
10.0704 2.46115 7.99516
9.99041 2.57866 7.99138
9.91037 2.69616 7.98758
9.93129 2.79982 7.98622
9.9522 2.90348 7.98485
9.87217 3.02099 7.98106
9.89308 3.12465 7.97969
9.81304 3.24215 7.97591
9.83396 3.34581 7.97453
9.75392 3.46332 7.97075
9.67389 3.58082 7.96696
9.59385 3.69833 7.96317
9.31191 3.84352 7.95454
9.23187 3.96102 7.95074
9.25279 4.06468 7.94939
9.27371 4.16834 7.94801
9.29462 4.272 7.94666
9.31554 4.37566 7.94528
9.2355 4.49317 7.9415
9.25641 4.59683 7.94012
9.17638 4.71433 7.93634
9.09634 4.83184 7.93256
11.5979 -7.91353 8.17416
11.7529 -7.73633 8.17764
11.7192 -7.6361 8.17627
11.7798 -7.49739 8.17732
11.8405 -7.35867 8.17839
11.9011 -7.21995 8.17944
12.0561 -7.04275 8.18292
12.0224 -6.94252 8.18155
12.083 -6.8038 8.18262
12.0493 -6.70357 8.18124
12.0156 -6.60334 8.17989
12.0762 -6.46463 8.18094
12.1368 -6.32591 8.18199
12.1975 -6.18719 8.18306
12.1638 -6.08697 8.18169
12.2244 -5.94825 8.18274
12.1907 -5.84802 8.18138
12.2513 -5.7093 8.18243
12.2176 -5.60907 8.18108
12.2782 -5.47036 8.18213
12.3388 -5.33164 8.18318
12.3051 -5.23141 8.18182
12.3658 -5.09269 8.18288
12.332 -4.99246 8.1815
12.3927 -4.85375 8.18257
12.4533 -4.71503 8.18362
12.4196 -4.6148 8.18225
12.3859 -4.51457 8.18089
12.4465 -4.37585 8.18195
12.4128 -4.27563 8.18059
12.3791 -4.1754 8.17921
12.3454 -4.07517 8.17786
12.3116 -3.97494 8.17648
12.3723 -3.83622 8.17754
12.3386 -3.73599 8.17618
12.3048 -3.63576 8.1748
12.2711 -3.53553 8.17345
12.3317 -3.39681 8.1745
12.298 -3.29658 8.17313
12.2643 -3.19635 8.17177
12.3249 -3.05764 8.17282
12.2912 -2.95741 8.17146
12.2575 -2.85718 8.17009
12.1294 -2.79543 8.16631
12.0957 -2.6952 8.16493
12.062 -2.59497 8.16357
12.0283 -2.49474 8.1622
11.9946 -2.39451 8.16084
12.0552 -2.2558 8.1619
12.0215 -2.15557 8.16054
11.9878 -2.05534 8.15916
11.9541 -1.95511 8.15781
11.9203 -1.85488 8.15643
11.8866 -1.75465 8.15506
11.9473 -1.61593 8.15613
11.9135 -1.5157 8.15475
11.8798 -1.41547 8.1534
11.8461 -1.31524 8.15202
11.8124 -1.21501 8.15067
11.7787 -1.11478 8.14929
11.745 -1.01455 8.14793
11.8056 -0.875835 8.14899
11.7719 -0.775605 8.14761
11.7382 -0.675376 8.14626
11.7044 -0.575145 8.14488
11.6707 -0.474916 8.14352
11.637 -0.374685 8.14215
11.6033 -0.274455 8.14079
11.5696 -0.174227 8.13942
11.5359 -0.0739963 8.13806
11.5021 0.0262341 8.13669
11.4684 0.126464 8.13533
11.5291 0.26518 8.13638
11.4953 0.365409 8.13501
11.4616 0.46564 8.13365
11.4279 0.565869 8.13228
11.3942 0.6661 8.13092
11.3605 0.766329 8.12955
11.3267 0.866558 8.12819
11.293 0.966789 8.12682
11.3537 1.1055 8.12788
11.3199 1.20573 8.12651
11.2862 1.30596 8.12514
11.2525 1.40619 8.12378
11.2188 1.50642 8.12241
11.1851 1.60665 8.12105
11.1514 1.70688 8.11967
11.1176 1.80711 8.11832
11.0839 1.90734 8.11694
11.0502 2.00757 8.11559
11.0165 2.1078 8.11421
10.9828 2.20803 8.11285
11.0434 2.34675 8.11391
11.0097 2.44698 8.11255
10.976 2.54721 8.11118
10.9423 2.64744 8.1098
10.9085 2.74767 8.10844
10.8748 2.8479 8.10707
10.8411 2.94813 8.10571
10.713 3.00987 8.10193
10.6793 3.1101 8.10056
10.6456 3.21033 8.0992
10.6119 3.31056 8.09782
10.4838 3.37231 8.09404
10.4501 3.47254 8.09267
10.4164 3.57277 8.09131
10.3827 3.673 8.08994
10.2546 3.73474 8.08615
10.2209 3.83497 8.08478
10.1872 3.9352 8.08342
10.1535 4.03543 8.08205
10.1197 4.13566 8.08069
10.086 4.23589 8.07932
10.0523 4.33612 8.07796
10.0186 4.43635 8.07658
9.98487 4.53658 8.07523
9.95115 4.63681 8.07385
9.91744 4.73704 8.07249
9.78937 4.79878 8.0687
9.75565 4.89901 8.06734
9.72193 4.99924 8.06596
9.59387 5.06099 8.06218
9.56015 5.16122 8.06081
9.52644 5.26145 8.05945
9.49272 5.36168 8.05807
9.459 5.46191 8.05672
9.42529 5.56214 8.05534
9.29722 5.62388 8.05156
9.2635 5.72411 8.05019
9.13544 5.78585 8.0464
8.91302 5.80911 8.04019
8.8793 5.90934 8.03882
8.75124 5.97108 8.03503
8.62317 6.03283 8.03125
8.58946 6.13306 8.02988
8.46139 6.1948 8.02609
8.42767 6.29503 8.02472
8.29961 6.35678 8.02094
8.26589 6.45701 8.01958
8.13782 6.51875 8.01578
8.1041 6.61898 8.01442
7.97604 6.68072 8.01062
7.94232 6.78095 8.00926
7.81426 6.8427 8.00548
7.68619 6.90444 8.00168
7.55812 6.96618 7.99789
7.43006 7.02792 7.99411
7.30199 7.08967 7.99031
7.17393 7.15141 7.98653
7.04586 7.21315 7.98274
6.91779 7.2749 7.97894
6.78973 7.33664 7.97516
6.75601 7.43687 7.97379
6.62794 7.49862 7.97
6.49988 7.56036 7.96622
6.37181 7.6221 7.96242
6.24375 7.68385 7.95863
6.21003 7.78408 7.95728
6.08196 7.84582 7.95348
12.6197 -4.0396 8.1086
12.6028 -3.88915 8.10966
12.586 -3.7387 8.11072
12.5691 -3.58825 8.11177
12.4898 -3.51831 8.11041
12.4729 -3.36786 8.11147
12.4561 -3.21741 8.11252
12.4393 -3.06696 8.11357
12.6723 -2.5945 8.12433
12.6554 -2.44405 8.12538
12.6386 -2.2936 8.12645
12.5592 -2.22366 8.12508
12.5424 -2.07321 8.12613
12.5256 -1.92276 8.1272
12.4462 -1.85282 8.12582
12.4294 -1.70237 8.12688
12.3501 -1.63243 8.12552
12.3332 -1.48198 8.12657
12.3164 -1.33153 8.12762
12.2371 -1.26159 8.12627
12.2202 -1.11114 8.12732
12.1409 -1.04119 8.12596
12.0616 -0.971251 8.12459
12.0447 -0.820808 8.12564
12.0903 -0.589852 8.12912
12.0735 -0.439408 8.13019
11.9942 -0.369463 8.12881
11.9773 -0.219015 8.12987
11.898 -0.149071 8.12851
11.8812 0.00137663 8.12956
11.8643 0.151825 8.13062
11.785 0.221768 8.12926
11.7682 0.372214 8.13031
11.7513 0.522662 8.13138
11.672 0.592606 8.13
11.6551 0.743057 8.13106
11.6383 0.893503 8.13213
11.559 0.963444 8.13075
11.5421 1.11389 8.13181
11.5253 1.26434 8.13287
11.446 1.33429 8.1315
11.4291 1.48473 8.13255
11.3498 1.55467 8.1312
11.2705 1.62462 8.12982
11.2536 1.77507 8.13089
11.1743 1.84501 8.12952
11.095 1.91495 8.12816
11.0782 2.0654 8.12921
11.0613 2.21585 8.13026
10.982 2.28579 8.12891
10.9027 2.35574 8.12753
10.8858 2.50618 8.12859
10.8065 2.57613 8.12723
10.9771 2.96809 8.13554
10.9602 3.11854 8.13661
10.9434 3.26898 8.13766
10.864 3.33892 8.13631
10.7847 3.40887 8.13493
10.7054 3.47881 8.13356
10.6261 3.54876 8.1322
10.5468 3.6187 8.13083
10.5299 3.76915 8.1319
10.5131 3.9196 8.13295
10.4338 3.98954 8.13158
10.4169 4.13999 8.13264
10.4001 4.29043 8.1337
10.3208 4.36038 8.13232
10.3039 4.51083 8.13339
10.2871 4.66127 8.13445
10.2078 4.73122 8.13309
10.1909 4.88166 8.13414
10.1116 4.95161 8.13277
10.0323 5.02155 8.13141
10.0154 5.172 8.13246
9.99858 5.32245 8.13351
9.91926 5.39239 8.13216
9.90241 5.54284 8.13321
9.8231 5.61278 8.13185
9.74378 5.68273 8.13048
9.66447 5.75267 8.12912
9.58515 5.82261 8.12775
9.50584 5.89256 8.12637
9.48899 6.043 8.12744
9.40967 6.11295 8.12607
9.33036 6.18289 8.12471
9.25104 6.25283 8.12334
9.17173 6.32277 8.12198
9.15488 6.47323 8.12303
9.07557 6.54317 8.12166
8.99625 6.61311 8.1203
8.91693 6.68305 8.11893
8.83762 6.753 8.11757
8.75831 6.82294 8.1162
8.74146 6.97339 8.11726
8.66214 7.04333 8.11589
8.58283 7.11327 8.11453
8.50351 7.18322 8.11316
8.4242 7.25316 8.11179
8.34488 7.3231 8.11043
8.26557 7.39305 8.10905
8.12379 7.38249 8.10527
8.04447 7.45243 8.10391
7.96516 7.52237 8.10254
7.88584 7.59232 8.10118
7.80653 7.66226 8.09981
7.72721 7.7322 8.09845
7.6479 7.80215 8.09708
7.56858 7.87209 8.0957
7.4268 7.86152 8.09192
7.34749 7.93146 8.09056
7.26817 8.00141 8.08919
7.18886 8.07135 8.08783
7.10954 8.1413 8.08646
7.03023 8.21124 8.0851
6.88845 8.20068 8.0813
6.80914 8.27062 8.07994
6.72982 8.34057 8.07857
6.58804 8.33 8.07478
6.50872 8.39995 8.07341
6.36694 8.38938 8.06963
6.28763 8.45933 8.06825
6.20831 8.52927 8.06689
6.129 8.59922 8.06552
6.04968 8.66916 8.06416
5.90791 8.65859 8.06038
5.76612 8.64804 8.05658
5.31202 8.23495 8.04068
5.17023 8.22439 8.0369
5.09092 8.29433 8.03552
4.94914 8.28377 8.03174
4.80736 8.27321 8.02794
4.72805 8.34315 8.02658
4.58626 8.33259 8.0228
4.50695 8.40253 8.02142
4.36517 8.39197 8.01764
4.22339 8.38141 8.01384
4.08161 8.37085 8.01006
3.93983 8.36028 8.00627
3.79805 8.34972 8.00247
3.5938 8.25866 7.99626
8.54742 7.22682 8.12679
8.44376 7.24773 8.12541
8.35394 7.3696 8.12648
8.26413 7.49147 8.12753
8.16047 7.51238 8.12617
8.07065 7.63425 8.12723
7.96699 7.65516 8.12585
7.86333 7.67608 8.1245
7.75967 7.69699 8.12312
7.66985 7.81886 8.12419
7.58004 7.94073 8.12524
7.49022 8.06259 8.1263
7.40041 8.18446 8.12735
7.29675 8.20538 8.12599
7.20693 8.32724 8.12704
7.10327 8.34816 8.12569
7.01346 8.47002 8.12674
6.9098 8.49094 8.12537
6.80613 8.51185 8.12401
6.70247 8.53277 8.12263
6.59881 8.55368 8.12128
6.49515 8.5746 8.1199
6.40534 8.69647 8.12097
6.30168 8.71738 8.1196
6.19802 8.7383 8.11823
6.09436 8.75921 8.11687
6.00454 8.88108 8.11792
5.90088 8.902 8.11656
5.79722 8.92291 8.11519
5.69356 8.94383 8.11383
5.5899 8.96474 8.11246
5.48624 8.98566 8.1111
5.38258 9.00657 8.10973
5.27892 9.02749 8.10837
5.17526 9.0484 8.10699
5.0716 9.06932 8.10564
4.95409 8.98928 8.10184
4.85043 9.01019 8.10048
4.74678 9.03111 8.09911
4.62927 8.95107 8.09532
4.52561 8.97199 8.09395
4.42195 8.9929 8.09259
4.31829 9.01382 8.09122
4.21463 9.03473 8.08986
4.09713 8.9547 8.08606
3.99347 8.97562 8.0847
3.88981 8.99653 8.08333
3.78615 9.01744 8.08197
3.66864 8.9374 8.07819
3.56498 8.95832 8.07681
3.46132 8.97924 8.07544
3.35766 9.00015 8.07408
3.254 9.02106 8.07271
3.15034 9.04198 8.07135
3.03284 8.96194 8.06757
2.92917 8.98286 8.06619
2.81167 8.90283 8.06241
2.69417 8.82278 8.05861
2.57666 8.74275 8.05482
2.45916 8.66271 8.05104
2.3555 8.68363 8.04967
2.23799 8.60359 8.04588
2.13433 8.62451 8.04451
2.01683 8.54447 8.04073
1.88548 8.36348 8.03452
5.10627 9.25875 8.09758
4.96755 9.31938 8.09863
4.86732 9.28566 8.09727
4.76709 9.25195 8.0959
4.66686 9.21823 8.09454
4.56663 9.18451 8.09317
4.42792 9.24514 8.09422
4.2892 9.30577 8.09529
4.15049 9.36641 8.09634
4.01177 9.42704 8.0974
3.91154 9.39332 8.09604
3.81131 9.3596 8.09467
3.67259 9.42024 8.09572
3.57236 9.38652 8.09436
3.47213 9.35281 8.09299
3.3719 9.31909 8.09163
3.27167 9.28537 8.09026
3.17144 9.25165 8.0889
3.07121 9.21794 8.08752
2.97098 9.18422 8.08617
2.87075 9.15051 8.08479
2.73204 9.21113 8.08585
2.63181 9.17742 8.08449
2.53158 9.1437 8.08311
2.43135 9.10999 8.08176
2.33112 9.07627 8.08038
2.23089 9.04255 8.07903
2.13066 9.00883 8.07765
2.03043 8.97512 8.07629
1.9302 8.9414 8.07492
1.82997 8.90768 8.07356
1.72974 8.87396 8.07219
1.62951 8.84025 8.07083
1.52928 8.80653 8.06946
1.42905 8.77282 8.0681
1.32882 8.7391 8.06673
1.22859 8.70538 8.06537
1.12836 8.67166 8.064
1.02813 8.63795 8.06264
0.927898 8.60423 8.06126
0.866155 8.47616 8.05748
0.765924 8.44245 8.05611
0.665695 8.40873 8.05475
0.565464 8.37501 8.05338
0.465235 8.34129 8.05202
0.365006 8.30758 8.05064
0.264775 8.27386 8.04929
0.164544 8.24014 8.04791
0.0643146 8.20643 8.04655
-0.0359137 8.17271 8.04518
-0.136145 8.13899 8.04382
-0.236374 8.10528 8.04245
-0.336604 8.07156 8.04108
-0.436836 8.03784 8.03972
-0.537064 8.00412 8.03835
-0.637294 7.97041 8.03699
-0.737524 7.93669 8.03561
-0.799267 7.80862 8.03183
-0.899497 7.77491 8.03047
-0.999725 7.74119 8.0291
-1.09996 7.70747 8.02773
-1.20019 7.67375 8.02637
-1.26193 7.54569 8.02258
-1.36216 7.51198 8.02121
-1.46239 7.47826 8.01985
-1.56262 7.44454 8.01848
-1.62436 7.31647 8.01469
-1.7246 7.28275 8.01332
-1.82482 7.24903 8.01196
-1.88656 7.12097 8.00816
-1.9868 7.08725 8.00681
-2.08703 7.05354 8.00543
-2.14877 6.92548 8.00165
-2.249 6.89176 8.00027
-2.31074 6.76369 7.99649
-2.41097 6.72997 7.99513
-2.43423 6.50756 7.98891
-2.49598 6.37949 7.98512
-2.51923 6.15707 7.97891
-2.61946 6.12336 7.97755
-2.68121 5.99529 7.97375
-2.74295 5.86723 7.96997
-0.22036 8.71145 8.04938
-0.290303 8.63214 8.048
-0.360243 8.55282 8.04665
-0.510692 8.53597 8.0477
-0.580636 8.45666 8.04634
-0.731084 8.43981 8.04739
-0.801028 8.36049 8.04602
-0.951476 8.34364 8.04709
-1.02142 8.26433 8.04572
-1.17186 8.24748 8.04677
-1.24181 8.16817 8.04541
-1.39226 8.15132 8.04646
-1.4622 8.072 8.0451
-1.53214 7.99269 8.04373
-1.60209 7.91337 8.04237
-1.75254 7.89652 8.04343
-1.82248 7.81721 8.04205
-1.89242 7.73789 8.0407
-1.96236 7.65858 8.03932
-2.03231 7.57926 8.03796
-2.10225 7.49995 8.03659
-2.17219 7.42063 8.03523
-2.24214 7.34132 8.03386
-2.31208 7.26201 8.0325
-2.38202 7.18269 8.03113
-2.45197 7.10338 8.02977
-2.52191 7.02406 8.0284
-2.59185 6.94475 8.02704
-2.6618 6.86543 8.02567
-2.73174 6.78612 8.02431
-2.80168 6.7068 8.02293
-2.87162 6.62749 8.02158
-2.94157 6.54817 8.0202
-3.09201 6.53132 8.02126
-3.16196 6.45201 8.0199
-3.2319 6.37269 8.01852
-3.30184 6.29338 8.01717
-3.37179 6.21406 8.01579
-3.44173 6.13475 8.01443
-3.51167 6.05543 8.01306
-3.58161 5.97612 8.0117
-3.65156 5.8968 8.01033
-3.7215 5.81749 8.00897
-3.79145 5.73818 8.0076
-3.86139 5.65886 8.00623
-3.93133 5.57955 8.00487
-4.00128 5.50023 8.00349
-4.07122 5.42092 8.00214
-4.06066 5.27914 7.99835
-4.1306 5.19982 7.99698
-4.20054 5.12051 7.99562
-4.27049 5.04119 7.99425
-4.34043 4.96188 7.99289
-4.41038 4.88257 7.99152
-4.48032 4.80325 7.99014
-4.46976 4.66147 7.98636
-4.5397 4.58216 7.985
-4.60964 4.50284 7.98363
-4.67959 4.42353 7.98227
-4.74953 4.34421 7.9809
-4.81947 4.2649 7.97954
-4.80891 4.12312 7.97574
-4.87885 4.0438 7.97438
-4.8683 3.90202 7.97058
-4.85773 3.76024 7.9668
-4.84717 3.61846 7.96301
-4.83661 3.47668 7.95921
-4.90655 3.39737 7.95786
-4.89599 3.25559 7.95407
-4.88543 3.11381 7.95027
-4.95537 3.03449 7.94891
-4.86431 2.83025 7.9427
-4.85374 2.68847 7.9389
-4.84663 4.91862 8.01175
-4.9685 4.82881 8.0128
-4.98941 4.72515 8.01144
-5.01032 4.62149 8.01007
-5.03124 4.51783 8.0087
-5.05216 4.41417 8.00734
-5.07307 4.31051 8.00597
-5.19494 4.22069 8.00703
-5.21585 4.11703 8.00566
-5.23677 4.01337 8.0043
-5.25768 3.90971 8.00293
-5.37955 3.81989 8.00398
-5.40046 3.71623 8.00262
-5.42138 3.61257 8.00125
-5.4423 3.50892 7.99989
-5.46321 3.40525 7.99852
-5.48412 3.30159 7.99716
-5.50504 3.19793 7.99579
-5.52596 3.09427 7.99443
-5.54687 2.99061 7.99306
-5.56779 2.88695 7.9917
-5.48775 2.76945 7.9879
-5.50866 2.66579 7.98654
-5.52958 2.56213 7.98517
-5.5505 2.45847 7.98381
-5.47046 2.34096 7.98001
-5.49137 2.2373 7.97865
-5.51229 2.13364 7.97728
-5.5332 2.02998 7.97592
-5.55412 1.92632 7.97455
-5.47408 1.80882 7.97076
-5.495 1.70516 7.96941
-5.51591 1.6015 7.96803
-5.53683 1.49784 7.96666
-5.55774 1.39418 7.9653
-5.57866 1.29052 7.96393
-5.59957 1.18686 7.96257
-5.62049 1.0832 7.9612
-5.6414 0.979538 7.95984
-5.56137 0.862032 7.95605
-5.58228 0.758372 7.95468
-5.6032 0.654713 7.95331
-5.62411 0.551051 7.95195
-5.64503 0.447392 7.95058
-5.66594 0.343732 7.94922
-5.68686 0.240072 7.94785
-5.60682 0.122569 7.94406
-5.62774 0.0189071 7.9427
-5.64865 -0.0847524 7.94133
-5.56861 -0.202258 7.93755
-5.58953 -0.305916 7.93617
-5.50949 -0.423423 7.93239
-5.42946 -0.540926 7.9286
-5.45037 -0.644586 7.92723
-5.47129 -0.748248 7.92586
-5.4922 -0.851907 7.9245
-5.51312 -0.955567 7.92313
-5.53403 -1.05923 7.92177
-5.55495 -1.16289 7.92039
-5.57586 -1.26655 7.91904
-5.59678 -1.37021 7.91766
-5.51674 -1.48771 7.91388
-6.08342 0.132433 7.98853
-6.23841 -0.0447685 7.992
-6.29904 -0.183485 7.99306
-6.35967 -0.322202 7.99411
-6.4203 -0.460918 7.99518
-6.38659 -0.56115 7.9938
-6.35287 -0.661379 7.99245
-6.31915 -0.76161 7.99107
-6.37978 -0.900325 7.99213
-6.34606 -1.00055 7.99077
-6.31235 -1.10078 7.9894
-6.27863 -1.20101 7.98804
-6.24492 -1.30124 7.98666
-6.2112 -1.40147 7.98531
-6.17748 -1.5017 7.98393
-6.14376 -1.60193 7.98257
-6.11005 -1.70216 7.9812
-6.07633 -1.80239 7.97984
-6.04261 -1.90262 7.97847
-6.00889 -2.00285 7.97711
-5.97518 -2.10308 7.97574
-5.94146 -2.20331 7.97438
-5.90775 -2.30354 7.97301
-5.96838 -2.44226 7.97406
-5.93466 -2.54249 7.9727
-5.90095 -2.64272 7.97133
-5.77288 -2.70446 7.96754
-5.73916 -2.80469 7.96619
-5.70544 -2.90492 7.96481
-5.67173 -3.00515 7.96344
-5.63801 -3.10538 7.96208
-5.60429 -3.20561 7.96071
-5.57057 -3.30584 7.95935
-5.53686 -3.40607 7.95798
-5.50314 -3.5063 7.95662
-5.46942 -3.60653 7.95525
-5.43571 -3.70676 7.95389
-5.40199 -3.80699 7.95251
-5.36827 -3.90722 7.95116
-5.33455 -4.00745 7.94978
-5.30084 -4.10768 7.94843
-5.26712 -4.20791 7.94705
-5.13906 -4.26966 7.94327
-5.10534 -4.36989 7.94189
-5.07162 -4.47012 7.94054
-5.03791 -4.57034 7.93916
-5.00419 -4.67058 7.93781
-4.97047 -4.77081 7.93643
-4.93676 -4.87104 7.93507
-4.90304 -4.97127 7.9337
-4.77497 -5.03301 7.92992
-4.74125 -5.13324 7.92854
-4.70754 -5.23347 7.92719
-4.67382 -5.3337 7.92581
-4.6401 -5.43393 7.92445
-4.60639 -5.53416 7.92308
-4.47832 -5.5959 7.9193
-4.4446 -5.69613 7.91792
-4.41089 -5.79636 7.91656
-4.37717 -5.89659 7.91519
-4.34345 -5.99682 7.91383
-4.30973 -6.09705 7.91246
-4.18167 -6.15879 7.90868
-4.14795 -6.25902 7.9073
-4.11424 -6.35925 7.90594
-4.08052 -6.45948 7.90457
-3.95245 -6.52123 7.90079
-3.91874 -6.62146 7.89943
-3.79067 -6.6832 7.89563
-3.6626 -6.74495 7.89185
-3.53454 -6.80669 7.88806
-3.40647 -6.86843 7.88426
-3.37276 -6.96866 7.8829
-3.33904 -7.06889 7.88153
-3.21097 -7.13064 7.87775
-3.17725 -7.23086 7.87637
-3.14353 -7.3311 7.87502
-3.10982 -7.43132 7.87364
-3.0761 -7.53155 7.87228
-2.94804 -7.5933 7.8685
-2.91432 -7.69353 7.86713
-2.8806 -7.79376 7.86575
-2.75254 -7.8555 7.86197
-2.62447 -7.91725 7.85818
-4.30065 -6.41501 7.99631
-4.2838 -6.56546 7.99738
-4.20449 -6.63541 7.996
-4.18764 -6.78586 7.99706
-4.10832 -6.8558 7.9957
-4.09147 -7.00625 7.99675
-4.01216 -7.07619 7.99539
-3.99531 -7.22664 7.99644
-3.916 -7.29658 7.99507
-3.83668 -7.36652 7.99371
-3.75736 -7.43647 7.99234
-3.67805 -7.50641 7.99098
-3.59874 -7.57635 7.98961
-3.58189 -7.7268 7.99068
-3.50257 -7.79674 7.9893
-3.42326 -7.86669 7.98795
-3.34394 -7.93663 7.98657
-3.3271 -8.08708 7.98763
-3.24778 -8.15702 7.98627
-3.23093 -8.30747 7.98732
-3.15161 -8.37741 7.98596
-3.0723 -8.44736 7.98459
-2.99299 -8.5173 7.98323
-2.91367 -8.58724 7.98186
-2.83436 -8.65718 7.98048
-2.75504 -8.72713 7.97913
-2.67573 -8.79707 7.97775
-2.59641 -8.86701 7.97639
-2.5171 -8.93696 7.97502
-2.50025 -9.08741 7.97609
-2.42093 -9.15735 7.97472
-2.34162 -9.22729 7.97336
-2.2623 -9.29724 7.97198
-2.18299 -9.36718 7.97063
-2.10367 -9.43712 7.96925
-2.02436 -9.50706 7.9679
-1.94505 -9.57701 7.96652
-1.86573 -9.64695 7.96515
-1.78642 -9.71689 7.96379
-1.7071 -9.78684 7.96242
-1.56532 -9.77627 7.95863
-1.48601 -9.84622 7.95728
-1.40669 -9.91616 7.9559
-1.32738 -9.9861 7.95454
-1.24806 -10.056 7.95317
-1.16875 -10.126 7.95181
-1.08943 -10.1959 7.95044
-1.01012 -10.2659 7.94907
-0.930801 -10.3358 7.94771
-0.85149 -10.4058 7.94633
-0.709713 -10.3952 7.94255
-0.630398 -10.4651 7.94119
-0.551082 -10.5351 7.93982
-0.471766 -10.605 7.93846
-0.392452 -10.675 7.93709
-0.250669 -10.6644 7.9333
-0.171356 -10.7344 7.93193
-0.0295749 -10.7238 7.92815
0.0497403 -10.7937 7.92677
0.129054 -10.8637 7.92542
0.270833 -10.8531 7.92162
0.475081 -10.7621 7.91541
0.616861 -10.7515 7.91162
0.696177 -10.8214 7.91025
0.77549 -10.8914 7.90889
0.917268 -10.8808 7.90511
1.18398 -10.7092 7.89647
1.32576 -10.6987 7.89267
1.40508 -10.7686 7.89131
1.48439 -10.8386 7.88994
1.62617 -10.828 7.88615
1.70549 -10.898 7.88478
1.7848 -10.9679 7.88342
1.92658 -10.9573 7.87964
