ply
format ascii 1.0
comment VCGLIB generated
element vertex 1013
property float x
property float y
property float z
element face 0
property list uchar int vertex_indices
end_header
3.11195 -11.8902 9.16071
3.2624 -11.8734 9.16177
3.41285 -11.8565 9.16283
3.80481 -12.0271 9.17114
3.95526 -12.0102 9.17221
4.26672 -12.1183 9.17812
4.41716 -12.1014 9.17917
4.56761 -12.0846 9.18022
4.71806 -12.0677 9.18127
4.86851 -12.0509 9.18234
5.01896 -12.034 9.1834
5.0889 -11.9547 9.18204
5.23935 -11.9379 9.18309
5.3898 -11.921 9.18414
5.54024 -11.9042 9.1852
5.61019 -11.8249 9.18384
5.68013 -11.7456 9.18246
5.83058 -11.7287 9.18353
5.90052 -11.6494 9.18216
6.05097 -11.6325 9.18321
6.20142 -11.6157 9.18428
6.27136 -11.5364 9.18291
6.42181 -11.5195 9.18396
6.49175 -11.4402 9.1826
6.6422 -11.4234 9.18365
6.71214 -11.344 9.1823
6.78208 -11.2647 9.18092
6.85203 -11.1854 9.17957
7.00247 -11.1686 9.18062
7.15292 -11.1517 9.18167
7.38387 -11.1973 9.18515
7.53432 -11.1805 9.1862
7.60427 -11.1012 9.18484
7.67421 -11.0219 9.18347
7.82465 -11.005 9.18454
7.8946 -10.9257 9.18317
8.04505 -10.9088 9.18422
8.11499 -10.8295 9.18286
8.26544 -10.8127 9.18391
8.33538 -10.7334 9.18256
8.40533 -10.6541 9.18118
8.55577 -10.6372 9.18224
8.62571 -10.5579 9.18088
8.69566 -10.4786 9.1795
8.7656 -10.3993 9.17815
8.83554 -10.3199 9.17677
8.986 -10.3031 9.17784
9.05593 -10.2238 9.17647
9.12588 -10.1445 9.17511
9.19582 -10.0651 9.17374
9.26577 -9.98583 9.17238
9.33571 -9.90652 9.17101
9.40565 -9.8272 9.16963
9.4756 -9.74789 9.16827
9.54554 -9.66858 9.1669
9.61548 -9.58926 9.16554
9.68543 -9.50995 9.16417
9.83587 -9.4931 9.16524
9.90582 -9.41378 9.16386
9.97576 -9.33447 9.16251
10.0457 -9.25515 9.16113
10.1156 -9.17584 9.15977
10.1856 -9.09652 9.1584
10.2555 -9.01721 9.15704
10.3255 -8.93789 9.15567
10.3954 -8.85858 9.1543
10.4654 -8.77926 9.15294
10.4548 -8.63748 9.14915
10.5247 -8.55817 9.14778
10.5947 -8.47886 9.14642
10.6646 -8.39954 9.14505
10.7346 -8.32022 9.14369
10.8045 -8.24091 9.14232
10.794 -8.09913 9.13853
10.8639 -8.01981 9.13716
10.9338 -7.9405 9.1358
11.0038 -7.86118 9.13443
11.0737 -7.78187 9.13307
11.1437 -7.70255 9.1317
11.2136 -7.62324 9.13034
11.2031 -7.48146 9.12654
11.273 -7.40215 9.12518
11.2624 -7.26037 9.12138
11.2519 -7.11859 9.1176
11.2413 -6.97681 9.11382
11.3113 -6.89749 9.11244
11.3007 -6.75571 9.10866
11.2901 -6.61393 9.10487
11.2796 -6.47215 9.10107
11.269 -6.33037 9.09729
11.3389 -6.25105 9.09592
11.3284 -6.10927 9.09213
11.3983 -6.02996 9.09077
11.4683 -5.95065 9.0894
11.4577 -5.80887 9.08562
11.5277 -5.72955 9.08424
11.5171 -5.58777 9.08046
11.5065 -5.44599 9.07668
11.496 -5.30421 9.07288
11.4854 -5.16243 9.06909
11.3943 -4.95818 9.06288
11.3838 -4.81641 9.05908
11.3732 -4.67462 9.0553
11.3627 -4.53284 9.05151
11.3521 -4.39106 9.04771
11.3415 -4.24928 9.04393
11.331 -4.1075 9.04015
11.2399 -3.90326 9.03394
11.1488 -3.69901 9.02773
11.1383 -3.55723 9.02393
11.0472 -3.35298 9.01772
11.1172 -3.27367 9.01636
11.1066 -3.13189 9.01256
11.096 -2.99011 9.00877
10.844 -2.66094 8.99771
10.9139 -2.58162 8.99635
10.9033 -2.43984 8.99255
10.8123 -2.2356 8.98634
10.8017 -2.09381 8.98256
10.7912 -1.95203 8.97878
10.7806 -1.81025 8.97498
10.77 -1.66847 8.97119
10.518 -1.3393 8.96013
10.5074 -1.19751 8.95634
10.4968 -1.05574 8.95256
10.4058 -0.85149 8.94633
8.24275 -10.7108 9.18666
8.56653 -10.6487 9.19257
8.68839 -10.5588 9.19362
8.81026 -10.469 9.19469
8.93213 -10.3792 9.19574
9.054 -10.2894 9.19679
9.27681 -10.2134 9.20027
9.39868 -10.1236 9.20134
9.4196 -10.0199 9.19997
9.54146 -9.93013 9.20102
9.76428 -9.85416 9.2045
9.88615 -9.76434 9.20557
10.008 -9.67452 9.20662
10.0289 -9.57087 9.20525
10.0498 -9.46721 9.20389
10.1717 -9.37739 9.20494
10.2936 -9.28757 9.20599
10.4155 -9.19776 9.20706
10.4364 -9.0941 9.20569
10.5582 -9.00428 9.20674
10.5791 -8.90062 9.20538
10.6001 -8.79696 9.20401
10.7219 -8.70715 9.20508
10.7428 -8.60348 9.2037
10.7638 -8.49982 9.20235
10.7847 -8.39617 9.20097
10.9065 -8.30635 9.20203
11.0284 -8.21653 9.20309
11.0493 -8.11287 9.20172
11.1712 -8.02306 9.20277
11.1921 -7.9194 9.20142
11.213 -7.81574 9.20004
11.2339 -7.71208 9.19868
11.3558 -7.62226 9.19974
11.3767 -7.5186 9.19838
11.3976 -7.41494 9.19701
11.4185 -7.31128 9.19565
11.4395 -7.20762 9.19427
11.4604 -7.10396 9.19292
11.5822 -7.01414 9.19397
11.6032 -6.91048 9.1926
11.6241 -6.80682 9.19124
11.645 -6.70316 9.18987
11.7669 -6.61335 9.19093
11.7878 -6.50969 9.18956
11.8087 -6.40603 9.18819
11.8296 -6.30237 9.18683
11.8505 -6.19871 9.18546
11.8714 -6.09505 9.1841
11.8923 -5.99139 9.18272
11.9133 -5.88773 9.18137
11.9342 -5.78407 9.17999
11.9551 -5.68041 9.17863
11.8751 -5.5629 9.17484
11.896 -5.45924 9.17348
11.8159 -5.34174 9.16969
11.8368 -5.23808 9.16832
11.8578 -5.13442 9.16696
11.7777 -5.01691 9.16316
11.7986 -4.91325 9.1618
11.8196 -4.80959 9.16043
11.8405 -4.70593 9.15907
11.8614 -4.60227 9.1577
11.7814 -4.48477 9.15392
11.8023 -4.38111 9.15254
11.7222 -4.2636 9.14876
11.7431 -4.15994 9.14738
11.7641 -4.05628 9.14603
11.684 -3.93878 9.14224
11.7049 -3.83512 9.14087
11.7259 -3.73146 9.13951
11.6458 -3.61395 9.13571
11.6667 -3.51029 9.13435
11.6876 -3.40663 9.13298
11.6076 -3.28913 9.1292
11.6285 -3.18547 9.12782
11.6494 -3.08181 9.12646
11.6704 -2.97815 9.12509
11.5903 -2.86064 9.12131
11.6112 -2.75698 9.11993
11.6321 -2.65332 9.11858
11.5521 -2.53582 9.11479
11.4721 -2.41831 9.11099
11.493 -2.31465 9.10963
11.413 -2.19715 9.10583
11.4339 -2.09349 9.10448
11.3538 -1.97598 9.10069
11.3747 -1.87232 9.09932
11.3957 -1.76866 9.09796
11.4166 -1.665 9.09659
11.3365 -1.5475 9.0928
11.3575 -1.44384 9.09143
11.2774 -1.32633 9.08765
11.2983 -1.22267 9.08627
11.2183 -1.10517 9.08249
11.2392 -1.00151 9.08112
11.1592 -0.884006 9.07733
11.1801 -0.780345 9.07597
11.201 -0.676685 9.0746
11.121 -0.559178 9.07082
11.1419 -0.45552 9.06944
11.0618 -0.338015 9.06566
11.0828 -0.234356 9.06429
10.9018 -0.103007 9.05807
10.9227 0.000653148 9.05672
10.8427 0.118159 9.05292
10.8636 0.221818 9.05156
10.8845 0.325478 9.05019
10.8044 0.442981 9.0464
10.8254 0.546643 9.04504
10.7453 0.664147 9.04124
10.6653 0.781654 9.03746
10.5853 0.899155 9.03368
10.5052 1.01666 9.02988
10.5261 1.12032 9.02852
10.547 1.22398 9.02715
10.467 1.34149 9.02336
10.4879 1.44515 9.02199
10.4079 1.56265 9.0182
10.3278 1.68015 9.01442
10.2478 1.79766 9.01062
10.2687 1.90132 9.00926
10.1887 2.01882 9.00548
10.2096 2.12248 9.0041
10.0286 2.25383 8.99789
9.84763 2.38518 8.99168
9.76759 2.50269 8.98788
9.78851 2.60635 8.98653
9.80942 2.71001 8.98515
9.72939 2.82751 8.98137
9.7503 2.93117 8.98001
9.77122 3.03483 8.97864
9.69118 3.15233 8.97485
9.71209 3.25599 8.97348
9.63206 3.3735 8.9697
9.55202 3.491 8.96591
9.37103 3.62236 8.95969
9.29099 3.73986 8.9559
9.21096 3.85736 8.95212
9.23187 3.96102 8.95074
9.15184 4.07853 8.94696
11.0387 -8.48363 9.16129
11.288 -8.26794 9.16719
11.443 -8.09074 9.17067
11.5979 -7.91353 9.17416
11.5642 -7.81331 9.17279
11.6249 -7.67459 9.17384
11.6855 -7.53587 9.17491
11.7461 -7.39715 9.17596
11.8068 -7.25844 9.17702
11.773 -7.15821 9.17566
11.8337 -7.01949 9.17671
11.8943 -6.88078 9.17776
11.8606 -6.78055 9.17641
11.9212 -6.64183 9.17746
11.8875 -6.5416 9.17609
11.9481 -6.40288 9.17715
12.0088 -6.26417 9.17821
12.0694 -6.12545 9.17926
12.13 -5.98673 9.18033
12.285 -5.80953 9.18381
12.3456 -5.67082 9.18486
12.3119 -5.57059 9.18349
12.2782 -5.47036 9.18213
12.3388 -5.33164 9.18318
12.3051 -5.23141 9.18182
12.2714 -5.13118 9.18045
12.332 -4.99246 9.1815
12.2983 -4.89223 9.18015
12.2646 -4.79201 9.17877
12.3252 -4.65329 9.17984
12.2915 -4.55306 9.17847
12.3522 -4.41434 9.17952
12.3184 -4.31411 9.17816
12.2847 -4.21388 9.17679
12.3454 -4.07517 9.17786
12.3116 -3.97494 9.17648
12.2779 -3.8747 9.17511
12.2442 -3.77448 9.17375
12.3048 -3.63576 9.1748
12.2711 -3.53553 9.17345
12.2374 -3.4353 9.17207
12.298 -3.29658 9.17313
12.2643 -3.19635 9.17177
12.2306 -3.09612 9.17039
12.1969 -2.99589 9.16904
12.1632 -2.89566 9.16766
12.1294 -2.79543 9.16631
12.0957 -2.6952 9.16493
12.062 -2.59497 9.16357
12.0283 -2.49474 9.1622
11.9946 -2.39451 9.16084
11.9609 -2.29428 9.15947
11.9271 -2.19405 9.15811
11.8934 -2.09383 9.15674
11.9541 -1.95511 9.15781
11.9203 -1.85488 9.15643
11.8866 -1.75465 9.15506
11.8529 -1.65442 9.1537
11.8192 -1.55419 9.15233
11.7855 -1.45396 9.15097
11.8461 -1.31524 9.15202
11.8124 -1.21501 9.15067
11.7787 -1.11478 9.14929
11.745 -1.01455 9.14793
11.7112 -0.914323 9.14656
11.6775 -0.814094 9.1452
11.7382 -0.675376 9.14626
11.7044 -0.575145 9.14488
11.6707 -0.474916 9.14352
11.637 -0.374685 9.14215
11.6033 -0.274455 9.14079
11.5696 -0.174227 9.13942
11.5359 -0.0739963 9.13806
11.5021 0.0262341 9.13669
11.4684 0.126464 9.13533
11.4347 0.226694 9.13396
11.401 0.326923 9.1326
11.4616 0.46564 9.13365
11.4279 0.565869 9.13228
11.3942 0.6661 9.13092
11.3605 0.766329 9.12955
11.3267 0.866558 9.12819
11.293 0.966789 9.12682
11.2593 1.06702 9.12546
11.2256 1.16725 9.12408
11.1919 1.26748 9.12273
11.2525 1.40619 9.12378
11.2188 1.50642 9.12241
11.1851 1.60665 9.12105
11.1514 1.70688 9.11967
11.1176 1.80711 9.11832
11.0839 1.90734 9.11694
11.0502 2.00757 9.11559
11.0165 2.1078 9.11421
10.9828 2.20803 9.11285
10.9491 2.30826 9.11148
10.9153 2.40849 9.11012
10.8816 2.50872 9.10875
10.8479 2.60895 9.10739
10.8142 2.70918 9.10602
10.7805 2.80941 9.10466
10.7468 2.90964 9.10329
10.713 3.00987 9.10193
10.585 3.07162 9.09813
10.5513 3.17185 9.09677
10.5175 3.27208 9.0954
10.4838 3.37231 9.09404
10.3558 3.43405 9.09024
10.322 3.53428 9.08888
10.2883 3.63451 9.08751
10.2546 3.73474 9.08615
10.2209 3.83497 9.08478
10.1872 3.9352 9.08342
10.1535 4.03543 9.08205
10.1197 4.13566 9.08069
10.086 4.23589 9.07932
10.0523 4.33612 9.07796
10.0186 4.43635 9.07658
9.98487 4.53658 9.07523
9.95115 4.63681 9.07385
9.91744 4.73704 9.07249
9.78937 4.79878 9.0687
9.75565 4.89901 9.06734
9.72193 4.99924 9.06596
9.59387 5.06099 9.06218
9.56015 5.16122 9.06081
9.52644 5.26145 9.05945
9.49272 5.36168 9.05807
9.459 5.46191 9.05672
9.33093 5.52365 9.05292
9.29722 5.62388 9.05156
9.2635 5.72411 9.05019
9.13544 5.78585 9.0464
9.10172 5.88608 9.04504
8.97365 5.94782 9.04124
8.75124 5.97108 9.03503
8.62317 6.03283 9.03125
8.49511 6.09457 9.02745
8.46139 6.1948 9.02609
8.42767 6.29503 9.02472
8.29961 6.35678 9.02094
8.26589 6.45701 9.01958
8.13782 6.51875 9.01578
8.1041 6.61898 9.01442
7.88169 6.64223 9.00821
7.75362 6.70398 9.00441
7.62556 6.76572 9.00063
7.59184 6.86595 8.99925
7.46377 6.9277 8.99547
7.43006 7.02792 8.99411
7.01895 6.97421 8.98305
6.98523 7.07444 8.98167
6.66846 7.05921 8.97304
6.54039 7.12095 8.96925
6.50668 7.22118 8.9679
6.47296 7.32141 8.96652
6.3449 7.38316 8.96274
6.31118 7.48339 8.96136
6.27746 7.58362 8.96001
6.1494 7.64536 8.95621
12.3312 -3.37842 9.10768
12.3143 -3.22797 9.10873
12.2975 -3.07753 9.10979
12.2806 -2.92708 9.11084
12.3262 -2.69613 9.11433
12.3094 -2.54568 9.11539
12.4799 -2.15372 9.1237
12.4631 -2.00327 9.12477
12.3838 -1.93332 9.1234
12.3669 -1.78288 9.12447
12.2876 -1.71293 9.12309
12.2708 -1.56248 9.12415
12.1914 -1.49254 9.12279
12.1121 -1.4226 9.12141
12.0328 -1.35265 9.12006
11.9535 -1.28271 9.11868
11.9367 -1.13226 9.11974
11.9198 -0.981817 9.1208
11.903 -0.831366 9.12186
11.8236 -0.761422 9.12048
11.7443 -0.691479 9.11913
11.665 -0.621539 9.11775
11.6482 -0.471092 9.11882
11.5688 -0.401148 9.11745
11.7394 -0.00918388 9.12578
11.7225 0.141263 9.12683
11.7057 0.291709 9.12788
11.6264 0.361654 9.12653
11.6095 0.512101 9.12758
11.5927 0.66255 9.12863
11.5758 0.813001 9.1297
11.559 0.963444 9.13075
11.5421 1.11389 9.13181
11.4628 1.18384 9.13045
11.3835 1.25378 9.12907
11.3667 1.40423 9.13014
11.3498 1.55467 9.1312
11.2705 1.62462 9.12982
11.2536 1.77507 9.13089
11.1743 1.84501 9.12952
11.1575 1.99546 9.13057
11.0782 2.0654 9.12921
11.0613 2.21585 9.13026
10.982 2.28579 9.12891
10.9651 2.43624 9.12996
10.9483 2.58669 9.13101
10.9314 2.73713 9.13206
10.9146 2.88758 9.13313
10.8353 2.95753 9.13176
10.8184 3.10798 9.13281
10.7391 3.17792 9.13145
10.7223 3.32837 9.13251
10.643 3.39831 9.13115
10.5636 3.46826 9.12978
10.4843 3.5382 9.12842
10.405 3.60814 9.12704
10.3257 3.67808 9.12569
10.1839 3.66752 9.12189
10.1046 3.73746 9.12053
10.0253 3.8074 9.11916
9.94597 3.87735 9.1178
9.92912 4.0278 9.11885
9.84981 4.09774 9.11748
9.83296 4.24819 9.11855
10.1909 4.88166 9.13414
10.1116 4.95161 9.13277
10.0947 5.10206 9.13383
10.0154 5.172 9.13246
9.93611 5.24194 9.1311
9.85679 5.31188 9.12973
9.83994 5.46233 9.13078
9.76063 5.53228 9.12943
9.68132 5.60222 9.12805
9.66447 5.75267 9.12912
9.58515 5.82261 9.12775
9.50584 5.89256 9.12637
9.42652 5.9625 9.12502
9.34721 6.03244 9.12364
9.26789 6.10238 9.12228
9.25104 6.25283 9.12334
9.17173 6.32277 9.12198
9.09241 6.39272 9.12061
9.0131 6.46266 9.11925
8.93378 6.5326 9.11787
8.85447 6.60255 9.11652
8.83762 6.753 9.11757
8.75831 6.82294 9.1162
8.67899 6.89289 9.11484
8.59968 6.96282 9.11346
8.52036 7.03277 9.11211
8.44105 7.10271 9.11073
8.36173 7.17266 9.10938
8.28242 7.2426 9.108
8.2031 7.31254 9.10664
8.12379 7.38249 9.10527
8.04447 7.45243 9.10391
7.90269 7.44187 9.10011
7.82338 7.51181 9.09875
7.74406 7.58175 9.09738
7.66475 7.65169 9.09602
7.58543 7.72164 9.09465
7.50612 7.79158 9.09329
7.36434 7.78102 9.08949
7.28502 7.85096 9.08813
7.20571 7.92091 9.08676
7.1264 7.99085 9.0854
7.04708 8.0608 9.08403
6.96776 8.13074 9.08267
6.82598 8.12017 9.07887
6.74667 8.19012 9.07751
6.60489 8.17955 9.07373
6.52557 8.2495 9.07236
6.38379 8.23894 9.06857
6.30448 8.30888 9.0672
6.22516 8.37882 9.06584
6.14585 8.44877 9.06447
6.00407 8.43821 9.06068
5.92475 8.50815 9.05931
5.72051 8.41708 9.0531
5.39133 8.16501 9.04204
5.31202 8.23495 9.04068
5.2327 8.30489 9.03931
5.15338 8.37483 9.03795
5.07407 8.44478 9.03658
4.93229 8.43422 9.03279
4.79051 8.42365 9.02901
4.64873 8.41309 9.02521
4.44448 8.32203 9.019
4.3027 8.31147 9.01521
4.16093 8.3009 9.01143
3.95668 8.20984 9.0052
3.8149 8.19927 9.00142
3.67312 8.18871 8.99763
3.5938 8.25866 8.99626
3.45202 8.24809 8.99248
3.31024 8.23753 8.98869
9.59752 5.56251 9.10925
9.5077 5.68437 9.11031
9.41789 5.80624 9.11137
9.32807 5.92811 9.11243
9.2521 6.15093 9.11591
9.16228 6.2728 9.11696
9.07247 6.39466 9.11803
8.98265 6.51653 9.11908
8.87899 6.53744 9.11771
8.78918 6.65931 9.11877
8.68552 6.68023 9.1174
8.58186 6.70114 9.11604
8.4782 6.72206 9.11467
8.37454 6.74297 9.1133
8.27088 6.76389 9.11194
8.18106 6.88575 9.11299
8.14662 7.41143 9.12375
8.05681 7.5333 9.1248
7.95315 7.55421 9.12343
7.86333 7.67608 9.1245
7.75967 7.69699 9.12312
7.65601 7.71791 9.12177
7.56619 7.83978 9.12282
7.47638 7.96164 9.12387
7.41425 8.28542 9.12978
7.31059 8.30633 9.12842
7.20693 8.32724 9.12704
7.11711 8.44911 9.1281
7.01346 8.47002 9.12674
6.9098 8.49094 9.12537
6.80613 8.51185 9.12401
6.70247 8.53277 9.12263
6.59881 8.55368 9.12128
6.49515 8.5746 9.1199
6.40534 8.69647 9.12097
6.30168 8.71738 9.1196
6.19802 8.7383 9.11823
6.09436 8.75921 9.11687
5.9907 8.78013 9.11549
5.88704 8.80104 9.11414
5.78338 8.82196 9.11276
5.69356 8.94383 9.11383
5.5899 8.96474 9.11246
5.4724 8.8847 9.10867
5.36874 8.90562 9.1073
5.26508 8.92653 9.10594
5.16142 8.94745 9.10457
5.05776 8.96836 9.10321
4.95409 8.98928 9.10184
4.85043 9.01019 9.10048
4.73293 8.93015 9.09668
4.62927 8.95107 9.09532
4.52561 8.97199 9.09395
4.42195 8.9929 9.09259
4.31829 9.01382 9.09122
4.21463 9.03473 9.08986
4.09713 8.9547 9.08606
3.99347 8.97562 9.0847
3.88981 8.99653 9.08333
3.78615 9.01744 9.08197
3.66864 8.9374 9.07819
3.56498 8.95832 9.07681
3.46132 8.97924 9.07544
3.35766 9.00015 9.07408
3.24016 8.92011 9.0703
3.1365 8.94103 9.06892
3.03284 8.96194 9.06757
2.91533 8.88191 9.06377
2.81167 8.90283 9.06241
2.69417 8.82278 9.05861
2.59051 8.8437 9.05725
2.473 8.76367 9.05347
2.36934 8.78458 9.05209
2.25184 8.70454 9.04831
2.07896 8.2207 9.03482
5.77659 8.73318 9.08607
5.67636 8.69945 9.08472
5.57613 8.66574 9.08334
5.4759 8.63202 9.08199
5.14476 9.1644 9.09515
5.04453 9.13068 9.0938
4.90581 9.19131 9.09485
4.76709 9.25195 9.0959
4.62838 9.31258 9.09695
4.52815 9.27886 9.0956
4.38943 9.33949 9.09665
4.2892 9.30577 9.09529
4.15049 9.36641 9.09634
4.05025 9.33269 9.09497
3.91154 9.39332 9.09604
3.81131 9.3596 9.09467
3.71108 9.32589 9.09331
3.57236 9.38652 9.09436
3.47213 9.35281 9.09299
3.3719 9.31909 9.09163
3.27167 9.28537 9.09026
3.17144 9.25165 9.0889
3.07121 9.21794 9.08752
2.97098 9.18422 9.08617
2.87075 9.15051 9.08479
2.77052 9.11679 9.08344
2.63181 9.17742 9.08449
2.53158 9.1437 9.08311
2.43135 9.10999 9.08176
2.33112 9.07627 9.08038
2.23089 9.04255 9.07903
2.13066 9.00883 9.07765
2.03043 8.97512 9.07629
1.9302 8.9414 9.07492
1.82997 8.90768 9.07356
1.72974 8.87396 9.07219
1.62951 8.84025 9.07083
1.52928 8.80653 9.06946
1.42905 8.77282 9.0681
1.32882 8.7391 9.06673
1.22859 8.70538 9.06537
1.12836 8.67166 9.064
1.02813 8.63795 9.06264
0.927898 8.60423 9.06126
0.827669 8.57051 9.05991
0.727438 8.53679 9.05853
0.627208 8.50308 9.05716
0.526978 8.46936 9.0558
0.426749 8.43564 9.05443
0.32652 8.40193 9.05307
0.226289 8.36821 9.0517
0.126059 8.33449 9.05034
0.0258286 8.30078 9.04897
-0.0743997 8.26706 9.04761
-0.17463 8.23334 9.04623
-0.27486 8.19963 9.04488
-0.336604 8.07156 9.04108
-0.436836 8.03784 9.03972
-0.537064 8.00412 9.03835
-0.637294 7.97041 9.03699
-0.737524 7.93669 9.03561
-0.837754 7.90298 9.03426
-0.937985 7.86926 9.03288
-1.03821 7.83554 9.03152
-1.13844 7.80182 9.03015
-1.20019 7.67375 9.02637
-1.30042 7.64004 9.02499
-1.40065 7.60632 9.02364
-1.46239 7.47826 9.01985
-1.56262 7.44454 9.01848
-1.62436 7.31647 9.01469
-1.7246 7.28275 9.01332
-1.78634 7.15469 9.00954
-1.88656 7.12097 9.00816
-1.94831 6.99291 9.00438
-2.04854 6.95919 9.00302
-2.11029 6.83112 8.99922
-2.21051 6.7974 8.99786
-2.27226 6.66934 8.99406
-2.37249 6.63562 8.99271
-2.43423 6.50756 8.98891
-2.49598 6.37949 8.98512
-2.5962 6.34577 8.98376
-2.65795 6.21771 8.97997
-2.71969 6.08964 8.97618
-2.74295 5.86723 8.96997
-2.84318 5.83351 8.9686
-2.90492 5.70544 8.96481
-2.96667 5.57738 8.96103
-0.188673 8.28611 9.03801
-0.339123 8.26926 9.03906
-0.409067 8.18995 9.0377
-0.559514 8.1731 9.03876
-0.951476 8.34364 9.04709
-1.10192 8.32679 9.04814
-1.17186 8.24748 9.04677
-1.32232 8.23063 9.04784
-1.39226 8.15132 9.04646
-1.4622 8.072 9.0451
-1.53214 7.99269 9.04373
-1.68259 7.97584 9.04478
-1.75254 7.89652 9.04343
-1.82248 7.81721 9.04205
-1.89242 7.73789 9.0407
-1.96236 7.65858 9.03932
-2.03231 7.57926 9.03796
-2.10225 7.49995 9.03659
-2.17219 7.42063 9.03523
-2.24214 7.34132 9.03386
-2.31208 7.26201 9.0325
-2.38202 7.18269 9.03113
-2.45197 7.10338 9.02977
-2.52191 7.02406 9.0284
-2.59185 6.94475 9.02704
-2.6618 6.86543 9.02567
-2.73174 6.78612 9.02431
-2.80168 6.7068 9.02293
-2.87162 6.62749 9.02158
-3.02207 6.61064 9.02263
-3.09201 6.53132 9.02126
-3.16196 6.45201 9.0199
-3.2319 6.37269 9.01852
-3.30184 6.29338 9.01717
-3.37179 6.21406 9.01579
-3.44173 6.13475 9.01443
-3.51167 6.05543 9.01306
-3.58161 5.97612 9.0117
-3.65156 5.8968 9.01033
-3.7215 5.81749 9.00897
-3.79145 5.73818 9.0076
-3.86139 5.65886 9.00623
-3.93133 5.57955 9.00487
-4.00128 5.50023 9.00349
-4.07122 5.42092 9.00214
-4.14116 5.3416 9.00076
-4.21111 5.26229 8.9994
-4.20054 5.12051 8.99562
-4.27049 5.04119 8.99425
-4.34043 4.96188 8.99289
-4.41038 4.88257 8.99152
-4.48032 4.80325 8.99014
-4.55026 4.72394 8.98878
-4.6202 4.64462 8.98741
-4.69015 4.56531 8.98605
-4.76009 4.48599 8.98468
-4.83003 4.40668 8.98332
-4.81947 4.2649 8.97954
-4.88942 4.18558 8.97816
-4.95936 4.10627 8.97679
-5.0293 4.02695 8.97543
-5.01874 3.88517 8.97165
-4.68616 3.49353 8.95816
-4.7561 3.41421 8.9568
-4.82605 3.3349 8.95543
-4.81549 3.19312 8.95164
-4.88543 3.11381 8.95027
-4.87487 2.97203 8.94649
-4.94481 2.89271 8.94511
-4.85374 2.68847 8.9389
-4.76268 2.48422 8.93269
-4.83262 2.40491 8.93134
-4.90256 2.32559 8.92996
-4.892 2.18381 8.92618
-4.96195 2.1045 8.9248
-4.95138 1.96271 8.92102
-5.02133 1.8834 8.91965
-4.94758 4.93247 9.01418
-4.9685 4.82881 9.0128
-4.98941 4.72515 9.01144
-5.01032 4.62149 9.01007
-5.13219 4.53167 9.01112
-5.15311 4.42801 9.00977
-5.17402 4.32435 9.00839
-5.19494 4.22069 9.00703
-5.21585 4.11703 9.00566
-5.23677 4.01337 9.0043
-5.35864 3.92355 9.00536
-5.37955 3.81989 9.00398
-5.40046 3.71623 9.00262
-5.42138 3.61257 9.00125
-5.4423 3.50892 8.99989
-5.46321 3.40525 8.99852
-5.48412 3.30159 8.99716
-5.50504 3.19793 8.99579
-5.52596 3.09427 8.99443
-5.54687 2.99061 8.99306
-5.56779 2.88695 8.9917
-5.48775 2.76945 8.9879
-5.50866 2.66579 8.98654
-5.52958 2.56213 8.98517
-5.5505 2.45847 8.98381
-5.57141 2.35481 8.98244
-5.59232 2.25115 8.98108
-5.61324 2.14749 8.97971
-5.63416 2.04383 8.97835
-5.55412 1.92632 8.97455
-5.57503 1.82266 8.97319
-5.59595 1.719 8.97182
-5.61686 1.61534 8.97046
-5.63778 1.51168 8.96909
-5.55774 1.39418 8.9653
-5.57866 1.29052 8.96393
-5.59957 1.18686 8.96257
-5.62049 1.0832 8.9612
-5.6414 0.979538 8.95984
-5.56137 0.862032 8.95605
-5.58228 0.758372 8.95468
-5.50224 0.640869 8.9509
-5.52316 0.537207 8.94952
-5.54408 0.433548 8.94817
-5.56499 0.329888 8.94679
-5.48495 0.212385 8.94301
-5.50587 0.108725 8.94164
-5.52678 0.00506347 8.94028
-5.5477 -0.098596 8.9389
-5.46766 -0.216104 8.93512
-5.48857 -0.319762 8.93375
-5.50949 -0.423423 8.93239
-5.53041 -0.527083 8.93102
-5.55132 -0.630743 8.92966
-5.57223 -0.734405 8.92828
-5.59315 -0.838064 8.92693
-5.61407 -0.941724 8.92555
-5.63498 -1.04538 8.92419
-5.55495 -1.16289 8.92039
-5.57586 -1.26655 8.91904
-5.59678 -1.37021 8.91766
-5.61769 -1.47387 8.91631
-5.53766 -1.59137 8.91251
-5.55857 -1.69503 8.91115
-5.57949 -1.79869 8.90977
-5.49945 -1.9162 8.90599
-5.41941 -2.0337 8.90221
-6.14406 -0.00628245 8.98958
-6.20469 -0.144998 8.99063
-6.26532 -0.283716 8.9917
-6.32595 -0.42243 8.99275
-6.38659 -0.56115 8.9938
-6.35287 -0.661379 8.99245
-6.31915 -0.76161 8.99107
-6.37978 -0.900325 8.99213
-6.34606 -1.00055 8.99077
-6.31235 -1.10078 8.9894
-6.27863 -1.20101 8.98804
-6.24492 -1.30124 8.98666
-6.2112 -1.40147 8.98531
-6.17748 -1.5017 8.98393
-6.14376 -1.60193 8.98257
-6.11005 -1.70216 8.9812
-6.07633 -1.80239 8.97984
-6.04261 -1.90262 8.97847
-6.00889 -2.00285 8.97711
-5.97518 -2.10308 8.97574
-5.94146 -2.20331 8.97438
-6.0021 -2.34203 8.97543
-5.96838 -2.44226 8.97406
-5.93466 -2.54249 8.9727
-5.90095 -2.64272 8.97133
-5.77288 -2.70446 8.96754
-5.73916 -2.80469 8.96619
-5.70544 -2.90492 8.96481
-5.67173 -3.00515 8.96344
-5.63801 -3.10538 8.96208
-5.60429 -3.20561 8.96071
-5.57057 -3.30584 8.95935
-5.53686 -3.40607 8.95798
-5.50314 -3.5063 8.95662
-5.46942 -3.60653 8.95525
-5.43571 -3.70676 8.95389
-5.40199 -3.80699 8.95251
-5.36827 -3.90722 8.95116
-5.33455 -4.00745 8.94978
-5.30084 -4.10768 8.94843
-5.26712 -4.20791 8.94705
-5.2334 -4.30814 8.94569
-5.19969 -4.40837 8.94432
-5.16597 -4.5086 8.94296
-5.13225 -4.60883 8.94159
-5.00419 -4.67058 8.93781
-4.97047 -4.77081 8.93643
-4.93676 -4.87104 8.93507
-4.90304 -4.97127 8.9337
-4.86932 -5.0715 8.93234
-4.8356 -5.17172 8.93097
-4.70754 -5.23347 8.92719
-4.67382 -5.3337 8.92581
-4.6401 -5.43393 8.92445
-4.60639 -5.53416 8.92308
-4.47832 -5.5959 8.9193
-4.4446 -5.69613 8.91792
-4.41089 -5.79636 8.91656
-4.37717 -5.89659 8.91519
-4.2491 -5.95833 8.91141
-4.21538 -6.05856 8.91005
-4.18167 -6.15879 8.90868
-4.14795 -6.25902 8.9073
-4.11424 -6.35925 8.90594
-3.98617 -6.421 8.90216
-3.95245 -6.52123 8.90079
-3.91874 -6.62146 8.89943
-3.88502 -6.72169 8.89806
-3.75695 -6.78343 8.89427
-3.72323 -6.88366 8.8929
-3.68952 -6.98389 8.89154
-3.56145 -7.04563 8.88774
-3.52774 -7.14586 8.88638
-3.49402 -7.2461 8.88501
-3.36595 -7.30784 8.88123
-3.33223 -7.40807 8.87985
-3.29852 -7.5083 8.87849
-3.17045 -7.57004 8.87471
-3.04238 -7.63178 8.87091
-3.00867 -7.73201 8.86955
-2.8806 -7.79376 8.86575
-2.75254 -7.8555 8.86197
-4.12517 -6.70535 8.99464
-4.10832 -6.8558 8.9957
-4.02901 -6.92574 8.99432
-4.01216 -7.07619 8.99539
-3.99531 -7.22664 8.99644
-3.916 -7.29658 8.99507
-3.83668 -7.36652 8.99371
-3.81983 -7.51697 8.99477
-3.74052 -7.58692 8.99341
-3.6612 -7.65686 8.99203
-3.58189 -7.7268 8.99068
-3.56504 -7.87725 8.99173
-3.48573 -7.94719 8.99036
-3.40641 -8.01714 8.989
-3.38956 -8.16758 8.99005
-3.31025 -8.23752 8.98869
-3.23093 -8.30747 8.98732
-3.15161 -8.37741 8.98596
-3.0723 -8.44736 8.98459
-2.99299 -8.5173 8.98323
-2.91367 -8.58724 8.98186
-2.83436 -8.65718 8.98048
-2.81751 -8.80763 8.98155
-2.73819 -8.87758 8.98018
-2.65888 -8.94752 8.97882
-2.57956 -9.01746 8.97745
-2.50025 -9.08741 8.97609
-2.42093 -9.15735 8.97472
-2.34162 -9.22729 8.97336
-2.2623 -9.29724 8.97198
-2.18299 -9.36718 8.97063
-2.10367 -9.43712 8.96925
-2.02436 -9.50706 8.9679
-1.94505 -9.57701 8.96652
-1.86573 -9.64695 8.96515
-1.78642 -9.71689 8.96379
-1.7071 -9.78684 8.96242
-1.62779 -9.85678 8.96106
-1.54847 -9.92672 8.95969
-1.46915 -9.99666 8.95833
-1.38984 -10.0666 8.95695
-1.24806 -10.056 8.95317
-1.16875 -10.126 8.95181
-1.08943 -10.1959 8.95044
-1.01012 -10.2659 8.94907
-0.930801 -10.3358 8.94771
-0.85149 -10.4058 8.94633
-0.772176 -10.4757 8.94498
-0.69286 -10.5457 8.9436
-0.613544 -10.6156 8.94225
-0.534228 -10.6855 8.94087
-0.392452 -10.675 8.93709
-0.313138 -10.7449 8.93571
-0.233825 -10.8149 8.93436
-0.0920396 -10.8043 8.93057
-0.0127244 -10.8742 8.9292
0.129054 -10.8637 8.92542
0.208368 -10.9336 8.92404
0.350151 -10.9231 8.92026
0.554394 -10.832 8.91405
