ply
format ascii 1.0
comment VCGLIB generated
element vertex 902
property float x
property float y
property float z
element face 0
property list uchar int vertex_indices
end_header
2.34915 -11.8327 10.1516
2.66061 -11.9408 10.1575
2.81106 -11.9239 10.1586
2.96151 -11.9071 10.1597
3.11195 -11.8902 10.1607
3.2624 -11.8734 10.1618
3.41285 -11.8565 10.1628
3.96582 -12.152 10.176
4.11627 -12.1351 10.177
4.26672 -12.1183 10.1781
4.41716 -12.1014 10.1792
4.64812 -12.1471 10.1826
4.79857 -12.1302 10.1837
4.86851 -12.0509 10.1823
5.01896 -12.034 10.1834
5.0889 -11.9547 10.182
5.23935 -11.9379 10.1831
5.3898 -11.921 10.1841
5.54024 -11.9042 10.1852
5.61019 -11.8249 10.1838
5.76063 -11.808 10.1849
5.83058 -11.7287 10.1835
5.90052 -11.6494 10.1822
6.05097 -11.6325 10.1832
6.12091 -11.5532 10.1819
6.27136 -11.5364 10.1829
6.42181 -11.5195 10.184
6.57225 -11.5027 10.185
6.6422 -11.4234 10.1837
6.71214 -11.344 10.1823
6.86259 -11.3272 10.1833
6.93253 -11.2479 10.182
7.08298 -11.231 10.183
7.23343 -11.2142 10.1841
7.38387 -11.1973 10.1852
7.45382 -11.118 10.1838
7.60427 -11.1012 10.1848
7.67421 -11.0219 10.1835
7.82465 -11.005 10.1845
7.8946 -10.9257 10.1832
7.96454 -10.8464 10.1818
8.11499 -10.8295 10.1829
8.18493 -10.7502 10.1815
8.25488 -10.6709 10.1801
8.32482 -10.5916 10.1788
8.39476 -10.5123 10.1774
8.54521 -10.4954 10.1785
8.61515 -10.4161 10.1771
8.6851 -10.3368 10.1757
8.83554 -10.3199 10.1768
8.90549 -10.2406 10.1754
8.97543 -10.1613 10.174
9.04537 -10.082 10.1727
9.11532 -10.0027 10.1713
9.18526 -9.92337 10.17
9.2552 -9.84405 10.1686
9.40565 -9.8272 10.1696
9.4756 -9.74789 10.1683
9.54554 -9.66858 10.1669
9.61548 -9.58926 10.1655
9.68543 -9.50995 10.1642
9.75537 -9.43063 10.1628
9.82531 -9.35132 10.1614
9.89526 -9.272 10.1601
9.9652 -9.19269 10.1587
10.0351 -9.11337 10.1573
10.1051 -9.03406 10.156
10.175 -8.95474 10.1546
10.245 -8.87543 10.1532
10.3149 -8.79611 10.1519
10.3849 -8.7168 10.1505
10.4548 -8.63748 10.1492
10.4442 -8.4957 10.1454
10.5142 -8.41639 10.144
10.5841 -8.33707 10.1426
10.6541 -8.25776 10.1413
10.724 -8.17844 10.1399
10.794 -8.09913 10.1385
10.7834 -7.95735 10.1347
10.8533 -7.87804 10.1334
10.9233 -7.79872 10.132
10.9127 -7.65694 10.1282
10.9827 -7.57763 10.1268
10.9721 -7.43584 10.1231
11.042 -7.35653 10.1217
11.112 -7.27721 10.1203
11.1014 -7.13544 10.1165
11.1714 -7.05612 10.1152
11.1608 -6.91434 10.1114
11.2307 -6.83502 10.11
11.2202 -6.69324 10.1062
11.2096 -6.55147 10.1024
11.2796 -6.47215 10.1011
11.269 -6.33037 10.0973
11.3389 -6.25105 10.0959
11.3284 -6.10927 10.0921
11.3983 -6.02996 10.0908
11.3878 -5.88818 10.087
11.3772 -5.7464 10.0832
11.2861 -5.54215 10.077
11.2756 -5.40038 10.0732
11.265 -5.25859 10.0694
11.335 -5.17928 10.068
11.3244 -5.0375 10.0642
11.3138 -4.89572 10.0605
11.3033 -4.75394 10.0567
11.2927 -4.61216 10.0529
11.1211 -4.34545 10.0442
11.0301 -4.1412 10.038
11.0195 -3.99942 10.0342
11.009 -3.85764 10.0305
10.9984 -3.71586 10.0267
11.0683 -3.63655 10.0253
10.9773 -3.4323 10.0191
10.8862 -3.22805 10.0129
10.9561 -3.14874 10.0115
10.9456 -3.00696 10.0077
11.0155 -2.92765 10.0063
11.005 -2.78587 10.0026
10.9944 -2.64408 9.99876
10.9838 -2.50231 9.99498
10.8123 -2.2356 9.98634
10.8017 -2.09381 9.98256
10.7912 -1.95203 9.97878
10.8611 -1.87272 9.9774
10.448 -1.41861 9.9615
10.4374 -1.27683 9.9577
10.4269 -1.13505 9.95392
8.56653 -10.6487 10.1926
8.68839 -10.5588 10.1936
8.70931 -10.4552 10.1923
8.73022 -10.3515 10.1909
8.85209 -10.2617 10.192
8.87301 -10.158 10.1906
9.29773 -10.1098 10.1989
9.4196 -10.0199 10.2
9.54146 -9.93013 10.201
9.66333 -9.84031 10.2021
9.7852 -9.7505 10.2031
9.90706 -9.66068 10.2042
9.92798 -9.55702 10.2028
10.0498 -9.46721 10.2039
10.0708 -9.36354 10.2025
10.1926 -9.27373 10.2036
10.3145 -9.18391 10.2046
10.3354 -9.08025 10.2033
10.4573 -8.99044 10.2043
10.4782 -8.88678 10.203
10.6001 -8.79696 10.204
10.7219 -8.70715 10.2051
10.7428 -8.60348 10.2037
10.7638 -8.49982 10.2023
10.7847 -8.39617 10.201
10.9065 -8.30635 10.202
10.9275 -8.20269 10.2007
10.9484 -8.09903 10.1993
10.9693 -7.99537 10.1979
11.0912 -7.90555 10.199
11.213 -7.81574 10.2
11.2339 -7.71208 10.1987
11.3558 -7.62226 10.1997
11.3767 -7.5186 10.1984
11.3976 -7.41494 10.197
11.4185 -7.31128 10.1956
11.4395 -7.20762 10.1943
11.4604 -7.10396 10.1929
11.4813 -7.0003 10.1915
11.5022 -6.89664 10.1902
11.5231 -6.79298 10.1888
11.645 -6.70316 10.1899
11.6659 -6.5995 10.1885
11.6868 -6.49584 10.1871
11.7077 -6.39218 10.1858
11.8296 -6.30237 10.1868
11.8505 -6.19871 10.1855
11.8714 -6.09505 10.1841
11.8923 -5.99139 10.1827
11.9133 -5.88773 10.1814
11.8332 -5.77022 10.1776
11.8541 -5.66656 10.1762
11.8751 -5.5629 10.1748
11.795 -5.4454 10.1711
11.8159 -5.34174 10.1697
11.8368 -5.23808 10.1683
11.7568 -5.12057 10.1645
11.7777 -5.01691 10.1632
11.7986 -4.91325 10.1618
11.8196 -4.80959 10.1604
11.8405 -4.70593 10.1591
11.7604 -4.58843 10.1553
11.7814 -4.48477 10.1539
11.8023 -4.38111 10.1525
11.7222 -4.2636 10.1488
11.7431 -4.15994 10.1474
11.7641 -4.05628 10.146
11.785 -3.95262 10.1447
11.7049 -3.83512 10.1409
11.7259 -3.73146 10.1395
11.6458 -3.61395 10.1357
11.6667 -3.51029 10.1344
11.5867 -3.39279 10.1306
11.6076 -3.28913 10.1292
11.5276 -3.17162 10.1254
11.4475 -3.05412 10.1216
11.4684 -2.95046 10.1203
11.3884 -2.83296 10.1165
11.4093 -2.72929 10.1151
11.4302 -2.62563 10.1137
11.3502 -2.50813 10.1099
11.3711 -2.40447 10.1086
11.392 -2.30081 10.1072
11.312 -2.1833 10.1034
11.3329 -2.07964 10.1021
11.3538 -1.97598 10.1007
11.2738 -1.85848 10.0969
11.2947 -1.75482 10.0955
11.3156 -1.65116 10.0942
11.3365 -1.5475 10.0928
11.2565 -1.43 10.089
11.2774 -1.32633 10.0876
11.2983 -1.22267 10.0863
11.2183 -1.10517 10.0825
11.2392 -1.00151 10.0811
11.1592 -0.884006 10.0773
11.1801 -0.780345 10.076
11.1001 -0.66284 10.0722
11.121 -0.559178 10.0708
11.1419 -0.45552 10.0694
11.0618 -0.338015 10.0657
10.9818 -0.220511 10.0619
10.9018 -0.103007 10.0581
10.9227 0.000653148 10.0567
10.8427 0.118159 10.0529
10.8636 0.221818 10.0516
10.8845 0.325478 10.0502
10.9054 0.429138 10.0488
10.8254 0.546643 10.045
10.8463 0.650303 10.0437
10.7662 0.767808 10.0399
10.7872 0.871466 10.0385
10.7071 0.988971 10.0347
10.6271 1.10648 10.0309
10.547 1.22398 10.0271
10.568 1.32764 10.0258
10.387 1.45899 10.0196
10.3069 1.57649 10.0158
10.2269 1.694 10.012
10.2478 1.79766 10.0106
10.2687 1.90132 10.0093
10.1887 2.01882 10.0055
10.2096 2.12248 10.0041
10.1296 2.23999 10.0003
10.0495 2.35749 9.99652
9.9695 2.475 9.99274
9.68756 2.62019 9.9841
9.60752 2.73769 9.98032
9.62843 2.84136 9.97894
9.5484 2.95886 9.97516
9.67026 3.04867 9.97621
9.69118 3.15233 9.97485
9.61114 3.26984 9.97105
9.63206 3.3735 9.9697
9.65297 3.47716 9.96832
9.57293 3.59467 9.96454
9.4929 3.71217 9.96075
9.31191 3.84352 9.95454
9.33282 3.94718 9.95317
9.25279 4.06468 9.94939
9.17275 4.18219 9.94559
9.19366 4.28585 9.94423
9.11363 4.40335 9.94044
11.3486 -8.12922 10.1683
11.4093 -7.99051 10.1693
11.4699 -7.85179 10.1704
11.4362 -7.75156 10.169
11.5911 -7.57436 10.1725
11.7461 -7.39715 10.176
11.7124 -7.29692 10.1746
11.773 -7.15821 10.1757
11.8337 -7.01949 10.1767
11.8 -6.91926 10.1753
11.8606 -6.78055 10.1764
11.9212 -6.64183 10.1775
11.8875 -6.5416 10.1761
11.9481 -6.40288 10.1772
12.0088 -6.26417 10.1782
11.9751 -6.16394 10.1768
12.0357 -6.02522 10.1779
12.285 -5.80953 10.1838
12.3456 -5.67082 10.1849
12.3119 -5.57059 10.1835
12.3726 -5.43187 10.1846
12.3388 -5.33164 10.1832
12.3051 -5.23141 10.1818
12.2714 -5.13118 10.1805
12.2377 -5.03095 10.1791
12.204 -4.93072 10.1777
12.2646 -4.79201 10.1788
12.2309 -4.69177 10.1774
12.2915 -4.55306 10.1785
12.2578 -4.45283 10.1771
12.2241 -4.3526 10.1757
12.1904 -4.25237 10.1744
12.1567 -4.15214 10.173
12.2173 -4.01342 10.1741
12.1836 -3.91319 10.1727
12.1499 -3.81296 10.1713
12.2105 -3.67425 10.1724
12.1768 -3.57402 10.171
12.1431 -3.47379 10.1696
12.1093 -3.37356 10.1683
12.0756 -3.27333 10.1669
12.0419 -3.1731 10.1656
12.1025 -3.03438 10.1666
12.0688 -2.93415 10.1653
12.0351 -2.83392 10.1639
12.0014 -2.73369 10.1625
11.8733 -2.67195 10.1587
11.9339 -2.53323 10.1598
11.9002 -2.433 10.1584
11.8665 -2.33277 10.157
11.9271 -2.19405 10.1581
11.8934 -2.09383 10.1567
11.8597 -1.99359 10.1554
11.826 -1.89336 10.154
11.7923 -1.79313 10.1526
11.7586 -1.6929 10.1513
11.7248 -1.59267 10.1499
11.7855 -1.45396 10.151
11.7518 -1.35373 10.1496
11.718 -1.2535 10.1482
11.6843 -1.15327 10.1469
11.6506 -1.05304 10.1455
11.6169 -0.952808 10.1441
11.6775 -0.814094 10.1452
11.6438 -0.713864 10.1438
11.6101 -0.613634 10.1425
11.5764 -0.513404 10.1411
11.5427 -0.413173 10.1397
11.5089 -0.312944 10.1384
11.4752 -0.212715 10.137
11.4415 -0.112484 10.1356
11.4078 -0.0122538 10.1343
11.3741 0.0879757 10.1329
11.4347 0.226694 10.134
11.401 0.326923 10.1326
11.3673 0.427154 10.1312
11.3336 0.527384 10.1299
11.2998 0.627614 10.1285
11.2661 0.727843 10.1271
11.2324 0.828073 10.1258
11.293 0.966789 10.1268
11.2593 1.06702 10.1255
11.2256 1.16725 10.1241
11.1919 1.26748 10.1227
11.1582 1.36771 10.1214
11.1244 1.46794 10.12
11.0907 1.56817 10.1186
11.057 1.6684 10.1173
11.0233 1.76863 10.1159
10.9896 1.86886 10.1145
10.9559 1.96909 10.1132
10.9221 2.06932 10.1118
10.8884 2.16955 10.1104
10.8547 2.26978 10.1091
10.821 2.37001 10.1077
10.7873 2.47024 10.1063
10.7536 2.57047 10.105
10.7198 2.6707 10.1036
10.6861 2.77093 10.1022
10.6524 2.87116 10.1009
10.6187 2.97139 10.0995
10.585 3.07162 10.0981
10.5513 3.17185 10.0968
10.4232 3.23359 10.093
10.3895 3.33382 10.0916
10.3558 3.43405 10.0902
10.2277 3.49579 10.0865
10.194 3.59602 10.0851
10.1603 3.69625 10.0837
10.1265 3.79648 10.0824
10.0928 3.89671 10.081
10.0591 3.99694 10.0796
10.0254 4.09717 10.0783
9.99167 4.1974 10.0769
9.95795 4.29763 10.0755
9.92424 4.39786 10.0742
9.89052 4.49809 10.0728
9.8568 4.59832 10.0714
9.82309 4.69855 10.0701
9.78937 4.79878 10.0687
9.66131 4.86053 10.0649
9.62759 4.96076 10.0635
9.59387 5.06099 10.0622
9.56015 5.16122 10.0608
9.43209 5.22296 10.057
9.39837 5.32319 10.0557
9.36465 5.42342 10.0543
9.23659 5.48516 10.0505
9.10852 5.54691 10.0467
9.0748 5.64714 10.0453
8.94674 5.70888 10.0415
8.81867 5.77062 10.0378
8.78495 5.87085 10.0364
8.75124 5.97108 10.035
8.62317 6.03283 10.0312
11.5084 1.41479 10.1339
11.4291 1.48473 10.1326
11.4123 1.63518 10.1336
11.333 1.70512 10.1322
11.2536 1.77507 10.1309
11.1743 1.84501 10.1295
11.095 1.91495 10.1282
11.0157 1.9849 10.1268
10.9364 2.05484 10.1254
10.8571 2.12478 10.1241
10.8402 2.27523 10.1251
10.7609 2.34517 10.1237
10.8065 2.57613 10.1272
10.8521 2.80708 10.1307
10.8353 2.95753 10.1318
10.756 3.02747 10.1304
10.7391 3.17792 10.1315
10.7223 3.32837 10.1325
10.643 3.39831 10.1311
10.5636 3.46826 10.1298
10.5468 3.6187 10.1308
10.4675 3.68864 10.1295
10.3882 3.75858 10.1281
10.3713 3.90903 10.1292
10.292 3.97898 10.1278
10.2751 4.12943 10.1288
10.1958 4.19937 10.1275
10.179 4.34982 10.1285
10.0997 4.41976 10.1272
10.0204 4.48971 10.1258
10.0035 4.64015 10.1269
9.92419 4.71009 10.1255
9.84488 4.78004 10.1241
9.82803 4.93049 10.1252
9.81118 5.08093 10.1263
9.79433 5.23138 10.1273
9.77748 5.38183 10.1284
9.69816 5.45177 10.127
9.61885 5.52172 10.1256
9.53954 5.59166 10.1243
9.52268 5.7421 10.1253
9.44337 5.81205 10.124
9.36406 5.88199 10.1226
9.28474 5.95194 10.1212
9.26789 6.10238 10.1223
9.18858 6.17233 10.1209
9.10926 6.24227 10.1196
9.02995 6.31222 10.1182
8.95064 6.38216 10.1168
8.93378 6.5326 10.1179
8.85447 6.60255 10.1165
8.77515 6.67249 10.1151
8.69584 6.74243 10.1138
8.61652 6.81238 10.1124
8.53721 6.88232 10.111
8.45789 6.95226 10.1097
8.37858 7.02221 10.1083
8.29927 7.09215 10.1069
8.21995 7.16209 10.1056
8.14063 7.23203 10.1042
8.06132 7.30198 10.1028
7.98201 7.37192 10.1015
7.90269 7.44187 10.1001
7.82338 7.51181 10.0988
7.74406 7.58175 10.0974
7.66475 7.65169 10.096
7.52297 7.64114 10.0922
7.44365 7.71108 10.0909
7.36434 7.78102 10.0895
7.28502 7.85096 10.0881
7.14324 7.8404 10.0843
7.06393 7.91034 10.083
6.98461 7.98029 10.0816
6.9053 8.05023 10.0802
6.82598 8.12017 10.0789
6.74667 8.19012 10.0775
6.66735 8.26006 10.0761
6.58804 8.33 10.0748
6.44626 8.31944 10.071
6.30448 8.30888 10.0672
6.1627 8.29832 10.0634
6.02092 8.28776 10.0596
5.87914 8.2772 10.0558
5.4875 7.94462 10.0424
5.40818 8.01456 10.041
5.2664 8.00399 10.0372
5.18709 8.07394 10.0358
5.10777 8.14388 10.0345
5.02846 8.21382 10.0331
4.94914 8.28377 10.0317
4.86983 8.35371 10.0304
4.72805 8.34315 10.0266
4.58626 8.33259 10.0228
8.32625 7.16769 10.1216
8.23644 7.28956 10.1227
8.13278 7.31048 10.1213
8.02912 7.33139 10.1199
7.9393 7.45326 10.121
7.83564 7.47418 10.1196
7.73198 7.49509 10.1183
7.65601 7.71791 10.1218
7.56619 7.83978 10.1228
7.49022 8.06259 10.1263
7.40041 8.18446 10.1273
7.31059 8.30633 10.1284
7.20693 8.32724 10.127
7.10327 8.34816 10.1257
6.99961 8.36908 10.1243
6.89595 8.38999 10.123
6.79229 8.4109 10.1216
6.70247 8.53277 10.1226
6.59881 8.55368 10.1213
6.49515 8.5746 10.1199
6.39149 8.59552 10.1185
6.28783 8.61643 10.1172
6.18417 8.63734 10.1158
6.09436 8.75921 10.1169
5.9907 8.78013 10.1155
5.88704 8.80104 10.1141
5.78338 8.82196 10.1128
5.67972 8.84287 10.1114
5.57606 8.86379 10.11
5.4724 8.8847 10.1087
5.36874 8.90562 10.1073
5.26508 8.92653 10.1059
5.14757 8.8465 10.1021
5.04391 8.86741 10.1008
4.94025 8.88833 10.0994
4.83659 8.90924 10.0981
4.73293 8.93015 10.0967
4.62927 8.95107 10.0953
4.52561 8.97199 10.0939
4.40811 8.89196 10.0902
4.30445 8.91287 10.0888
4.20079 8.93378 10.0874
4.09713 8.9547 10.0861
3.99347 8.97562 10.0847
3.88981 8.99653 10.0833
3.7723 8.91649 10.0795
3.66864 8.9374 10.0782
3.56498 8.95832 10.0768
3.44748 8.87828 10.073
3.34382 8.8992 10.0717
3.24016 8.92011 10.0703
3.1365 8.94103 10.0689
3.01899 8.86099 10.0651
2.91533 8.88191 10.0638
2.81167 8.90283 10.0624
2.69417 8.82278 10.0586
2.59051 8.8437 10.0573
2.48685 8.86462 10.0559
2.36934 8.78458 10.0521
2.19646 8.30074 10.0386
2.0928 8.32165 10.0372
1.98914 8.34257 10.0359
1.88548 8.36348 10.0345
1.78182 8.3844 10.0331
1.66431 8.30436 10.0294
1.54681 8.22432 10.0256
1.41546 8.04333 10.0194
5.77659 8.73318 10.0861
5.63788 8.7938 10.0871
5.53765 8.76009 10.0858
5.43742 8.72637 10.0844
5.33719 8.69265 10.083
5.1215 8.94199 10.0889
4.90581 9.19131 10.0948
4.76709 9.25195 10.0959
4.62838 9.31258 10.097
4.52815 9.27886 10.0956
4.42792 9.24514 10.0942
4.2892 9.30577 10.0953
4.18897 9.27206 10.0939
4.05025 9.33269 10.095
3.95002 9.29898 10.0936
3.81131 9.3596 10.0947
3.71108 9.32589 10.0933
3.61085 9.29217 10.0919
3.51062 9.25845 10.0906
3.41039 9.22474 10.0892
3.27167 9.28537 10.0903
3.17144 9.25165 10.0889
3.07121 9.21794 10.0875
2.97098 9.18422 10.0862
2.87075 9.15051 10.0848
2.77052 9.11679 10.0834
2.67029 9.08307 10.0821
2.57006 9.04935 10.0807
2.46983 9.01564 10.0793
2.33112 9.07627 10.0804
2.23089 9.04255 10.079
2.13066 9.00883 10.0777
2.03043 8.97512 10.0763
1.9302 8.9414 10.0749
1.82997 8.90768 10.0736
1.72974 8.87396 10.0722
1.62951 8.84025 10.0708
1.52928 8.80653 10.0695
1.42905 8.77282 10.0681
1.32882 8.7391 10.0667
1.22859 8.70538 10.0654
1.12836 8.67166 10.064
1.02813 8.63795 10.0626
0.927898 8.60423 10.0613
0.827669 8.57051 10.0599
0.727438 8.53679 10.0585
0.627208 8.50308 10.0572
0.526978 8.46936 10.0558
0.426749 8.43564 10.0544
0.32652 8.40193 10.0531
0.226289 8.36821 10.0517
0.164544 8.24014 10.0479
0.0643146 8.20643 10.0466
-0.0359137 8.17271 10.0452
-0.136145 8.13899 10.0438
-0.236374 8.10528 10.0424
-0.336604 8.07156 10.0411
-0.436836 8.03784 10.0397
-0.537064 8.00412 10.0383
-0.637294 7.97041 10.037
-0.737524 7.93669 10.0356
-0.837754 7.90298 10.0343
-0.937985 7.86926 10.0329
-1.03821 7.83554 10.0315
-1.09996 7.70747 10.0277
-1.20019 7.67375 10.0264
-1.30042 7.64004 10.025
-1.40065 7.60632 10.0236
-1.46239 7.47826 10.0199
-1.56262 7.44454 10.0185
-1.66285 7.41082 10.0171
-1.76308 7.37711 10.0157
-1.82482 7.24903 10.012
-1.92505 7.21532 10.0106
-2.02528 7.1816 10.0092
-2.12551 7.14789 10.0079
-2.18726 7.01982 10.0041
-2.21051 6.7974 9.99786
-2.27226 6.66934 9.99406
-2.334 6.54127 9.99028
-0.22036 8.71145 10.0494
-0.370808 8.6946 10.0504
-0.521252 8.67775 10.0515
-0.591196 8.59844 10.0501
-0.741648 8.58159 10.0512
-0.811592 8.50227 10.0498
-0.881535 8.42296 10.0484
-1.03198 8.40611 10.0495
-1.10192 8.32679 10.0481
-1.17186 8.24748 10.0468
-1.32232 8.23063 10.0478
-1.39226 8.15132 10.0465
-1.4622 8.072 10.0451
-1.53214 7.99269 10.0437
-1.60209 7.91337 10.0424
-1.75254 7.89652 10.0434
-1.82248 7.81721 10.0421
-1.89242 7.73789 10.0407
-1.96236 7.65858 10.0393
-2.03231 7.57926 10.038
-2.10225 7.49995 10.0366
-2.17219 7.42063 10.0352
-2.24214 7.34132 10.0339
-2.39258 7.32447 10.0349
-2.46253 7.24516 10.0336
-2.53247 7.16584 10.0322
-2.60241 7.08652 10.0308
-2.67235 7.00721 10.0294
-2.7423 6.9279 10.0281
-2.81224 6.84858 10.0267
-2.88218 6.76927 10.0254
-2.95213 6.68995 10.024
-3.02207 6.61064 10.0226
-3.09201 6.53132 10.0213
-3.16196 6.45201 10.0199
-3.2319 6.37269 10.0185
-3.38235 6.35585 10.0196
-3.45229 6.27653 10.0182
-3.52224 6.19722 10.0168
-3.59218 6.1179 10.0155
-3.66212 6.03859 10.0141
-3.73207 5.95927 10.0128
-3.80201 5.87996 10.0114
-3.87195 5.80064 10.01
-3.9419 5.72133 10.0087
-4.01184 5.64201 10.0073
-4.08178 5.5627 10.0059
-4.15172 5.48338 10.0046
-4.14116 5.3416 10.0008
-4.21111 5.26229 9.9994
-4.28105 5.18297 9.99803
-4.35099 5.10366 9.99667
-4.42093 5.02434 9.9953
-4.49088 4.94503 9.99394
-4.48032 4.80325 9.99014
-4.55026 4.72394 9.98878
-4.6202 4.64462 9.98741
-4.69015 4.56531 9.98605
-4.76009 4.48599 9.98468
-4.83003 4.40668 9.98332
-4.89998 4.32736 9.98195
-4.96992 4.24805 9.98059
-5.03986 4.16873 9.97922
-5.0293 4.02695 9.97543
-5.09924 3.94764 9.97406
-5.16919 3.86832 9.9727
-5.15863 3.72654 9.96892
-5.14807 3.58476 9.96512
-4.81549 3.19312 9.95164
-4.80492 3.05134 9.94785
-4.79436 2.90956 9.94406
-4.70329 2.70531 9.93785
-4.69274 2.56354 9.93407
-4.76268 2.48422 9.93269
-4.83262 2.40491 9.93134
-4.82206 2.26313 9.92754
-4.8115 2.12134 9.92375
-4.98578 5.25729 10.0207
-5.0067 5.15363 10.0193
-5.12857 5.06382 10.0204
-5.14948 4.96016 10.019
-5.1704 4.8565 10.0177
-5.19131 4.75284 10.0163
-5.21223 4.64918 10.0149
-5.23314 4.54552 10.0135
-5.25406 4.44186 10.0122
-5.27497 4.33819 10.0108
-5.29589 4.23454 10.0094
-5.41776 4.14472 10.0105
-5.43867 4.04106 10.0091
-5.45959 3.9374 10.0078
-5.4805 3.83374 10.0064
-5.50142 3.73008 10.0051
-5.52233 3.62642 10.0037
-5.54325 3.52276 10.0023
-5.56416 3.4191 10.0009
-5.58507 3.31544 9.99959
-5.60599 3.21178 9.99821
-5.62691 3.10812 9.99686
-5.64782 3.00446 9.99548
-5.66874 2.9008 9.99411
-5.68965 2.79714 9.99275
-5.71057 2.69348 9.99138
-5.73148 2.58982 9.99002
-5.65145 2.47231 9.98624
-5.67236 2.36865 9.98486
-5.69327 2.26499 9.98351
-5.71419 2.16133 9.98213
-5.73511 2.05767 9.98076
-5.75602 1.95401 9.9794
-5.77694 1.85035 9.97803
-5.79785 1.74669 9.97667
-5.71782 1.62919 9.97289
-5.73873 1.52553 9.97151
-5.6587 1.40802 9.96773
-5.67961 1.30436 9.96635
-5.70052 1.2007 9.965
-5.72144 1.09704 9.96362
-5.74236 0.993383 9.96227
-5.76327 0.889722 9.96089
-5.78418 0.786061 9.95953
-5.70415 0.668557 9.95573
-5.72506 0.564896 9.95438
-5.64503 0.447392 9.95058
-5.56499 0.329888 9.94679
-5.5859 0.226228 9.94543
-5.60682 0.122569 9.94406
-5.62774 0.0189071 9.9427
-5.7496 -0.0709087 9.94376
-5.77052 -0.174571 9.94238
-5.79143 -0.278228 9.94102
-5.7114 -0.395734 9.93723
-5.73231 -0.499393 9.93587
-5.75323 -0.603053 9.93449
-5.77414 -0.706715 9.93314
-5.69411 -0.824218 9.92935
-5.71502 -0.927878 9.92798
-5.73594 -1.03154 9.92662
-5.6559 -1.14904 9.92282
-5.57586 -1.26655 9.91904
-5.49583 -1.38405 9.91525
-5.51674 -1.48771 9.91388
-5.4367 -1.60522 9.9101
-5.45762 -1.70888 9.90872
-5.47853 -1.81254 9.90736
-5.39849 -1.93004 9.90356
-5.41941 -2.0337 9.90221
-5.33938 -2.15121 9.89841
-5.25934 -2.26871 9.89462
-5.1793 -2.38621 9.89084
-6.40019 0.117205 9.99716
-6.36647 0.0169744 9.99579
-6.33275 -0.0832552 9.99443
-6.39339 -0.221971 9.99548
-6.35967 -0.322202 9.99411
-6.4203 -0.460918 9.99518
-6.38659 -0.56115 9.9938
-6.35287 -0.661379 9.99245
-6.4135 -0.800095 9.9935
-6.37978 -0.900325 9.99213
-6.34606 -1.00055 9.99077
-6.31235 -1.10078 9.9894
-6.27863 -1.20101 9.98804
-6.24492 -1.30124 9.98666
-6.2112 -1.40147 9.98531
-6.17748 -1.5017 9.98393
-6.23812 -1.64042 9.985
-6.2044 -1.74065 9.98363
-6.17068 -1.84088 9.98227
-6.13696 -1.94111 9.9809
-6.10325 -2.04134 9.97954
-6.06953 -2.14157 9.97816
-6.03581 -2.2418 9.97679
-6.0021 -2.34203 9.97543
-5.96838 -2.44226 9.97406
-5.93466 -2.54249 9.9727
-5.90095 -2.64272 9.97133
-5.86723 -2.74295 9.96997
-5.83351 -2.84318 9.9686
-5.79979 -2.94341 9.96724
-5.67173 -3.00515 9.96344
-5.63801 -3.10538 9.96208
-5.60429 -3.20561 9.96071
-5.57057 -3.30584 9.95935
-5.53686 -3.40607 9.95798
-5.59749 -3.54479 9.95905
-5.46942 -3.60653 9.95525
-5.43571 -3.70676 9.95389
-5.40199 -3.80699 9.95251
-5.36827 -3.90722 9.95116
-5.33455 -4.00745 9.94978
-5.30084 -4.10768 9.94843
-5.26712 -4.20791 9.94705
-5.13906 -4.26966 9.94327
-5.10534 -4.36989 9.94189
-5.07162 -4.47012 9.94054
-5.03791 -4.57034 9.93916
-5.00419 -4.67058 9.93781
-4.97047 -4.77081 9.93643
-4.93676 -4.87104 9.93507
-4.90304 -4.97127 9.9337
-4.86932 -5.0715 9.93234
-4.8356 -5.17172 9.93097
-4.70754 -5.23347 9.92719
-4.67382 -5.3337 9.92581
-4.6401 -5.43393 9.92445
-4.60639 -5.53416 9.92308
-4.57267 -5.63439 9.92172
-4.53895 -5.73462 9.92035
-4.41089 -5.79636 9.91656
-4.37717 -5.89659 9.91519
-4.34345 -5.99682 9.91383
-4.21538 -6.05856 9.91005
-3.53627 -7.49585 9.9872
-3.51942 -7.6463 9.98825
-3.50257 -7.79674 9.9893
-3.48573 -7.94719 9.99036
-3.40641 -8.01714 9.989
-3.3271 -8.08708 9.98763
-3.31025 -8.23752 9.98869
-3.23093 -8.30747 9.98732
-3.15161 -8.37741 9.98596
-3.0723 -8.44736 9.98459
-3.05545 -8.5978 9.98564
-2.97613 -8.66774 9.98428
-2.89682 -8.73769 9.98291
-2.81751 -8.80763 9.98155
-2.73819 -8.87758 9.98018
-2.65888 -8.94752 9.97882
-2.57956 -9.01746 9.97745
-2.50025 -9.08741 9.97609
-2.42093 -9.15735 9.97472
-2.34162 -9.22729 9.97336
-2.2623 -9.29724 9.97198
-2.18299 -9.36718 9.97063
-2.10367 -9.43712 9.96925
-2.02436 -9.50706 9.9679
-1.94505 -9.57701 9.96652
-1.86573 -9.64695 9.96515
-1.78642 -9.71689 9.96379
-1.7071 -9.78684 9.96242
-1.62779 -9.85678 9.96106
-1.54847 -9.92672 9.95969
-1.46915 -9.99666 9.95833
-1.38984 -10.0666 9.95695
-1.31053 -10.1366 9.9556
-1.16875 -10.126 9.95181
-1.08943 -10.1959 9.95044
-1.01012 -10.2659 9.94907
-0.930801 -10.3358 9.94771
-0.85149 -10.4058 9.94633
-0.772176 -10.4757 9.94498
-0.69286 -10.5457 9.9436
-0.613544 -10.6156 9.94225
-0.534228 -10.6855 9.94087
-0.392452 -10.675 9.93709
-0.313138 -10.7449 9.93571
-0.233825 -10.8149 9.93436
-0.0920396 -10.8043 9.93057
-0.0127244 -10.8742 9.9292
0.0665894 -10.9442 9.92784
0.208368 -10.9336 9.92404
0.287686 -11.0036 9.92268
0.429463 -10.993 9.91888
0.571245 -10.9824 9.9151
0.713023 -10.9719 9.91132
