ply
format ascii 1.0
comment VCGLIB generated
element vertex 1008
property float x
property float y
property float z
element face 0
property list uchar int vertex_indices
end_header
2.81106 -11.9239 11.1586
2.96151 -11.9071 11.1597
3.11195 -11.8902 11.1607
3.58442 -12.1232 11.1715
3.73487 -12.1064 11.1725
3.88532 -12.0895 11.1736
4.03576 -12.0727 11.1746
4.18621 -12.0558 11.1757
4.33666 -12.039 11.1767
4.48711 -12.0221 11.1778
4.63756 -12.0053 11.1789
4.788 -11.9884 11.1799
4.93845 -11.9716 11.181
5.00839 -11.8923 11.1796
5.15884 -11.8754 11.1807
5.30929 -11.8586 11.1817
5.45974 -11.8417 11.1828
5.61019 -11.8249 11.1838
5.76063 -11.808 11.1849
5.91108 -11.7912 11.1859
6.06153 -11.7743 11.187
6.13147 -11.695 11.1856
6.28192 -11.6782 11.1867
6.35186 -11.5988 11.1853
6.50231 -11.582 11.1864
6.57225 -11.5027 11.185
6.7227 -11.4858 11.1861
6.87315 -11.469 11.1871
6.9431 -11.3897 11.1858
7.09354 -11.3728 11.1868
7.16348 -11.2935 11.1855
7.31393 -11.2766 11.1865
7.38387 -11.1973 11.1852
7.45382 -11.118 11.1838
7.60427 -11.1012 11.1848
7.67421 -11.0219 11.1835
7.74415 -10.9425 11.1821
7.8946 -10.9257 11.1832
7.96454 -10.8464 11.1818
8.03448 -10.7671 11.1804
8.10443 -10.6877 11.1791
8.25488 -10.6709 11.1801
8.32482 -10.5916 11.1788
8.39476 -10.5123 11.1774
8.54521 -10.4954 11.1785
8.61515 -10.4161 11.1771
8.6851 -10.3368 11.1757
8.75504 -10.2575 11.1744
8.90549 -10.2406 11.1754
8.97543 -10.1613 11.174
9.04537 -10.082 11.1727
9.11532 -10.0027 11.1713
9.18526 -9.92337 11.17
9.2552 -9.84405 11.1686
9.32514 -9.76474 11.1672
9.39509 -9.68542 11.1658
9.46503 -9.60611 11.1645
9.61548 -9.58926 11.1655
9.68543 -9.50995 11.1642
9.75537 -9.43063 11.1628
9.82531 -9.35132 11.1614
9.89526 -9.272 11.1601
9.9652 -9.19269 11.1587
10.0351 -9.11337 11.1573
10.1051 -9.03406 11.156
10.175 -8.95474 11.1546
10.245 -8.87543 11.1532
10.3149 -8.79611 11.1519
10.3043 -8.65433 11.1481
10.3743 -8.57502 11.1467
10.4442 -8.4957 11.1454
10.5142 -8.41639 11.144
10.5841 -8.33707 11.1426
10.6541 -8.25776 11.1413
10.6435 -8.11598 11.1375
10.7135 -8.03666 11.1361
10.7834 -7.95735 11.1347
10.8533 -7.87804 11.1334
10.8428 -7.73626 11.1296
10.9127 -7.65694 11.1282
10.9827 -7.57763 11.1268
11.0526 -7.49831 11.1255
11.042 -7.35653 11.1217
11.112 -7.27721 11.1203
11.1014 -7.13544 11.1165
11.0909 -6.99366 11.1127
11.0803 -6.85188 11.109
11.1502 -6.77256 11.1076
11.2202 -6.69324 11.1062
11.2096 -6.55147 11.1024
11.2796 -6.47215 11.1011
11.269 -6.33037 11.0973
11.2584 -6.18859 11.0935
11.3284 -6.10927 11.0921
11.3983 -6.02996 11.0908
11.3878 -5.88818 11.087
11.3772 -5.7464 11.0832
11.3666 -5.60462 11.0794
11.4366 -5.52531 11.078
11.426 -5.38352 11.0742
11.335 -5.17928 11.068
11.3244 -5.0375 11.0642
11.3138 -4.89572 11.0605
11.3033 -4.75394 11.0567
11.2122 -4.54969 11.0504
11.2017 -4.40791 11.0467
11.1911 -4.26613 11.0429
11.1805 -4.12435 11.0391
11.17 -3.98257 11.0353
11.1594 -3.84079 11.0315
11.0683 -3.63655 11.0253
11.0578 -3.49476 11.0215
11.0472 -3.35298 11.0177
11.0367 -3.21121 11.0139
11.0261 -3.06943 11.0101
11.0155 -2.92765 11.0063
11.005 -2.78587 11.0026
10.9139 -2.58162 10.9964
10.8228 -2.37737 10.9901
10.7318 -2.17313 10.9839
8.34371 -10.7246 11.1891
8.56653 -10.6487 11.1926
8.58744 -10.545 11.1912
8.70931 -10.4552 11.1923
8.83118 -10.3654 11.1933
8.85209 -10.2617 11.192
8.97396 -10.1719 11.193
9.09583 -10.0821 11.1941
9.11674 -9.97841 11.1927
9.23861 -9.88859 11.1938
9.36047 -9.79878 11.1948
9.58329 -9.72281 11.1983
9.70516 -9.63299 11.1994
9.82703 -9.54318 11.2004
10.0498 -9.46721 11.2039
10.0708 -9.36354 11.2025
10.1926 -9.27373 11.2036
10.2135 -9.17007 11.2022
10.3354 -9.08025 11.2033
10.3563 -8.97659 11.2019
10.4782 -8.88678 11.203
10.4991 -8.78312 11.2016
10.621 -8.6933 11.2027
10.7428 -8.60348 11.2037
10.7638 -8.49982 11.2023
10.7847 -8.39617 11.201
10.8056 -8.29251 11.1996
10.8265 -8.18884 11.1982
10.9484 -8.09903 11.1993
10.9693 -7.99537 11.1979
11.0912 -7.90555 11.199
11.1121 -7.80189 11.1976
11.133 -7.69823 11.1963
11.1539 -7.59457 11.1949
11.1748 -7.49091 11.1935
11.1957 -7.38725 11.1922
11.3176 -7.29744 11.1932
11.3385 -7.19378 11.1918
11.3594 -7.09012 11.1905
11.3803 -6.98645 11.1891
11.4013 -6.8828 11.1878
11.4222 -6.77914 11.1864
11.544 -6.68932 11.1874
11.565 -6.58566 11.1861
11.5859 -6.482 11.1847
11.6068 -6.37834 11.1833
11.6277 -6.27468 11.182
11.6486 -6.17102 11.1806
11.6695 -6.06736 11.1792
11.6904 -5.9637 11.1779
11.7114 -5.86004 11.1765
11.7323 -5.75638 11.1752
11.6522 -5.63887 11.1714
11.6732 -5.53521 11.17
11.6941 -5.43155 11.1686
11.614 -5.31405 11.1648
11.6349 -5.21039 11.1635
11.5549 -5.09288 11.1597
11.5758 -4.98922 11.1583
11.5967 -4.88556 11.157
11.6177 -4.7819 11.1556
11.6386 -4.67824 11.1542
11.6595 -4.57458 11.1529
11.5794 -4.45708 11.1491
11.6004 -4.35342 11.1477
11.5203 -4.23591 11.1439
11.5412 -4.13225 11.1425
11.5622 -4.02859 11.1412
11.4821 -3.91109 11.1374
11.503 -3.80743 11.136
11.524 -3.70377 11.1347
11.5449 -3.60011 11.1333
11.4648 -3.4826 11.1295
11.4857 -3.37894 11.1281
11.4057 -3.26144 11.1243
11.4266 -3.15778 11.123
11.3466 -3.04028 11.1192
11.2665 -2.92277 11.1154
11.2875 -2.81911 11.114
11.3084 -2.71545 11.1127
11.2283 -2.59794 11.1089
11.2493 -2.49429 11.1075
11.2702 -2.39062 11.1062
11.2911 -2.28697 11.1048
11.312 -2.1833 11.1034
11.232 -2.0658 11.0996
11.2529 -1.96214 11.0983
11.1728 -1.84464 11.0945
11.1938 -1.74098 11.0931
11.1137 -1.62347 11.0893
11.1346 -1.51981 11.088
11.1556 -1.41615 11.0866
11.0755 -1.29865 11.0828
11.0964 -1.19499 11.0814
11.1173 -1.09133 11.0801
11.0373 -0.973821 11.0763
11.0582 -0.870161 11.0749
11.0791 -0.7665 11.0735
10.9991 -0.648997 11.0698
11.02 -0.545334 11.0684
11.0409 -0.441677 11.067
10.9609 -0.324171 11.0632
10.8809 -0.206667 11.0594
10.8008 -0.0891627 11.0557
10.8217 0.0144994 11.0543
10.8427 0.118159 11.0529
10.7626 0.235662 11.0491
10.7835 0.339322 11.0478
10.8044 0.442981 11.0464
10.7244 0.560487 11.0426
10.6444 0.677992 11.0388
10.6653 0.781654 11.0375
10.5853 0.899155 11.0337
10.6062 1.00281 11.0323
10.5261 1.12032 11.0285
10.547 1.22398 11.0271
10.467 1.34149 11.0234
10.4879 1.44515 11.022
10.3069 1.57649 11.0158
10.2269 1.694 11.012
10.2478 1.79766 11.0106
10.1678 1.91516 11.0068
10.0877 2.03267 11.0031
10.1087 2.13633 11.0017
10.0286 2.25383 10.9979
10.0495 2.35749 10.9965
9.9695 2.475 10.9927
9.88946 2.5925 10.989
9.91037 2.69616 10.9876
9.83034 2.81367 10.9838
9.85125 2.91733 10.9824
9.77122 3.03483 10.9786
9.69118 3.15233 10.9749
9.61114 3.26984 10.9711
9.5311 3.38735 10.9673
9.45107 3.50485 10.9635
9.37103 3.62236 10.9597
9.39194 3.72602 10.9583
9.31191 3.84352 10.9545
9.33282 3.94718 10.9532
9.25279 4.06468 10.9494
9.0718 4.19603 10.9432
8.99176 4.31354 10.9394
8.91173 4.43104 10.9356
8.83169 4.54854 10.9318
8.75165 4.66605 10.928
8.67162 4.78355 10.9242
8.49062 4.9149 10.918
11.645 -7.09647 11.1719
11.7056 -6.95775 11.1729
11.7662 -6.81903 11.174
11.7325 -6.7188 11.1726
11.7932 -6.58009 11.1737
11.7594 -6.47986 11.1723
12.1031 -6.22568 11.1806
12.1638 -6.08697 11.1817
12.2244 -5.94825 11.1827
12.1907 -5.84802 11.1814
12.1569 -5.74779 11.18
12.2176 -5.60907 11.1811
12.1839 -5.50884 11.1797
12.2445 -5.37013 11.1808
12.2108 -5.2699 11.1794
12.1771 -5.16967 11.178
12.2377 -5.03095 11.1791
12.204 -4.93072 11.1777
12.1703 -4.83049 11.1763
12.1365 -4.73026 11.175
12.1028 -4.63003 11.1736
12.1635 -4.49131 11.1747
12.1297 -4.39108 11.1733
12.096 -4.29085 11.172
12.0623 -4.19063 11.1706
11.9342 -4.12888 11.1668
11.9005 -4.02865 11.1654
11.8668 -3.92842 11.1641
11.9274 -3.78971 11.1651
11.8937 -3.68947 11.1638
11.9544 -3.55076 11.1648
12.015 -3.41204 11.1659
11.9813 -3.31181 11.1645
11.9475 -3.21158 11.1631
11.9138 -3.11135 11.1618
11.9745 -2.97264 11.1628
11.9408 -2.87241 11.1615
11.907 -2.77218 11.1601
11.8733 -2.67195 11.1587
11.8396 -2.57172 11.1574
11.9002 -2.433 11.1584
11.8665 -2.33277 11.157
11.8328 -2.23254 11.1557
11.7991 -2.13231 11.1543
11.7654 -2.03208 11.153
11.7316 -1.93185 11.1516
11.6979 -1.83162 11.1502
11.7586 -1.6929 11.1513
11.7248 -1.59267 11.1499
11.6911 -1.49245 11.1485
11.6574 -1.39221 11.1472
11.718 -1.2535 11.1482
11.6843 -1.15327 11.1469
11.6506 -1.05304 11.1455
11.6169 -0.952808 11.1441
11.5832 -0.852578 11.1428
11.5495 -0.752349 11.1414
11.6101 -0.613634 11.1425
11.5764 -0.513404 11.1411
11.5427 -0.413173 11.1397
11.5089 -0.312944 11.1384
11.4752 -0.212715 11.137
11.4415 -0.112484 11.1356
11.4078 -0.0122538 11.1343
11.3741 0.0879757 11.1329
11.3404 0.188206 11.1315
11.3066 0.288435 11.1302
11.2729 0.388666 11.1288
11.2392 0.488895 11.1274
11.2055 0.589126 11.1261
11.2661 0.727843 11.1271
11.2324 0.828073 11.1258
11.1987 0.928303 11.1244
11.165 1.02853 11.123
11.1313 1.12876 11.1217
11.0975 1.22899 11.1203
11.0638 1.32922 11.1189
11.0301 1.42945 11.1176
11.0907 1.56817 11.1186
11.057 1.6684 11.1173
11.0233 1.76863 11.1159
10.9896 1.86886 11.1145
10.9559 1.96909 11.1132
10.9221 2.06932 11.1118
10.8884 2.16955 11.1104
10.8547 2.26978 11.1091
10.821 2.37001 11.1077
10.7873 2.47024 11.1063
10.7536 2.57047 11.105
10.7198 2.6707 11.1036
10.5918 2.73244 11.0998
10.5581 2.83267 11.0984
10.5243 2.9329 11.0971
10.4906 3.03313 11.0957
10.4569 3.13336 11.0943
10.3288 3.1951 11.0906
10.2951 3.29533 11.0892
10.2614 3.39556 11.0878
10.2277 3.49579 11.0865
10.194 3.59602 11.0851
10.1603 3.69625 11.0837
10.1265 3.79648 11.0824
10.0928 3.89671 11.081
10.0591 3.99694 11.0796
10.0254 4.09717 11.0783
9.99167 4.1974 11.0769
9.95795 4.29763 11.0755
9.92424 4.39786 11.0742
9.89052 4.49809 11.0728
9.8568 4.59832 11.0714
9.72874 4.66007 11.0676
9.69502 4.7603 11.0663
9.66131 4.86053 11.0649
9.53323 4.92227 11.0611
9.49952 5.0225 11.0598
9.37145 5.08424 11.056
9.33774 5.18447 11.0546
9.30402 5.2847 11.0532
9.17595 5.34645 11.0494
9.04789 5.40819 11.0457
9.01417 5.50842 11.0443
8.88611 5.57016 11.0405
8.85239 5.67039 11.0391
8.72432 5.73214 11.0353
8.69061 5.83237 11.034
8.46819 5.85563 11.0278
8.24577 5.87888 11.0216
8.11771 5.94063 11.0178
7.98964 6.00237 11.014
7.86158 6.06411 11.0102
7.73351 6.12586 11.0064
7.60545 6.1876 11.0026
7.57173 6.28783 11.0012
7.53801 6.38806 10.9999
7.40995 6.4498 10.9961
7.37623 6.55003 10.9947
7.34251 6.65026 10.9934
7.21444 6.71201 10.9896
7.18073 6.81224 10.9882
7.05266 6.87398 10.9844
7.01895 6.97421 10.983
6.98523 7.07444 10.9817
6.85716 7.13618 10.9779
6.72909 7.19793 10.9741
6.41233 7.1827 10.9655
11.4053 0.421036 11.1214
11.4509 0.651989 11.1248
11.434 0.802435 11.1259
11.4172 0.952886 11.127
11.4003 1.10333 11.128
11.3835 1.25378 11.1291
11.3042 1.32372 11.1277
11.2873 1.47417 11.1288
11.208 1.54412 11.1274
11.1912 1.69456 11.1285
11.1743 1.84501 11.1295
11.1575 1.99546 11.1306
11.0782 2.0654 11.1292
10.9988 2.13534 11.1278
10.9195 2.20529 11.1265
10.8402 2.27523 11.1251
10.7609 2.34517 11.1237
10.6816 2.41512 11.1224
10.6023 2.48506 11.121
10.523 2.555 11.1196
10.5061 2.70545 11.1207
10.4268 2.77539 11.1193
10.4099 2.92584 11.1204
10.3306 2.99579 11.119
10.3138 3.14623 11.1201
10.3594 3.37719 11.1236
10.3425 3.52763 11.1246
10.3257 3.67808 11.1257
10.3088 3.82853 11.1267
10.2295 3.89847 11.1254
10.2127 4.04892 11.1264
10.1334 4.11886 11.1251
10.1165 4.26931 11.1261
10.0997 4.41976 11.1272
10.0828 4.57021 11.1282
10.066 4.72065 11.1293
9.98666 4.7906 11.1279
9.96981 4.94105 11.129
9.95296 5.0915 11.13
9.87364 5.16144 11.1287
9.85679 5.31188 11.1297
9.77748 5.38183 11.1284
9.69816 5.45177 11.127
9.68132 5.60222 11.1281
9.602 5.67216 11.1267
9.52268 5.7421 11.1253
9.44337 5.81205 11.124
9.36406 5.88199 11.1226
9.28474 5.95194 11.1212
9.20543 6.02188 11.1199
9.12611 6.09182 11.1185
9.10926 6.24227 11.1196
9.02995 6.31222 11.1182
8.95064 6.38216 11.1168
8.87132 6.4521 11.1154
8.792 6.52204 11.1141
8.71269 6.59199 11.1127
8.63338 6.66193 11.1114
8.61652 6.81238 11.1124
8.53721 6.88232 11.111
8.45789 6.95226 11.1097
8.37858 7.02221 11.1083
8.29927 7.09215 11.1069
8.21995 7.16209 11.1056
8.14063 7.23203 11.1042
7.99886 7.22148 11.1004
7.91954 7.29142 11.0991
7.84023 7.36136 11.0977
7.76091 7.43131 11.0963
7.6816 7.50125 11.095
7.60228 7.57119 11.0936
7.4605 7.56063 11.0898
7.38119 7.63057 11.0884
7.30187 7.70051 11.0871
7.22256 7.77046 11.0857
7.14324 7.8404 11.0843
7.06393 7.91034 11.083
6.98461 7.98029 11.0816
6.9053 8.05023 11.0802
6.82598 8.12017 11.0789
6.6842 8.10961 11.0751
6.60489 8.17955 11.0737
6.46311 8.16899 11.0699
6.38379 8.23894 11.0686
6.30448 8.30888 11.0672
6.22516 8.37882 11.0658
6.08338 8.36826 11.062
6.00407 8.43821 11.0607
5.86229 8.42764 11.0569
5.72051 8.41708 11.0531
5.39133 8.16501 11.042
5.24955 8.15445 11.0383
5.10777 8.14388 11.0345
5.02846 8.21382 11.0331
4.88667 8.20326 11.0293
4.74489 8.1927 11.0255
4.60312 8.18214 11.0217
4.39887 8.09107 11.0155
4.19462 8.00001 11.0093
4.05284 7.98944 11.0055
3.97353 8.05939 11.0042
3.83175 8.04883 11.0004
3.75243 8.11877 10.999
3.61065 8.10821 10.9952
3.46887 8.09765 10.9914
3.38956 8.16759 10.9901
3.24778 8.15703 10.9863
3.10599 8.14647 10.9825
8.11893 7.20952 11.1189
8.02912 7.33139 11.1199
7.9393 7.45326 11.121
7.84949 7.57513 11.1221
7.75967 7.69699 11.1231
7.66985 7.81886 11.1242
7.58004 7.94073 11.1252
7.49022 8.06259 11.1263
7.38656 8.08351 11.1249
7.2829 8.10443 11.1236
7.19309 8.22629 11.1246
7.08943 8.24721 11.1233
6.98577 8.26812 11.1219
6.88211 8.28904 11.1205
6.77844 8.30995 11.1192
6.68863 8.43182 11.1202
6.58497 8.45274 11.1189
6.48131 8.47365 11.1175
6.37765 8.49457 11.1161
6.28783 8.61643 11.1172
6.18417 8.63734 11.1158
6.08051 8.65826 11.1144
5.97685 8.67918 11.1131
5.87319 8.70009 11.1117
5.76953 8.721 11.1104
5.66587 8.74192 11.109
5.56221 8.76284 11.1076
5.45855 8.78375 11.1062
5.35489 8.80467 11.1049
5.25123 8.82558 11.1035
5.14757 8.8465 11.1021
5.03007 8.76646 11.0984
4.92641 8.78738 11.097
4.82275 8.80829 11.0956
4.71909 8.82921 11.0943
4.60158 8.74917 11.0905
4.49792 8.77008 11.0891
4.39426 8.791 11.0877
4.2906 8.81191 11.0864
4.18694 8.83283 11.085
4.08328 8.85374 11.0836
3.97962 8.87466 11.0823
3.87596 8.89558 11.0809
3.75846 8.81554 11.0771
3.6548 8.83645 11.0758
3.55114 8.85737 11.0744
3.43363 8.77733 11.0706
3.32997 8.79825 11.0692
3.22631 8.81916 11.0679
3.12265 8.84008 11.0665
3.01899 8.86099 11.0651
2.90149 8.78096 11.0613
2.79783 8.80187 11.06
2.69417 8.82278 11.0586
2.57666 8.74275 11.0548
2.473 8.76367 11.0535
2.3555 8.68363 11.0497
2.23799 8.60359 11.0459
2.12049 8.52355 11.0421
1.98914 8.34257 11.0359
1.88548 8.36348 11.0345
1.76797 8.28344 11.0307
1.65047 8.2034 11.0269
1.54681 8.22432 11.0256
1.42931 8.14429 11.0218
1.3118 8.06425 11.018
6.131 8.42321 11.0791
5.95379 8.57819 11.0826
5.85357 8.54448 11.0812
5.71485 8.6051 11.0823
5.61462 8.57139 11.0809
5.4759 8.63202 11.082
5.22173 8.9757 11.0903
5.08301 9.03633 11.0914
4.9443 9.09696 11.0924
4.84407 9.06325 11.091
4.70535 9.12388 11.0921
4.60512 9.09016 11.0907
4.50489 9.05644 11.0894
4.40466 9.02273 11.088
4.26594 9.08336 11.0891
4.16571 9.04965 11.0877
4.06548 9.01593 11.0863
3.96525 8.98221 11.085
3.86502 8.94849 11.0836
3.76479 8.91478 11.0822
3.62608 8.97541 11.0833
3.48736 9.03604 11.0844
3.34865 9.09667 11.0854
3.24842 9.06296 11.084
3.1097 9.12358 11.0851
3.00947 9.08987 11.0837
2.90924 9.05615 11.0824
2.80901 9.02243 11.081
2.67029 9.08307 11.0821
2.57006 9.04935 11.0807
2.46983 9.01564 11.0793
2.3696 8.98192 11.078
2.26937 8.9482 11.0766
2.16914 8.91448 11.0752
2.06891 8.88077 11.0739
1.96868 8.84705 11.0725
1.86845 8.81333 11.0711
1.76822 8.77962 11.0698
1.66799 8.7459 11.0684
1.56776 8.71218 11.067
1.46753 8.67847 11.0657
1.36731 8.64475 11.0643
1.26707 8.61103 11.0629
1.16684 8.57731 11.0616
1.06661 8.5436 11.0602
0.966384 8.50988 11.0588
0.866155 8.47616 11.0575
0.765924 8.44245 11.0561
0.665695 8.40873 11.0547
0.565464 8.37501 11.0534
0.465235 8.34129 11.052
0.365006 8.30758 11.0506
0.264775 8.27386 11.0493
0.164544 8.24014 11.0479
0.0643146 8.20643 11.0466
-0.0359137 8.17271 11.0452
-0.136145 8.13899 11.0438
-0.236374 8.10528 11.0424
-0.336604 8.07156 11.0411
-0.436836 8.03784 11.0397
-0.537064 8.00412 11.0383
-0.637294 7.97041 11.037
-0.737524 7.93669 11.0356
-0.837754 7.90298 11.0343
-0.899497 7.77491 11.0305
-0.999725 7.74119 11.0291
-1.09996 7.70747 11.0277
-1.20019 7.67375 11.0264
-1.26193 7.54569 11.0226
-1.36216 7.51198 11.0212
-1.46239 7.47826 11.0199
-1.56262 7.44454 11.0185
-1.62436 7.31647 11.0147
-1.7246 7.28275 11.0133
-1.82482 7.24903 11.012
-1.88656 7.12097 11.0082
-1.9868 7.08725 11.0068
-2.08703 7.05354 11.0054
-2.14877 6.92548 11.0016
-2.17203 6.70306 10.9954
-2.23377 6.57499 10.9917
-2.29552 6.44693 10.9879
-0.521252 8.67775 11.0515
-0.671704 8.6609 11.0526
-0.741648 8.58159 11.0512
-0.892093 8.56474 11.0522
-0.962037 8.48542 11.0509
-1.03198 8.40611 11.0495
-1.10192 8.32679 11.0481
-1.25237 8.30995 11.0492
-1.32232 8.23063 11.0478
-1.39226 8.15132 11.0465
-1.4622 8.072 11.0451
-1.53214 7.99269 11.0437
-1.60209 7.91337 11.0424
-1.67203 7.83406 11.041
-1.74197 7.75474 11.0396
-1.89242 7.73789 11.0407
-1.88186 7.59611 11.0369
-1.9518 7.5168 11.0355
-2.10225 7.49995 11.0366
-2.17219 7.42063 11.0352
-2.24214 7.34132 11.0339
-2.31208 7.26201 11.0325
-2.46253 7.24516 11.0336
-2.53247 7.16584 11.0322
-2.60241 7.08652 11.0308
-2.67235 7.00721 11.0294
-2.7423 6.9279 11.0281
-2.81224 6.84858 11.0267
-2.88218 6.76927 11.0254
-2.95213 6.68995 11.024
-3.02207 6.61064 11.0226
-3.09201 6.53132 11.0213
-3.24247 6.51448 11.0223
-3.31241 6.43516 11.021
-3.38235 6.35585 11.0196
-3.45229 6.27653 11.0182
-3.52224 6.19722 11.0168
-3.59218 6.1179 11.0155
-3.66212 6.03859 11.0141
-3.73207 5.95927 11.0128
-3.80201 5.87996 11.0114
-3.87195 5.80064 11.01
-3.9419 5.72133 11.0087
-4.01184 5.64201 11.0073
-4.08178 5.5627 11.0059
-4.15172 5.48338 11.0046
-4.22167 5.40407 11.0032
-4.29161 5.32476 11.0018
-4.36155 5.24544 11.0005
-4.35099 5.10366 10.9967
-4.42093 5.02434 10.9953
-4.49088 4.94503 10.9939
-4.56082 4.86571 10.9926
-4.63076 4.7864 10.9912
-4.70071 4.70708 10.9898
-4.77065 4.62777 10.9885
-4.84059 4.54846 10.9871
-4.91053 4.46914 10.9857
-4.98048 4.38982 10.9844
-4.96992 4.24805 10.9806
-5.03986 4.16873 10.9792
-5.10981 4.08942 10.9779
-5.09924 3.94764 10.9741
-5.16919 3.86832 10.9727
-5.23913 3.78901 10.9713
-5.22857 3.64723 10.9675
-5.29851 3.56791 10.9662
-5.28795 3.42613 10.9624
-5.27739 3.28435 10.9586
-5.10582 3.01764 10.95
-4.93425 2.75093 10.9413
-4.92369 2.60915 10.9375
-4.99363 2.52984 10.9362
-4.98307 2.38805 10.9324
-4.8115 2.12134 10.9238
-5.2786 3.80605 11.0016
-5.40046 3.71623 11.0026
-5.42138 3.61257 11.0013
-5.54325 3.52276 11.0023
-5.56416 3.4191 11.0009
-5.58507 3.31544 10.9996
-5.60599 3.21178 10.9982
-5.62691 3.10812 10.9969
-5.64782 3.00446 10.9955
-5.66874 2.9008 10.9941
-5.68965 2.79714 10.9928
-5.71057 2.69348 10.9914
-5.73148 2.58982 10.99
-5.65145 2.47231 10.9862
-5.67236 2.36865 10.9849
-5.69327 2.26499 10.9835
-5.71419 2.16133 10.9821
-5.73511 2.05767 10.9808
-5.75602 1.95401 10.9794
-5.77694 1.85035 10.978
-5.6969 1.73285 10.9742
-5.71782 1.62919 10.9729
-5.73873 1.52553 10.9715
-5.75965 1.42187 10.9702
-5.67961 1.30436 10.9664
-5.70052 1.2007 10.965
-5.72144 1.09704 10.9636
-5.6414 0.979538 10.9598
-5.66232 0.875877 10.9585
-5.68323 0.772217 10.9571
-5.70415 0.668557 10.9557
-5.72506 0.564896 10.9544
-5.74598 0.461236 10.953
-5.7669 0.357578 10.9516
-5.68686 0.240072 10.9478
-5.70777 0.136412 10.9465
-5.72869 0.0327508 10.9451
-5.7496 -0.0709087 10.9438
-5.66956 -0.188415 10.94
-5.69048 -0.292072 10.9386
-5.7114 -0.395734 10.9372
-5.73231 -0.499393 10.9359
-5.75323 -0.603053 10.9345
-5.77414 -0.706715 10.9331
-5.69411 -0.824218 10.9294
-5.61407 -0.941724 10.9256
-5.63498 -1.04538 10.9242
-5.55495 -1.16289 10.9204
-5.57586 -1.26655 10.919
-5.59678 -1.37021 10.9177
-5.61769 -1.47387 10.9163
-5.63861 -1.57753 10.9149
-5.65953 -1.68119 10.9136
-5.57949 -1.79869 10.9098
-5.6004 -1.90235 10.9084
-5.52036 -2.01986 10.9046
-5.44033 -2.13736 10.9008
-5.25934 -2.26871 10.8946
-5.1793 -2.38621 10.8908
-5.09926 -2.50372 10.887
-5.12018 -2.60738 10.8857
-5.1411 -2.71104 10.8843
-5.06106 -2.82854 10.8805
-4.98102 -2.94605 10.8767
-6.20527 3.0463 11.0047
-6.2659 2.90759 11.0057
-6.32654 2.76887 11.0068
-6.29282 2.66864 11.0054
-6.25911 2.56841 11.004
-6.31974 2.42969 11.0051
-6.28602 2.32946 11.0037
-6.2523 2.22923 11.0024
-6.21859 2.129 11.001
-6.27922 1.99029 11.0021
-6.33985 1.85157 11.0031
-6.40048 1.71286 11.0042
-6.36677 1.61262 11.0028
-6.33305 1.51239 11.0014
-6.39368 1.37368 11.0025
-6.45431 1.23496 11.0036
-6.51494 1.09625 11.0046
-6.57558 0.95753 11.0057
-6.54186 0.8573 11.0043
-6.50814 0.757071 11.0029
-6.56877 0.618355 11.004
-6.53506 0.518125 11.0026
-6.50134 0.417895 11.0013
-6.56197 0.279179 11.0023
-6.62261 0.140459 11.0034
-6.68323 0.00174618 11.0044
-6.64952 -0.0984843 11.0031
-6.6158 -0.198714 11.0017
-6.58209 -0.298944 11.0003
-6.64272 -0.437662 11.0014
-6.609 -0.53789 11
-6.57528 -0.638122 10.9987
-6.54157 -0.73835 10.9973
-6.50785 -0.838582 10.9959
-6.47414 -0.938812 10.9946
-6.44042 -1.03904 10.9932
-6.4067 -1.13927 10.9918
-6.37298 -1.2395 10.9905
-6.43362 -1.37822 10.9915
-6.3999 -1.47845 10.9901
-6.36618 -1.57868 10.9888
-6.33246 -1.67891 10.9874
-6.29875 -1.77914 10.9861
-6.26503 -1.87937 10.9847
-6.23131 -1.9796 10.9833
-6.1976 -2.07983 10.9819
-6.16388 -2.18006 10.9806
-6.13016 -2.28029 10.9792
-6.09645 -2.38052 10.9779
-6.06273 -2.48075 10.9765
-6.02901 -2.58098 10.9751
-5.99529 -2.68121 10.9738
-5.96158 -2.78144 10.9724
-5.83351 -2.84318 10.9686
-5.79979 -2.94341 10.9672
-5.76608 -3.04364 10.9659
-5.73236 -3.14387 10.9645
-5.69864 -3.2441 10.9631
-5.66492 -3.34433 10.9618
-5.63121 -3.44456 10.9604
-5.59749 -3.54479 10.959
-5.56378 -3.64502 10.9577
-5.53006 -3.74525 10.9563
-5.49634 -3.84548 10.9549
-5.46262 -3.94571 10.9536
-5.42891 -4.04594 10.9522
-5.39519 -4.14617 10.9509
-5.36147 -4.2464 10.9495
-5.32775 -4.34663 10.9481
-5.19969 -4.40837 10.9443
-5.16597 -4.5086 10.943
-5.13225 -4.60883 10.9416
-5.00419 -4.67058 10.9378
-4.97047 -4.77081 10.9364
-4.93676 -4.87104 10.9351
-4.90304 -4.97127 10.9337
-4.86932 -5.0715 10.9323
-4.8356 -5.17172 10.931
-4.80189 -5.27195 10.9296
-4.76817 -5.37218 10.9282
-4.73446 -5.47242 10.9269
-4.70074 -5.57265 10.9255
-4.66702 -5.67287 10.9241
-4.6333 -5.77311 10.9228
-4.59959 -5.87333 10.9214
-4.47152 -5.93508 10.9176
-4.4378 -6.03531 10.9163
-4.40408 -6.13554 10.9149
-4.37037 -6.23577 10.9135
-4.2423 -6.29751 10.9097
-4.20858 -6.39774 10.9084
-4.08052 -6.45948 10.9046
-6.60858 -1.12563 11.0037
-6.59173 -1.27608 11.0048
-6.57488 -1.42653 11.0058
-6.49557 -1.49647 11.0045
-6.47872 -1.64692 11.0055
-6.46187 -1.79737 11.0066
-6.44502 -1.94781 11.0076
-6.42817 -2.09826 11.0087
-6.41132 -2.24871 11.0098
-6.39447 -2.39916 11.0108
-6.37762 -2.5496 11.0119
-6.29831 -2.61955 11.0105
-6.219 -2.68949 11.0091
-6.20215 -2.83994 11.0102
-6.12283 -2.90988 11.0088
-6.04352 -2.97983 11.0075
-5.9642 -3.04977 11.0061
-5.94735 -3.20022 11.0072
-5.86804 -3.27016 11.0058
-5.85119 -3.42061 11.0069
-5.83434 -3.57106 11.0079
-5.75503 -3.641 11.0065
-5.73818 -3.79145 11.0076
-5.78379 -4.0224 11.0111
-5.76694 -4.17285 11.0121
-5.68763 -4.24279 11.0108
-5.67078 -4.39324 11.0118
-5.59147 -4.46318 11.0105
-5.51215 -4.53313 11.0091
-5.4953 -4.68357 11.0101
-5.41599 -4.75352 11.0088
-5.33667 -4.82346 11.0074
-5.25736 -4.8934 11.0061
-5.24051 -5.04385 11.0071
-5.1612 -5.11379 11.0058
-5.08188 -5.18374 11.0044
-5.06503 -5.33418 11.0054
-4.98571 -5.40413 11.0041
-4.96886 -5.55457 11.0051
-4.88955 -5.62452 11.0038
-4.81024 -5.69446 11.0024
-4.73092 -5.7644 11.001
-4.65161 -5.83435 10.9997
-4.63476 -5.9848 11.0007
-4.61791 -6.13524 11.0018
-4.53859 -6.20519 11.0004
-4.52175 -6.35564 11.0015
-4.5049 -6.50608 11.0025
-4.42558 -6.57603 11.0012
-4.40873 -6.72647 11.0022
-4.32942 -6.79642 11.0009
-4.2501 -6.86636 10.9995
-4.23325 -7.01681 11.0005
-4.15394 -7.08675 10.9992
-4.07462 -7.15669 10.9978
-4.05777 -7.30714 10.9989
-4.04093 -7.45759 10.9999
-3.96161 -7.52753 10.9986
-3.8823 -7.59748 10.9972
-3.80298 -7.66742 10.9958
-3.78613 -7.81787 10.9969
-3.70682 -7.88781 10.9955
-3.6275 -7.95775 10.9942
-3.54819 -8.02769 10.9928
-3.53134 -8.17814 10.9938
-3.45202 -8.24809 10.9925
-3.37271 -8.31803 10.9911
-3.29339 -8.38797 10.9897
-3.21408 -8.45792 10.9884
-3.13476 -8.52786 10.987
-3.05545 -8.5978 10.9856
-2.97613 -8.66774 10.9843
-2.89682 -8.73769 10.9829
-2.87998 -8.88814 10.984
-2.80066 -8.95808 10.9826
-2.72135 -9.02803 10.9812
-2.64203 -9.09797 10.9799
-2.56271 -9.16791 10.9785
-2.4834 -9.23785 10.9771
-2.40409 -9.3078 10.9758
-2.32477 -9.37774 10.9744
-2.24546 -9.44768 10.973
-2.16614 -9.51763 10.9717
-2.08683 -9.58757 10.9703
-2.00751 -9.65751 10.9689
-1.9282 -9.72746 10.9676
-1.84888 -9.7974 10.9662
-1.76957 -9.86734 10.9648
-1.69025 -9.93729 10.9635
-1.54847 -9.92672 10.9597
-1.46915 -9.99666 10.9583
-1.38984 -10.0666 10.957
-1.31053 -10.1366 10.9556
-1.23121 -10.2065 10.9542
-1.1519 -10.2764 10.9529
-1.07258 -10.3464 10.9515
-0.993266 -10.4163 10.9501
-0.913954 -10.4863 10.9488
-0.83464 -10.5562 10.9474
-0.755325 -10.6262 10.946
-0.676009 -10.6961 10.9447
-0.534228 -10.6855 10.9409
-0.454915 -10.7555 10.9395
-0.375601 -10.8254 10.9381
-0.233825 -10.8149 10.9344
-0.154509 -10.8848 10.933
-0.0127244 -10.8742 10.9292
0.129054 -10.8637 10.9254
