ply
format ascii 1.0
comment VCGLIB generated
element vertex 983
property float x
property float y
property float z
element face 0
property list uchar int vertex_indices
end_header
2.89156 -11.9864 12.161
3.04201 -11.9695 12.1621
3.19246 -11.9527 12.1631
3.34291 -11.9358 12.1642
3.57386 -11.9814 12.1677
3.80481 -12.0271 12.1711
3.87475 -11.9477 12.1698
4.0252 -11.9309 12.1708
4.25615 -11.9765 12.1743
4.4066 -11.9597 12.1754
4.47655 -11.8803 12.174
4.62699 -11.8635 12.1751
4.69694 -11.7842 12.1737
4.84738 -11.7673 12.1748
5.15884 -11.8754 12.1807
5.3898 -11.921 12.1841
5.54024 -11.9042 12.1852
5.69069 -11.8873 12.1863
5.84114 -11.8705 12.1873
5.91108 -11.7912 12.1859
5.98102 -11.7119 12.1846
6.13147 -11.695 12.1856
6.20142 -11.6157 12.1843
6.35186 -11.5988 12.1853
6.42181 -11.5195 12.184
6.57225 -11.5027 12.185
6.7227 -11.4858 12.1861
6.87315 -11.469 12.1871
6.9431 -11.3897 12.1858
7.09354 -11.3728 12.1868
7.16348 -11.2935 12.1855
7.23343 -11.2142 12.1841
7.38387 -11.1973 12.1852
7.45382 -11.118 12.1838
7.52376 -11.0387 12.1824
7.67421 -11.0219 12.1835
7.74415 -10.9425 12.1821
7.8946 -10.9257 12.1832
7.96454 -10.8464 12.1818
8.03448 -10.7671 12.1804
8.18493 -10.7502 12.1815
8.25488 -10.6709 12.1801
8.32482 -10.5916 12.1788
8.39476 -10.5123 12.1774
8.54521 -10.4954 12.1785
8.61515 -10.4161 12.1771
8.6851 -10.3368 12.1757
8.75504 -10.2575 12.1744
8.82499 -10.1782 12.173
8.89493 -10.0988 12.1716
8.96487 -10.0195 12.1703
9.11532 -10.0027 12.1713
9.18526 -9.92337 12.17
9.2552 -9.84405 12.1686
9.32514 -9.76474 12.1672
9.39509 -9.68542 12.1658
9.46503 -9.60611 12.1645
9.53498 -9.52679 12.1631
9.60492 -9.44748 12.1618
9.67486 -9.36816 12.1604
9.82531 -9.35132 12.1614
9.89526 -9.272 12.1601
9.9652 -9.19269 12.1587
10.0351 -9.11337 12.1573
10.0246 -8.97159 12.1535
10.0945 -8.89227 12.1522
10.1645 -8.81296 12.1508
10.2344 -8.73365 12.1495
10.3043 -8.65433 12.1481
10.3743 -8.57502 12.1467
10.3637 -8.43324 12.1429
10.4337 -8.35393 12.1416
10.5036 -8.27461 12.1402
10.5736 -8.19529 12.1388
10.6435 -8.11598 12.1375
10.7135 -8.03666 12.1361
10.7834 -7.95735 12.1347
10.7728 -7.81557 12.131
10.8428 -7.73626 12.1296
10.9127 -7.65694 12.1282
10.9827 -7.57763 12.1268
10.9721 -7.43584 12.1231
11.042 -7.35653 12.1217
11.0315 -7.21475 12.1179
11.0209 -7.07297 12.1141
11.0909 -6.99366 12.1127
11.0803 -6.85188 12.109
11.0697 -6.7101 12.1052
11.1397 -6.63078 12.1038
11.2096 -6.55147 12.1024
11.1991 -6.40969 12.0986
11.269 -6.33037 12.0973
11.2584 -6.18859 12.0935
11.3284 -6.10927 12.0921
11.3178 -5.96749 12.0883
11.3878 -5.88818 12.087
11.3772 -5.7464 12.0832
11.3666 -5.60462 12.0794
11.3561 -5.46284 12.0756
11.3455 -5.32106 12.0718
11.335 -5.17928 12.068
11.3244 -5.0375 12.0642
11.3138 -4.89572 12.0605
11.3033 -4.75394 12.0567
11.2927 -4.61216 12.0529
11.2017 -4.40791 12.0467
11.1106 -4.20367 12.0405
11.1 -4.06189 12.0367
10.9285 -3.79518 12.028
10.8374 -3.59093 12.0218
10.8268 -3.44915 12.018
10.8968 -3.36984 12.0167
10.8862 -3.22805 12.0129
10.8756 -3.08628 12.0091
10.8651 -2.9445 12.0053
10.8545 -2.80272 12.0015
10.844 -2.66094 11.9977
7.2087 -11.2081 12.173
7.53247 -11.146 12.179
7.75529 -11.07 12.1824
7.87716 -10.9802 12.1835
7.99902 -10.8904 12.1846
8.12089 -10.8006 12.1856
8.1418 -10.6969 12.1842
8.26367 -10.6071 12.1853
8.68839 -10.5588 12.1936
8.81026 -10.469 12.1947
8.83118 -10.3654 12.1933
8.95304 -10.2755 12.1944
8.97396 -10.1719 12.193
8.99487 -10.0682 12.1916
9.11674 -9.97841 12.1927
9.33956 -9.90244 12.1962
9.56238 -9.82647 12.1997
9.68425 -9.73665 12.2007
9.70516 -9.63299 12.1994
9.82703 -9.54318 12.2004
9.94889 -9.45336 12.2015
10.0708 -9.36354 12.2025
10.0917 -9.25988 12.2012
10.2135 -9.17007 12.2022
10.3354 -9.08025 12.2033
10.3563 -8.97659 12.2019
10.4782 -8.88678 12.203
10.6001 -8.79696 12.204
10.621 -8.6933 12.2027
10.7428 -8.60348 12.2037
10.7638 -8.49982 12.2023
10.7847 -8.39617 12.201
10.9065 -8.30635 12.202
10.9275 -8.20269 12.2007
10.9484 -8.09903 12.1993
10.9693 -7.99537 12.1979
10.9902 -7.89171 12.1966
11.0111 -7.78805 12.1952
11.032 -7.68439 12.1938
11.1539 -7.59457 12.1949
11.1748 -7.49091 12.1935
11.1957 -7.38725 12.1922
11.2166 -7.28359 12.1908
11.2376 -7.17993 12.1894
11.3594 -7.09012 12.1905
11.3803 -6.98645 12.1891
11.4013 -6.8828 12.1878
11.4222 -6.77914 12.1864
11.4431 -6.67547 12.185
11.464 -6.57181 12.1837
11.4849 -6.46815 12.1823
11.5058 -6.36449 12.1809
11.5267 -6.26083 12.1796
11.6486 -6.17102 12.1806
11.6695 -6.06736 12.1792
11.5895 -5.94985 12.1755
11.6104 -5.84619 12.1741
11.6313 -5.74253 12.1727
11.6522 -5.63887 12.1714
11.5722 -5.52137 12.1676
11.5931 -5.41771 12.1662
11.614 -5.31405 12.1648
11.6349 -5.21039 12.1635
11.6559 -5.10673 12.1621
11.6768 -5.00307 12.1607
11.5967 -4.88556 12.157
11.6177 -4.7819 12.1556
11.6386 -4.67824 12.1542
11.6595 -4.57458 12.1529
11.6804 -4.47092 12.1515
11.7013 -4.36726 12.1501
11.6213 -4.24976 12.1463
11.6422 -4.1461 12.145
11.6631 -4.04244 12.1436
11.684 -3.93878 12.1422
11.604 -3.82127 12.1384
11.524 -3.70377 12.1347
11.5449 -3.60011 12.1333
11.4648 -3.4826 12.1295
11.4857 -3.37894 12.1281
11.4057 -3.26144 12.1243
11.3257 -3.14393 12.1206
11.2456 -3.02643 12.1168
11.2665 -2.92277 12.1154
11.2875 -2.81911 12.114
11.3084 -2.71545 12.1127
11.2283 -2.59794 12.1089
11.2493 -2.49429 12.1075
11.2702 -2.39062 12.1062
11.1901 -2.27312 12.1024
11.2111 -2.16946 12.101
11.131 -2.05196 12.0972
11.1519 -1.9483 12.0958
11.1728 -1.84464 12.0945
11.0928 -1.72713 12.0907
11.1137 -1.62347 12.0893
11.1346 -1.51981 12.088
11.0546 -1.40231 12.0842
11.0755 -1.29865 12.0828
10.9955 -1.18114 12.079
11.0164 -1.07748 12.0776
10.9364 -0.959977 12.0739
10.9573 -0.856318 12.0725
10.8772 -0.738812 12.0687
10.8981 -0.635152 12.0673
10.8181 -0.517645 12.0635
10.839 -0.413989 12.0622
10.8599 -0.310326 12.0608
10.8809 -0.206667 12.0594
10.9018 -0.103007 12.0581
10.9227 0.000653148 12.0567
10.8427 0.118159 12.0529
10.8636 0.221818 12.0516
10.8845 0.325478 12.0502
10.8044 0.442981 12.0464
10.7244 0.560487 12.0426
10.6444 0.677992 12.0388
10.6653 0.781654 12.0375
10.5853 0.899155 12.0337
10.6062 1.00281 12.0323
10.5261 1.12032 12.0285
10.4461 1.23783 12.0247
10.3661 1.35533 12.0209
10.286 1.47283 12.0172
10.3069 1.57649 12.0158
10.2269 1.694 12.012
10.1469 1.8115 12.0082
10.0668 1.92901 12.0044
9.98679 2.04651 12.0006
9.90675 2.16402 11.9968
9.92766 2.26768 11.9955
9.84763 2.38518 11.9917
9.86854 2.48884 11.9903
9.78851 2.60635 11.9865
9.80942 2.71001 11.9852
9.72939 2.82751 11.9814
9.7503 2.93117 11.98
9.67026 3.04867 11.9762
9.59023 3.16618 11.9724
9.40924 3.29753 11.9662
9.3292 3.41503 11.9624
9.35011 3.51869 11.9611
9.27008 3.6362 11.9573
9.19004 3.7537 11.9535
9.21096 3.85736 11.9521
9.13092 3.97487 11.9483
9.15184 4.07853 11.947
9.0718 4.19603 11.9432
8.89081 4.32738 11.937
8.81077 4.44489 11.9332
8.83169 4.54854 11.9318
8.75165 4.66605 11.928
11.645 -7.09647 12.1719
11.7056 -6.95775 12.1729
11.7662 -6.81903 12.174
11.8269 -6.68032 12.175
11.8875 -6.5416 12.1761
11.9481 -6.40288 12.1772
11.9144 -6.30266 12.1758
11.9751 -6.16394 12.1768
12.0357 -6.02522 12.1779
12.0963 -5.8865 12.179
12.1569 -5.74779 12.18
12.1232 -5.64756 12.1786
12.0895 -5.54733 12.1773
12.0558 -5.4471 12.1759
12.1164 -5.30838 12.177
12.0827 -5.20815 12.1756
12.049 -5.10792 12.1742
12.1096 -4.96921 12.1753
12.0759 -4.86898 12.1739
12.0422 -4.76875 12.1726
12.1028 -4.63003 12.1736
12.0691 -4.5298 12.1723
12.0354 -4.42957 12.1709
12.0017 -4.32934 12.1695
12.0623 -4.19063 12.1706
12.0286 -4.09039 12.1692
12.0892 -3.95168 12.1703
12.0555 -3.85145 12.1689
12.0218 -3.75122 12.1675
11.9881 -3.65099 12.1662
11.9544 -3.55076 12.1648
11.9206 -3.45053 12.1634
11.8869 -3.3503 12.1621
11.8532 -3.25007 12.1607
11.8195 -3.14984 12.1593
11.7858 -3.04961 12.158
11.8464 -2.91089 12.159
11.8127 -2.81066 12.1577
11.779 -2.71043 12.1563
11.8396 -2.57172 12.1574
11.8059 -2.47149 12.156
11.7722 -2.37126 12.1546
11.7384 -2.27103 12.1533
11.7047 -2.1708 12.1519
11.671 -2.07057 12.1505
11.7316 -1.93185 12.1516
11.6979 -1.83162 12.1502
11.6642 -1.73139 12.1488
11.6305 -1.63116 12.1475
11.5968 -1.53093 12.1461
11.5631 -1.4307 12.1448
11.6237 -1.29199 12.1458
11.59 -1.19176 12.1445
11.5563 -1.09152 12.1431
11.5225 -0.991296 12.1417
11.5832 -0.852578 12.1428
11.5495 -0.752349 12.1414
11.5157 -0.652118 12.14
11.482 -0.551889 12.1387
11.4483 -0.451658 12.1373
11.4146 -0.351428 12.1359
11.3809 -0.2512 12.1346
11.3472 -0.150969 12.1332
11.3134 -0.0507383 12.1319
11.2797 0.0494914 12.1305
11.246 0.149721 12.1291
11.3066 0.288435 12.1302
11.2729 0.388666 12.1288
11.2392 0.488895 12.1274
11.2055 0.589126 12.1261
11.1718 0.689354 12.1247
11.138 0.789584 12.1233
11.1043 0.889815 12.122
11.0706 0.990046 12.1206
11.1313 1.12876 12.1217
11.0975 1.22899 12.1203
11.0638 1.32922 12.1189
11.0301 1.42945 12.1176
10.9964 1.52968 12.1162
10.9627 1.62991 12.1148
10.9289 1.73014 12.1135
10.8952 1.83037 12.1121
10.8615 1.9306 12.1107
10.8278 2.03083 12.1094
10.7941 2.13106 12.108
10.7604 2.23129 12.1066
10.7266 2.33152 12.1053
10.6929 2.43175 12.1039
10.6592 2.53198 12.1025
10.6255 2.63221 12.1012
10.5918 2.73244 12.0998
10.5581 2.83267 12.0984
10.43 2.89441 12.0947
10.3963 2.99465 12.0933
10.3626 3.09487 12.0919
10.3288 3.1951 12.0906
10.2951 3.29533 12.0892
10.1671 3.35708 12.0854
10.1333 3.45731 12.084
10.0996 3.55754 12.0827
10.0659 3.65777 12.0813
10.0322 3.758 12.0799
9.99848 3.85823 12.0786
9.96476 3.95846 12.0772
9.93104 4.05869 12.0758
9.89733 4.15892 12.0745
9.86361 4.25915 12.0731
9.82989 4.35938 12.0717
9.79618 4.45961 12.0704
9.76246 4.55984 12.069
9.72874 4.66007 12.0676
9.60067 4.72181 12.0639
9.56695 4.82204 12.0625
9.53323 4.92227 12.0611
9.49952 5.0225 12.0598
9.37145 5.08424 12.056
9.33774 5.18447 12.0546
9.20967 5.24622 12.0508
9.17595 5.34645 12.0494
9.04789 5.40819 12.0457
9.01417 5.50842 12.0443
8.88611 5.57016 12.0405
8.75804 5.63191 12.0367
8.72432 5.73214 12.0353
8.59626 5.79388 12.0316
8.56254 5.89411 12.0302
8.43448 5.95585 12.0264
8.30641 6.0176 12.0226
8.17834 6.07934 12.0188
8.05028 6.14109 12.015
7.92221 6.20283 12.0112
7.79414 6.26457 12.0075
7.76042 6.3648 12.0061
7.72671 6.46503 12.0047
7.69299 6.56526 12.0034
7.65927 6.66549 12.002
11.3716 0.721931 12.1235
11.4172 0.952886 12.127
11.4003 1.10333 12.128
11.321 1.17328 12.1266
11.3042 1.32372 12.1277
11.2873 1.47417 12.1288
11.208 1.54412 12.1274
11.1912 1.69456 12.1285
11.1119 1.7645 12.1271
11.095 1.91495 12.1282
11.0157 1.9849 12.1268
10.9988 2.13534 12.1278
10.9195 2.20529 12.1265
10.8402 2.27523 12.1251
10.8234 2.42568 12.1262
10.7441 2.49562 12.1248
10.7272 2.64607 12.1259
10.7104 2.79652 12.1269
10.6935 2.94697 12.128
10.6142 3.01691 12.1266
10.5349 3.08685 12.1252
10.518 3.2373 12.1263
10.4387 3.30724 12.1249
10.4219 3.45769 12.126
10.3425 3.52763 12.1246
10.2632 3.59758 12.1233
10.1839 3.66752 12.1219
10.1046 3.73746 12.1205
10.0878 3.88791 12.1216
10.0709 4.03836 12.1226
10.0541 4.18881 12.1237
9.97474 4.25875 12.1223
9.95789 4.4092 12.1234
9.94104 4.55965 12.1245
9.92419 4.71009 12.1255
9.84488 4.78004 12.1241
9.82803 4.93049 12.1252
9.74871 5.00043 12.1238
9.73186 5.15088 12.1249
9.71501 5.30132 12.1259
9.6357 5.37127 12.1246
9.61885 5.52172 12.1256
9.53954 5.59166 12.1243
9.46022 5.6616 12.1229
9.38091 5.73154 12.1215
9.30159 5.80149 12.1202
9.22228 5.87143 12.1188
9.20543 6.02188 12.1199
9.12611 6.09182 12.1185
9.0468 6.16177 12.1171
8.96748 6.23171 12.1158
8.88817 6.30165 12.1144
8.80885 6.37159 12.113
8.72954 6.44154 12.1117
8.65022 6.51148 12.1103
8.63338 6.66193 12.1114
8.55406 6.73188 12.11
8.47474 6.80182 12.1086
8.39543 6.87176 12.1073
8.31612 6.9417 12.1059
8.2368 7.01165 12.1045
8.15749 7.08159 12.1032
8.07817 7.15153 12.1018
7.99886 7.22148 12.1004
7.91954 7.29142 12.0991
7.84023 7.36136 12.0977
7.76091 7.43131 12.0963
7.6816 7.50125 12.095
7.53981 7.49068 12.0912
7.4605 7.56063 12.0898
7.38119 7.63057 12.0884
7.30187 7.70051 12.0871
7.22256 7.77046 12.0857
7.14324 7.8404 12.0843
7.06393 7.91034 12.083
6.98461 7.98029 12.0816
6.9053 8.05023 12.0802
6.76352 8.03967 12.0765
6.6842 8.10961 12.0751
6.60489 8.17955 12.0737
6.52557 8.2495 12.0724
6.38379 8.23894 12.0686
6.30448 8.30888 12.0672
6.22516 8.37882 12.0658
6.08338 8.36826 12.062
6.00407 8.43821 12.0607
5.86229 8.42764 12.0569
5.53311 8.17556 12.0458
5.39133 8.16501 12.042
5.31202 8.23495 12.0407
5.17023 8.22439 12.0369
4.77859 7.89181 12.0234
4.63681 7.88125 12.0196
4.5575 7.95119 12.0182
4.47818 8.02113 12.0169
4.39887 8.09107 12.0155
4.25709 8.08051 12.0117
4.11531 8.06995 12.0079
3.97353 8.05939 12.0042
3.76928 7.96832 11.9979
3.6275 7.95776 11.9942
3.54819 8.0277 11.9928
3.40641 8.01715 11.989
8.0774 6.90667 12.1116
7.97374 6.92758 12.1103
7.88393 7.04945 12.1113
7.86333 7.67608 12.1245
7.77351 7.79795 12.1255
7.66985 7.81886 12.1242
7.56619 7.83978 12.1228
7.47638 7.96164 12.1239
7.37272 7.98256 12.1225
7.26906 8.00347 12.1211
7.17924 8.12534 12.1222
7.07558 8.14625 12.1208
6.98577 8.26812 12.1219
6.88211 8.28904 12.1205
6.77844 8.30995 12.1192
6.67479 8.33086 12.1178
6.58497 8.45274 12.1189
6.48131 8.47365 12.1175
6.37765 8.49457 12.1161
6.27399 8.51548 12.1147
6.17033 8.5364 12.1134
6.08051 8.65826 12.1144
5.97685 8.67918 12.1131
5.87319 8.70009 12.1117
5.76953 8.721 12.1104
5.66587 8.74192 12.109
5.56221 8.76284 12.1076
5.45855 8.78375 12.1062
5.35489 8.80467 12.1049
5.25123 8.82558 12.1035
5.14757 8.8465 12.1021
5.04391 8.86741 12.1008
4.92641 8.78738 12.097
4.82275 8.80829 12.0956
4.71909 8.82921 12.0943
4.60158 8.74917 12.0905
4.49792 8.77008 12.0891
4.39426 8.791 12.0877
4.2906 8.81191 12.0864
4.18694 8.83283 12.085
4.08328 8.85374 12.0836
3.97962 8.87466 12.0823
3.87596 8.89558 12.0809
3.75846 8.81554 12.0771
3.6548 8.83645 12.0758
3.53729 8.75642 12.072
3.41979 8.67638 12.0682
3.31613 8.6973 12.0668
3.21247 8.71821 12.0654
3.09496 8.63817 12.0617
2.9913 8.65909 12.0603
2.88764 8.68001 12.0589
2.77014 8.59997 12.0551
2.66648 8.62088 12.0538
2.54897 8.54085 12.05
2.44531 8.56176 12.0486
2.32781 8.48173 12.0448
2.22415 8.50264 12.0435
2.12049 8.52355 12.0421
2.00298 8.44351 12.0383
1.89932 8.46443 12.0369
1.78182 8.3844 12.0331
1.66431 8.30436 12.0294
1.53297 8.12337 12.0231
4.95953 8.7802 12.0838
4.82081 8.84083 12.0848
4.72058 8.80712 12.0835
4.62035 8.7734 12.0821
4.48163 8.83403 12.0832
4.34292 8.89466 12.0842
4.16571 9.04965 12.0877
4.027 9.11028 12.0888
3.88828 9.1709 12.0898
3.78805 9.13719 12.0885
3.68782 9.10347 12.0871
3.58759 9.06976 12.0857
3.48736 9.03604 12.0844
3.38713 9.00232 12.083
3.2869 8.9686 12.0816
3.14819 9.02924 12.0827
3.04795 8.99552 12.0813
2.94773 8.96181 12.08
2.80901 9.02243 12.081
2.70878 8.98872 12.0796
2.60855 8.955 12.0783
2.50832 8.92128 12.0769
2.3696 8.98192 12.078
2.26937 8.9482 12.0766
2.16914 8.91448 12.0752
2.06891 8.88077 12.0739
1.96868 8.84705 12.0725
1.86845 8.81333 12.0711
1.76822 8.77962 12.0698
1.66799 8.7459 12.0684
1.56776 8.71218 12.067
1.46753 8.67847 12.0657
1.36731 8.64475 12.0643
1.26707 8.61103 12.0629
1.16684 8.57731 12.0616
1.06661 8.5436 12.0602
0.927898 8.60423 12.0613
0.827669 8.57051 12.0599
0.727438 8.53679 12.0585
0.627208 8.50308 12.0572
0.565464 8.37501 12.0534
0.465235 8.34129 12.052
0.365006 8.30758 12.0506
0.264775 8.27386 12.0493
0.164544 8.24014 12.0479
0.0643146 8.20643 12.0466
-0.0359137 8.17271 12.0452
-0.136145 8.13899 12.0438
-0.236374 8.10528 12.0424
-0.336604 8.07156 12.0411
-0.436836 8.03784 12.0397
-0.537064 8.00412 12.0383
-0.637294 7.97041 12.037
-0.737524 7.93669 12.0356
-0.837754 7.90298 12.0343
-0.937985 7.86926 12.0329
-0.999725 7.74119 12.0291
-1.09996 7.70747 12.0277
-1.20019 7.67375 12.0264
-1.30042 7.64004 12.025
-1.36216 7.51198 12.0212
-1.46239 7.47826 12.0199
-1.56262 7.44454 12.0185
-1.62436 7.31647 12.0147
-1.7246 7.28275 12.0133
-1.82482 7.24903 12.012
-1.88656 7.12097 12.0082
-1.94831 6.99291 12.0044
-2.04854 6.95919 12.003
-2.11029 6.83112 11.9992
-2.21051 6.7974 11.9979
-2.31074 6.76369 11.9965
-2.37249 6.63562 11.9927
-2.47272 6.60191 11.9913
-2.53446 6.47384 11.9875
-2.5962 6.34577 11.9838
-2.65795 6.21771 11.98
-2.68121 5.99529 11.9738
-0.419627 8.33173 12.0415
-0.731084 8.43981 12.0474
-0.881535 8.42296 12.0484
-1.03198 8.40611 12.0495
-1.10192 8.32679 12.0481
-1.17186 8.24748 12.0468
-1.24181 8.16817 12.0454
-1.31175 8.08885 12.044
-1.4622 8.072 12.0451
-1.53214 7.99269 12.0437
-1.60209 7.91337 12.0424
-1.75254 7.89652 12.0434
-1.82248 7.81721 12.0421
-1.89242 7.73789 12.0407
-1.96236 7.65858 12.0393
-2.11281 7.64173 12.0404
-2.18275 7.56241 12.039
-2.25269 7.4831 12.0377
-2.32264 7.40378 12.0363
-2.39258 7.32447 12.0349
-2.46253 7.24516 12.0336
-2.53247 7.16584 12.0322
-2.60241 7.08652 12.0308
-2.67235 7.00721 12.0294
-2.7423 6.9279 12.0281
-2.89275 6.91105 12.0291
-2.96269 6.83173 12.0278
-3.03263 6.75242 12.0264
-3.10258 6.6731 12.0251
-3.17252 6.59379 12.0237
-3.24247 6.51448 12.0223
-3.39291 6.49762 12.0234
-3.46285 6.41831 12.022
-3.5328 6.339 12.0206
-3.60274 6.25968 12.0193
-3.67269 6.18037 12.0179
-3.74263 6.10105 12.0165
-3.81257 6.02174 12.0152
-3.88251 5.94242 12.0138
-3.95246 5.86311 12.0125
-4.0224 5.78379 12.0111
-4.09234 5.70448 12.0097
-4.16229 5.62516 12.0083
-4.15172 5.48338 12.0046
-4.22167 5.40407 12.0032
-4.29161 5.32476 12.0018
-4.36155 5.24544 12.0005
-4.35099 5.10366 11.9967
-4.42093 5.02434 11.9953
-4.49088 4.94503 11.9939
-4.56082 4.86571 11.9926
-4.63076 4.7864 11.9912
-4.70071 4.70708 11.9898
-4.69015 4.56531 11.9861
-4.76009 4.48599 11.9847
-4.83003 4.40668 11.9833
-4.81947 4.2649 11.9795
-4.88942 4.18558 11.9782
-4.87885 4.0438 11.9744
-4.9488 3.96449 11.973
-4.93824 3.82271 11.9692
-5.00818 3.74339 11.9678
-4.99762 3.60161 11.9641
-5.06756 3.5223 11.9627
-4.89599 3.25559 11.9541
-4.88543 3.11381 11.9503
-4.95537 3.03449 11.9489
-4.94481 2.89271 11.9451
-4.93425 2.75093 11.9413
-5.04853 4.94631 12.0166
-5.06945 4.84265 12.0152
-5.19131 4.75284 12.0163
-5.21223 4.64918 12.0149
-5.23314 4.54552 12.0135
-5.25406 4.44186 12.0122
-5.27497 4.33819 12.0108
-5.39684 4.24838 12.0119
-5.41776 4.14472 12.0105
-5.43867 4.04106 12.0091
-5.56054 3.95124 12.0102
-5.58145 3.84758 12.0088
-5.60237 3.74392 12.0075
-5.62329 3.64026 12.0061
-5.6442 3.5366 12.0047
-5.76607 3.44679 12.0058
-5.78698 3.34313 12.0044
-5.80789 3.23947 12.0031
-5.72786 3.12196 11.9993
-5.74878 3.0183 11.9979
-5.76969 2.91464 11.9965
-5.79061 2.81098 11.9952
-5.81152 2.70732 11.9938
-5.83244 2.60366 11.9924
-5.7524 2.48616 11.9886
-5.77331 2.3825 11.9873
-5.79423 2.27884 11.9859
-5.81514 2.17518 11.9846
-5.83606 2.07152 11.9832
-5.75602 1.95401 11.9794
-5.77694 1.85035 11.978
-5.79785 1.74669 11.9767
-5.81877 1.64303 11.9753
-5.83968 1.53937 11.9739
-5.8606 1.43571 11.9726
-5.88151 1.33205 11.9712
-5.80148 1.21455 11.9674
-5.82239 1.11089 11.966
-5.84331 1.00723 11.9647
-5.76327 0.889722 11.9609
-5.68323 0.772217 11.9571
-5.70415 0.668557 11.9557
-5.72506 0.564896 11.9544
-5.74598 0.461236 11.953
-5.86785 0.371421 11.9541
-5.78781 0.253917 11.9503
-5.80872 0.150258 11.9489
-5.82964 0.0465963 11.9475
-5.85056 -0.0570632 11.9462
-5.77052 -0.174571 11.9424
-5.79143 -0.278228 11.941
-5.81235 -0.38189 11.9397
-5.73231 -0.499393 11.9359
-5.65228 -0.616896 11.9321
-5.67319 -0.720558 11.9307
-6.29933 1.41216 12.0001
-6.45431 1.23496 12.0036
-6.51494 1.09625 12.0046
-6.57558 0.95753 12.0057
-6.54186 0.8573 12.0043
-6.50814 0.757071 12.0029
-6.56877 0.618355 12.004
-6.53506 0.518125 12.0026
-6.59569 0.379409 12.0037
-6.56197 0.279179 12.0023
-6.62261 0.140459 12.0034
-6.58889 0.040231 12.002
-6.64952 -0.0984843 12.0031
-6.6158 -0.198714 12.0017
-6.58209 -0.298944 12.0003
-6.54837 -0.399174 11.999
-6.51465 -0.499403 11.9976
-6.48093 -0.599634 11.9962
-6.54157 -0.73835 11.9973
-6.50785 -0.838582 11.9959
-6.47414 -0.938812 11.9946
-6.44042 -1.03904 11.9932
-6.4067 -1.13927 11.9918
-6.46733 -1.27799 11.9929
-6.43362 -1.37822 11.9915
-6.3999 -1.47845 11.9901
-6.36618 -1.57868 11.9888
-6.33246 -1.67891 11.9874
-6.29875 -1.77914 11.9861
-6.26503 -1.87937 11.9847
-6.23131 -1.9796 11.9833
-6.1976 -2.07983 11.9819
-6.16388 -2.18006 11.9806
-6.13016 -2.28029 11.9792
-6.09645 -2.38052 11.9779
-6.06273 -2.48075 11.9765
-6.02901 -2.58098 11.9751
-5.99529 -2.68121 11.9738
-5.96158 -2.78144 11.9724
-5.92786 -2.88167 11.971
-5.89414 -2.98189 11.9697
-5.86043 -3.08212 11.9683
-5.82671 -3.18236 11.9669
-5.79299 -3.28259 11.9656
-5.66492 -3.34433 11.9618
-5.63121 -3.44456 11.9604
-5.59749 -3.54479 11.959
-5.56378 -3.64502 11.9577
-5.53006 -3.74525 11.9563
-5.49634 -3.84548 11.9549
-5.46262 -3.94571 11.9536
-5.42891 -4.04594 11.9522
-5.39519 -4.14617 11.9509
-5.36147 -4.2464 11.9495
-5.32775 -4.34663 11.9481
-5.29404 -4.44686 11.9467
-5.26032 -4.54709 11.9454
-5.13225 -4.60883 11.9416
-5.09854 -4.70906 11.9402
-5.06482 -4.80929 11.9389
-5.0311 -4.90952 11.9375
-4.90304 -4.97127 11.9337
-4.86932 -5.0715 11.9323
-4.8356 -5.17172 11.931
-4.70754 -5.23347 11.9272
-4.67382 -5.3337 11.9258
-4.6401 -5.43393 11.9245
-4.60639 -5.53416 11.9231
-4.57267 -5.63439 11.9217
-4.53895 -5.73462 11.9203
-4.50523 -5.83485 11.919
-4.47152 -5.93508 11.9176
-4.4378 -6.03531 11.9163
-4.30973 -6.09705 11.9125
-4.27602 -6.19728 11.9111
-4.14795 -6.25902 11.9073
-4.11424 -6.35925 11.9059
-4.08052 -6.45948 11.9046
-4.0468 -6.55971 11.9032
-3.91874 -6.62146 11.8994
-3.79067 -6.6832 11.8956
-3.75695 -6.78343 11.8943
-6.59666 -0.593784 11.9981
-6.57981 -0.744232 11.9992
-6.62543 -0.975188 12.0027
-6.60858 -1.12563 12.0037
-6.59173 -1.27608 12.0048
-6.57488 -1.42653 12.0058
-6.49557 -1.49647 12.0045
-6.47872 -1.64692 12.0055
-6.46187 -1.79737 12.0066
-6.38256 -1.86731 12.0052
-6.36571 -2.01776 12.0063
-6.34886 -2.16821 12.0073
-6.33201 -2.31865 12.0084
-6.25269 -2.38859 12.007
-6.23584 -2.53904 12.0081
-6.15653 -2.60899 12.0067
-6.13968 -2.75944 12.0078
-6.06037 -2.82938 12.0064
-6.04352 -2.97983 12.0075
-5.9642 -3.04977 12.0061
-5.94735 -3.20022 12.0072
-5.86804 -3.27016 12.0058
-5.78872 -3.3401 12.0044
-5.70941 -3.41005 12.0031
-5.63009 -3.47999 12.0017
-5.61325 -3.63044 12.0027
-5.78379 -4.0224 12.0111
-5.76694 -4.17285 12.0121
-5.68763 -4.24279 12.0108
-5.60832 -4.31273 12.0094
-5.59147 -4.46318 12.0105
-5.51215 -4.53313 12.0091
-5.43284 -4.60307 12.0077
-5.41599 -4.75352 12.0088
-5.33667 -4.82346 12.0074
-5.31983 -4.97391 12.0085
-5.24051 -5.04385 12.0071
-5.1612 -5.11379 12.0058
-5.08188 -5.18374 12.0044
-5.00257 -5.25368 12.003
-4.98571 -5.40413 12.0041
-4.9064 -5.47407 12.0027
-4.88955 -5.62452 12.0038
-4.81024 -5.69446 12.0024
-4.73092 -5.7644 12.001
-4.71408 -5.91486 12.0021
-4.63476 -5.9848 12.0007
-4.55544 -6.05474 11.9994
-4.53859 -6.20519 12.0004
-4.45928 -6.27513 11.999
-4.44243 -6.42558 12.0001
-4.42558 -6.57603 12.0012
-4.40873 -6.72647 12.0022
-4.32942 -6.79642 12.0009
-4.31257 -6.94687 12.0019
-4.23325 -7.01681 12.0005
-4.15394 -7.08675 11.9992
-4.07462 -7.15669 11.9978
-3.99531 -7.22664 11.9964
-3.97846 -7.37709 11.9975
-3.89914 -7.44703 11.9961
-3.81983 -7.51697 11.9948
-3.80298 -7.66742 11.9958
-3.72367 -7.73736 11.9945
-3.70682 -7.88781 11.9955
-3.6275 -7.95775 11.9942
-3.54819 -8.02769 11.9928
-3.53134 -8.17814 11.9938
-3.45202 -8.24809 11.9925
-3.37271 -8.31803 11.9911
-3.29339 -8.38797 11.9897
-3.21408 -8.45792 11.9884
-3.13476 -8.52786 11.987
-3.11792 -8.67831 11.9881
-3.0386 -8.74825 11.9867
-2.95929 -8.81819 11.9853
-2.87998 -8.88814 11.984
-2.80066 -8.95808 11.9826
-2.72135 -9.02803 11.9812
-2.64203 -9.09797 11.9799
-2.56271 -9.16791 11.9785
-2.4834 -9.23785 11.9771
-2.40409 -9.3078 11.9758
-2.32477 -9.37774 11.9744
-2.24546 -9.44768 11.973
-2.16614 -9.51763 11.9717
-2.08683 -9.58757 11.9703
-2.00751 -9.65751 11.9689
-1.9282 -9.72746 11.9676
-1.84888 -9.7974 11.9662
-1.76957 -9.86734 11.9648
-1.69025 -9.93729 11.9635
-1.61094 -10.0072 11.9621
-1.53162 -10.0772 11.9608
-1.38984 -10.0666 11.957
-1.31053 -10.1366 11.9556
-1.23121 -10.2065 11.9542
-1.1519 -10.2764 11.9529
-1.07258 -10.3464 11.9515
-0.993266 -10.4163 11.9501
-0.913954 -10.4863 11.9488
-0.83464 -10.5562 11.9474
-0.755325 -10.6262 11.946
-0.676009 -10.6961 11.9447
-0.534228 -10.6855 11.9409
-0.454915 -10.7555 11.9395
-0.375601 -10.8254 11.9381
-0.296287 -10.8954 11.9368
-0.154509 -10.8848 11.933
-0.0751934 -10.9548 11.9316
0.0665894 -10.9442 11.9278
0.333299 -10.7726 11.9192
0.475081 -10.7621 11.9154
0.554394 -10.832 11.914
0.696177 -10.8214 11.9102
0.837954 -10.8109 11.9065
0.979735 -10.8003 11.9027
1.05905 -10.8703 11.9013
1.20083 -10.8597 11.8975
1.28015 -10.9296 11.8961
1.35946 -10.9996 11.8948
1.50124 -10.989 11.891
1.58055 -11.059 11.8896
1.72234 -11.0484 11.8858
1.80165 -11.1183 11.8845
1.94343 -11.1078 11.8807
2.08521 -11.0972 11.8769
