ply
format ascii 1.0
comment VCGLIB generated
element vertex 947
property float x
property float y
property float z
element face 0
property list uchar int vertex_indices
end_header
2.1987 -11.8495 13.1506
2.34915 -11.8327 13.1516
2.82162 -12.0657 13.1624
3.05257 -12.1113 13.1659
3.28352 -12.1569 13.1693
3.51448 -12.2025 13.1728
3.66492 -12.1857 13.1739
3.81538 -12.1688 13.1749
3.96582 -12.152 13.176
4.11627 -12.1351 13.177
4.18621 -12.0558 13.1757
4.33666 -12.039 13.1767
4.48711 -12.0221 13.1778
4.63756 -12.0053 13.1789
4.7075 -11.926 13.1775
4.93845 -11.9716 13.181
5.0889 -11.9547 13.182
5.23935 -11.9379 13.1831
5.3898 -11.921 13.1841
5.45974 -11.8417 13.1828
5.61019 -11.8249 13.1838
5.76063 -11.808 13.1849
5.83058 -11.7287 13.1835
5.98102 -11.7119 13.1846
6.13147 -11.695 13.1856
6.28192 -11.6782 13.1867
6.43237 -11.6613 13.1878
6.50231 -11.582 13.1864
6.57225 -11.5027 13.185
6.6422 -11.4234 13.1837
6.79264 -11.4065 13.1847
6.86259 -11.3272 13.1833
7.01304 -11.3104 13.1844
7.08298 -11.231 13.183
7.23343 -11.2142 13.1841
7.30337 -11.1349 13.1827
7.45382 -11.118 13.1838
7.52376 -11.0387 13.1824
7.5937 -10.9594 13.1811
7.66365 -10.8801 13.1797
7.8141 -10.8632 13.1807
7.88404 -10.7839 13.1794
7.95398 -10.7046 13.178
8.02392 -10.6253 13.1767
8.17437 -10.6084 13.1777
8.24432 -10.5291 13.1763
8.31426 -10.4498 13.175
8.46471 -10.433 13.176
8.53465 -10.3536 13.1747
8.60459 -10.2743 13.1733
8.67454 -10.195 13.1719
8.74448 -10.1157 13.1706
8.89493 -10.0988 13.1716
8.96487 -10.0195 13.1703
9.03481 -9.94022 13.1689
9.10476 -9.8609 13.1675
9.1747 -9.78159 13.1662
9.24464 -9.70227 13.1648
9.31459 -9.62296 13.1634
9.38453 -9.54364 13.1621
9.53498 -9.52679 13.1631
9.60492 -9.44748 13.1618
9.67486 -9.36816 13.1604
9.7448 -9.28885 13.159
9.81475 -9.20953 13.1577
9.88469 -9.13022 13.1563
9.95463 -9.0509 13.1549
10.0246 -8.97159 13.1535
10.0945 -8.89227 13.1522
10.084 -8.7505 13.1484
10.1539 -8.67118 13.147
10.2238 -8.59187 13.1457
10.2938 -8.51255 13.1443
10.3637 -8.43324 13.1429
10.3532 -8.29146 13.1391
10.4231 -8.21214 13.1378
10.4931 -8.13283 13.1364
10.563 -8.05352 13.1351
10.6329 -7.9742 13.1337
10.6224 -7.83242 13.1299
10.6923 -7.7531 13.1285
10.7623 -7.67379 13.1272
10.7517 -7.53201 13.1234
10.8217 -7.4527 13.122
10.8916 -7.37338 13.1206
10.9615 -7.29406 13.1193
10.951 -7.15228 13.1155
11.0209 -7.07297 13.1141
11.0104 -6.93119 13.1103
11.0803 -6.85188 13.109
11.0697 -6.7101 13.1052
11.0592 -6.56831 13.1014
11.1291 -6.489 13.1
11.1186 -6.34722 13.0962
11.1885 -6.26791 13.0949
11.1779 -6.12612 13.0911
11.1674 -5.98434 13.0873
11.1568 -5.84256 13.0835
11.1463 -5.70078 13.0797
11.1357 -5.55901 13.0759
11.2056 -5.47969 13.0746
11.1951 -5.33791 13.0708
11.1845 -5.19613 13.067
11.2545 -5.11681 13.0656
11.2439 -4.97503 13.0618
11.2333 -4.83325 13.058
11.2228 -4.69147 13.0542
11.2122 -4.54969 13.0504
11.1211 -4.34545 13.0442
11.1106 -4.20367 13.0405
11.1 -4.06189 13.0367
11.0895 -3.92011 13.0329
11.0789 -3.77833 13.0291
11.0683 -3.63655 13.0253
11.0578 -3.49476 13.0215
10.3227 -2.7908 12.9959
10.3121 -2.64902 12.9921
10.3821 -2.5697 12.9908
10.3715 -2.42792 12.987
10.3609 -2.28614 12.9832
8.38554 -10.5173 13.1864
8.60836 -10.4413 13.1898
8.62927 -10.3377 13.1885
8.75114 -10.2479 13.1895
8.87301 -10.158 13.1906
9.09583 -10.0821 13.1941
9.31864 -10.0061 13.1975
9.33956 -9.90244 13.1962
9.46143 -9.81262 13.1972
9.58329 -9.72281 13.1983
9.70516 -9.63299 13.1994
9.82703 -9.54318 13.2004
9.84794 -9.43952 13.199
9.96981 -9.3497 13.2001
10.1926 -9.27373 13.2036
10.4155 -9.19776 13.2071
10.5373 -9.10794 13.2081
10.5582 -9.00428 13.2067
10.5791 -8.90062 13.2054
10.701 -8.81081 13.2064
10.7219 -8.70715 13.2051
10.7428 -8.60348 13.2037
10.7638 -8.49982 13.2023
10.7847 -8.39617 13.201
10.9065 -8.30635 13.202
10.9275 -8.20269 13.2007
10.9484 -8.09903 13.1993
10.9693 -7.99537 13.1979
10.9902 -7.89171 13.1966
11.0111 -7.78805 13.1952
11.032 -7.68439 13.1938
11.0529 -7.58073 13.1925
11.0739 -7.47707 13.1911
11.1957 -7.38725 13.1922
11.2166 -7.28359 13.1908
11.2376 -7.17993 13.1894
11.2585 -7.07627 13.1881
11.2794 -6.97261 13.1867
11.3003 -6.86895 13.1853
11.3212 -6.76529 13.184
11.3421 -6.66163 13.1826
11.363 -6.55797 13.1812
11.384 -6.45431 13.1799
11.4049 -6.35065 13.1785
11.4258 -6.24699 13.1771
11.5477 -6.15717 13.1782
11.5686 -6.05351 13.1768
11.4885 -5.93601 13.173
11.5095 -5.83235 13.1717
11.5304 -5.72869 13.1703
11.5513 -5.62503 13.1689
11.5722 -5.52137 13.1676
11.5931 -5.41771 13.1662
11.614 -5.31405 13.1648
11.6349 -5.21039 13.1635
11.6559 -5.10673 13.1621
11.6768 -5.00307 13.1607
11.5967 -4.88556 13.157
11.6177 -4.7819 13.1556
11.6386 -4.67824 13.1542
11.6595 -4.57458 13.1529
11.6804 -4.47092 13.1515
11.6004 -4.35342 13.1477
11.6213 -4.24976 13.1463
11.5412 -4.13225 13.1425
11.5622 -4.02859 13.1412
11.4821 -3.91109 13.1374
11.503 -3.80743 13.136
11.423 -3.68992 13.1322
11.4439 -3.58626 13.1309
11.3639 -3.46876 13.1271
11.3848 -3.3651 13.1257
11.3048 -3.24759 13.1219
11.3257 -3.14393 13.1206
11.3466 -3.04028 13.1192
11.2665 -2.92277 13.1154
11.2875 -2.81911 13.114
11.2074 -2.7016 13.1102
11.1274 -2.5841 13.1065
11.0474 -2.4666 13.1027
11.0683 -2.36294 13.1013
10.9882 -2.24543 13.0975
11.0091 -2.14177 13.0961
11.0301 -2.03811 13.0948
11.051 -1.93445 13.0934
10.9709 -1.81695 13.0896
10.9919 -1.71329 13.0883
10.9118 -1.59578 13.0845
10.8318 -1.47828 13.0807
10.8527 -1.37462 13.0793
10.7727 -1.25711 13.0755
10.9106 -8.42189 13.1575
10.9712 -8.28317 13.1586
10.9375 -8.18294 13.1572
10.9981 -8.04422 13.1582
10.9644 -7.94399 13.1569
11.4024 -7.65133 13.1676
11.4631 -7.51262 13.1687
11.5237 -7.3739 13.1698
11.5843 -7.23518 13.1708
11.5506 -7.13495 13.1694
11.6113 -6.99623 13.1705
11.5775 -6.896 13.1691
11.6382 -6.75729 13.1702
11.6988 -6.61857 13.1712
12.0425 -6.3644 13.1796
12.0088 -6.26417 13.1782
12.0694 -6.12545 13.1793
12.0357 -6.02522 13.1779
12.002 -5.92499 13.1765
12.0626 -5.78627 13.1776
12.0289 -5.68605 13.1762
12.0895 -5.54733 13.1773
12.0558 -5.4471 13.1759
12.0221 -5.34687 13.1745
12.0827 -5.20815 13.1756
12.049 -5.10792 13.1742
12.1096 -4.96921 13.1753
12.0759 -4.86898 13.1739
12.0422 -4.76875 13.1726
12.1028 -4.63003 13.1736
12.0691 -4.5298 13.1723
12.0354 -4.42957 13.1709
12.0017 -4.32934 13.1695
11.968 -4.22911 13.1682
11.9342 -4.12888 13.1668
11.9005 -4.02865 13.1654
11.9612 -3.88993 13.1665
11.9274 -3.78971 13.1651
11.8937 -3.68947 13.1638
11.86 -3.58925 13.1624
11.9206 -3.45053 13.1634
11.8869 -3.3503 13.1621
11.8532 -3.25007 13.1607
11.8195 -3.14984 13.1593
11.7858 -3.04961 13.158
11.7521 -2.94938 13.1566
11.7183 -2.84915 13.1552
11.6846 -2.74892 13.1539
11.6509 -2.64869 13.1525
11.6172 -2.54846 13.1512
11.6778 -2.40974 13.1522
11.6441 -2.30951 13.1508
11.516 -2.24777 13.147
11.4823 -2.14754 13.1457
11.4486 -2.04731 13.1443
11.5092 -1.90859 13.1454
11.4755 -1.80836 13.144
11.4418 -1.70813 13.1426
11.4081 -1.6079 13.1413
11.4687 -1.46919 13.1423
11.435 -1.36896 13.141
11.4956 -1.23024 13.142
11.4619 -1.13001 13.1407
11.4282 -1.02978 13.1393
11.3945 -0.929552 13.1379
11.4551 -0.790836 13.139
11.4214 -0.690606 13.1376
11.3877 -0.590376 13.1362
11.354 -0.490145 13.1349
11.3202 -0.389915 13.1335
11.3809 -0.2512 13.1346
11.3472 -0.150969 13.1332
11.3134 -0.0507383 13.1319
11.2797 0.0494914 13.1305
11.246 0.149721 13.1291
11.2123 0.24995 13.1277
11.1786 0.350181 13.1264
11.1449 0.450411 13.125
11.1111 0.550641 13.1236
11.0774 0.65087 13.1223
11.138 0.789584 13.1233
11.1043 0.889815 13.122
11.0706 0.990046 13.1206
11.0369 1.09028 13.1192
11.0032 1.1905 13.1179
10.9695 1.29073 13.1165
10.9357 1.39096 13.1151
10.902 1.49119 13.1138
10.8683 1.59143 13.1124
10.8346 1.69165 13.111
10.8009 1.79188 13.1097
10.7672 1.89211 13.1083
10.7334 1.99234 13.1069
10.6997 2.09257 13.1056
10.666 2.1928 13.1042
10.6323 2.29303 13.1028
10.5986 2.39326 13.1015
10.5649 2.49349 13.1001
10.5311 2.59372 13.0988
10.4974 2.69395 13.0974
10.4637 2.79418 13.096
10.43 2.89441 13.0947
10.3019 2.95616 13.0909
10.2682 3.05639 13.0895
10.2345 3.15662 13.0881
10.1064 3.21836 13.0843
10.0727 3.31859 13.083
10.039 3.41882 13.0816
10.0053 3.51905 13.0802
9.97156 3.61928 13.0789
9.93784 3.71951 13.0775
9.90413 3.81974 13.0761
9.87041 3.91997 13.0748
9.83669 4.0202 13.0734
9.80297 4.12043 13.0721
9.76926 4.22066 13.0707
9.73554 4.32089 13.0693
9.60748 4.38263 13.0655
9.57376 4.48286 13.0642
9.54004 4.58309 13.0628
9.50632 4.68332 13.0614
9.37826 4.74507 13.0576
9.34454 4.8453 13.0563
9.31082 4.94553 13.0549
9.27711 5.04576 13.0535
9.14904 5.1075 13.0498
9.11532 5.20773 13.0484
9.0816 5.30796 13.047
9.04789 5.40819 13.0457
8.91982 5.46993 13.0419
8.88611 5.57016 13.0405
8.75804 5.63191 13.0367
8.72432 5.73214 13.0353
8.59626 5.79388 13.0316
8.46819 5.85563 13.0278
8.43448 5.95585 13.0264
8.30641 6.0176 13.0226
8.27269 6.11783 13.0212
8.14462 6.17957 13.0175
8.1109 6.2798 13.0161
7.98284 6.34155 13.0123
7.94912 6.44177 13.0109
7.82106 6.50352 13.0071
7.50429 6.48829 12.9985
7.37623 6.55003 12.9947
7.24816 6.61178 12.9909
7.1201 6.67352 12.9871
6.99203 6.73526 12.9834
6.95831 6.83549 12.982
6.83025 6.89724 12.9782
6.79653 6.99747 12.9768
6.76281 7.09769 12.9755
6.63475 7.15944 12.9717
6.60103 7.25967 12.9703
11.2803 0.260024 13.1165
11.2635 0.410476 13.1176
11.2467 0.560921 13.1186
11.2298 0.71137 13.1197
11.1505 0.781313 13.1183
11.1961 1.01227 13.1218
11.1793 1.16272 13.1229
11.1624 1.31316 13.1239
11.0831 1.3831 13.1226
11.0662 1.53355 13.1236
11.0494 1.684 13.1247
10.9701 1.75394 13.1233
10.9532 1.90439 13.1244
10.9364 2.05484 13.1254
10.9195 2.20529 13.1265
10.9027 2.35574 13.1275
10.8234 2.42568 13.1262
10.8065 2.57613 13.1272
10.7897 2.72657 13.1283
10.7104 2.79652 13.1269
10.6935 2.94697 13.128
10.6142 3.01691 13.1266
10.5973 3.16735 13.1277
10.518 3.2373 13.1263
10.4387 3.30724 13.1249
10.4219 3.45769 13.126
10.3425 3.52763 13.1246
10.3257 3.67808 13.1257
10.2464 3.74803 13.1243
10.2295 3.89847 13.1254
10.1502 3.96841 13.124
10.1334 4.11886 13.1251
10.0541 4.18881 13.1237
9.97474 4.25875 13.1223
9.89542 4.32869 13.121
9.87858 4.47914 13.122
9.79926 4.54908 13.1207
9.71995 4.61903 13.1193
9.7031 4.76948 13.1203
9.62378 4.83942 13.119
9.60693 4.98987 13.12
9.59008 5.14031 13.1211
9.51077 5.21026 13.1197
9.49392 5.36071 13.1208
9.41461 5.43065 13.1194
9.39775 5.5811 13.1205
9.31844 5.65104 13.1191
9.23913 5.72098 13.1178
9.15981 5.79093 13.1164
9.08049 5.86087 13.115
9.06365 6.01132 13.1161
8.98433 6.08126 13.1147
8.90502 6.1512 13.1133
8.88817 6.30165 13.1144
8.80885 6.37159 13.113
8.72954 6.44154 13.1117
8.65022 6.51148 13.1103
8.57091 6.58142 13.1089
8.49159 6.65137 13.1076
8.47474 6.80182 13.1086
8.39543 6.87176 13.1073
8.31612 6.9417 13.1059
8.2368 7.01165 13.1045
8.15749 7.08159 13.1032
8.07817 7.15153 13.1018
7.93639 7.14097 13.098
7.85707 7.21091 13.0966
7.77776 7.28086 13.0953
7.69845 7.3508 13.0939
7.61913 7.42074 13.0925
7.53981 7.49068 13.0912
7.4605 7.56063 13.0898
7.31872 7.55007 13.086
7.2394 7.62001 13.0847
7.16009 7.68995 13.0833
7.08078 7.7599 13.0819
7.00146 7.82984 13.0806
6.92215 7.89978 13.0792
6.84283 7.96972 13.0778
6.76352 8.03967 13.0765
6.62174 8.02911 13.0727
6.54242 8.09905 13.0713
6.46311 8.16899 13.0699
6.38379 8.23894 13.0686
6.24201 8.22837 13.0648
6.1627 8.29832 13.0634
6.02092 8.28776 13.0596
5.87914 8.2772 13.0558
5.61242 8.10562 13.0472
5.47064 8.09506 13.0434
5.32887 8.0845 13.0396
5.24955 8.15445 13.0383
5.10777 8.14388 13.0345
5.02846 8.21382 13.0331
4.88667 8.20326 13.0293
4.74489 8.1927 13.0255
8.09124 7.00762 13.1141
8.01527 7.23044 13.1175
7.91161 7.25135 13.1162
7.80795 7.27227 13.1148
7.70429 7.29318 13.1134
7.62832 7.516 13.1169
7.55235 7.73882 13.1204
7.46253 7.86069 13.1214
7.37272 7.98256 13.1225
7.2829 8.10443 13.1236
7.17924 8.12534 13.1222
7.08943 8.24721 13.1233
6.98577 8.26812 13.1219
6.88211 8.28904 13.1205
6.77844 8.30995 13.1192
6.67479 8.33086 13.1178
6.57112 8.35178 13.1164
6.46746 8.3727 13.1151
6.36381 8.39361 13.1137
6.27399 8.51548 13.1147
6.17033 8.5364 13.1134
6.06667 8.55731 13.112
5.97685 8.67918 13.1131
5.87319 8.70009 13.1117
5.76953 8.721 13.1104
5.66587 8.74192 13.109
5.56221 8.76284 13.1076
5.45855 8.78375 13.1062
5.35489 8.80467 13.1049
5.25123 8.82558 13.1035
5.13373 8.74555 13.0997
5.03007 8.76646 13.0984
4.92641 8.78738 13.097
4.82275 8.80829 13.0956
4.71909 8.82921 13.0943
4.60158 8.74917 13.0905
4.49792 8.77008 13.0891
4.39426 8.791 13.0877
4.2906 8.81191 13.0864
4.18694 8.83283 13.085
4.08328 8.85374 13.0836
3.97962 8.87466 13.0823
3.87596 8.89558 13.0809
3.7723 8.91649 13.0795
3.6548 8.83645 13.0758
3.55114 8.85737 13.0744
3.44748 8.87828 13.073
3.32997 8.79825 13.0692
3.22631 8.81916 13.0679
3.10881 8.73913 13.0641
3.00515 8.76004 13.0627
2.88764 8.68001 13.0589
2.78398 8.70092 13.0576
2.66648 8.62088 13.0538
2.56282 8.6418 13.0524
2.44531 8.56176 13.0486
2.34165 8.58268 13.0472
2.22415 8.50264 13.0435
2.10664 8.4226 13.0397
2.00298 8.44351 13.0383
1.88548 8.36348 13.0345
1.78182 8.3844 13.0331
1.66431 8.30436 13.0294
1.56065 8.32527 13.028
1.44315 8.24524 13.0242
1.33949 8.26615 13.0228
1.22199 8.18612 13.019
1.10448 8.10608 13.0153
0.986977 8.02604 13.0115
0.883315 8.04696 13.0101
0.765812 7.96692 13.0063
0.662152 7.98784 13.0049
0.530803 7.80685 12.9987
0.413299 7.72681 12.9949
5.4759 8.63202 13.082
5.2987 8.787 13.0855
5.15998 8.84764 13.0865
5.02127 8.90827 13.0876
4.88255 8.9689 13.0886
4.78232 8.93518 13.0873
4.68209 8.90147 13.0859
4.58186 8.86775 13.0845
4.44315 8.92838 13.0856
4.26594 9.08336 13.0891
4.12723 9.14399 13.0901
3.98851 9.20462 13.0912
3.88828 9.1709 13.0898
3.78805 9.13719 13.0885
3.64934 9.19782 13.0895
3.5491 9.16411 13.0882
3.48736 9.03604 13.0844
3.38713 9.00232 13.083
3.24842 9.06296 13.084
3.14819 9.02924 13.0827
3.04795 8.99552 13.0813
2.94773 8.96181 13.08
2.8475 8.92809 13.0786
2.70878 8.98872 13.0796
2.60855 8.955 13.0783
2.50832 8.92128 13.0769
2.40809 8.88756 13.0755
2.30786 8.85385 13.0742
2.20763 8.82013 13.0728
2.06891 8.88077 13.0739
1.96868 8.84705 13.0725
1.86845 8.81333 13.0711
1.76822 8.77962 13.0698
1.66799 8.7459 13.0684
1.56776 8.71218 13.067
1.46753 8.67847 13.0657
1.36731 8.64475 13.0643
1.26707 8.61103 13.0629
1.16684 8.57731 13.0616
1.06661 8.5436 13.0602
0.966384 8.50988 13.0588
0.866155 8.47616 13.0575
0.765924 8.44245 13.0561
0.665695 8.40873 13.0547
0.565464 8.37501 13.0534
0.465235 8.34129 13.052
0.365006 8.30758 13.0506
0.264775 8.27386 13.0493
0.164544 8.24014 13.0479
0.0643146 8.20643 13.0466
-0.0359137 8.17271 13.0452
-0.136145 8.13899 13.0438
-0.236374 8.10528 13.0424
-0.336604 8.07156 13.0411
-0.398347 7.94349 13.0373
-0.498576 7.90977 13.0359
-0.598807 7.87605 13.0346
-0.699037 7.84234 13.0332
-0.799267 7.80862 13.0318
-0.899497 7.77491 13.0305
-0.999725 7.74119 13.0291
-1.09996 7.70747 13.0277
-1.1617 7.57941 13.0239
-1.26193 7.54569 13.0226
-1.36216 7.51198 13.0212
-1.46239 7.47826 13.0199
-1.52413 7.35019 13.0161
-1.62436 7.31647 13.0147
-1.7246 7.28275 13.0133
-1.82482 7.24903 13.012
-1.92505 7.21532 13.0106
-1.9868 7.08725 13.0068
-2.08703 7.05354 13.0054
-2.14877 6.92548 13.0016
-2.249 6.89176 13.0003
-2.34923 6.85804 12.9989
-2.41097 6.72997 12.9951
-2.5112 6.69626 12.9938
-2.53446 6.47384 12.9875
0.461935 8.71638 13.0427
0.31149 8.69953 13.0438
0.241546 8.62022 13.0424
0.171603 8.5409 13.041
0.0211539 8.52405 13.0421
-0.0487895 8.44474 13.0407
-0.199235 8.42789 13.0418
-0.349683 8.41104 13.0429
-0.500131 8.39419 13.0439
-0.570075 8.31488 13.0425
-0.720523 8.29803 13.0436
-0.790464 8.21871 13.0422
-0.940913 8.20186 13.0433
-1.09136 8.18502 13.0444
-1.24181 8.16817 13.0454
-1.31175 8.08885 13.044
-1.38169 8.00953 13.0427
-1.45164 7.93022 13.0413
-1.60209 7.91337 13.0424
-1.67203 7.83406 13.041
-1.82248 7.81721 13.0421
-1.89242 7.73789 13.0407
-1.96236 7.65858 13.0393
-2.03231 7.57926 13.038
-2.18275 7.56241 13.039
-2.25269 7.4831 13.0377
-2.32264 7.40378 13.0363
-2.39258 7.32447 13.0349
-2.54303 7.30762 13.036
-2.61298 7.22831 13.0346
-2.68292 7.14899 13.0332
-2.75286 7.06968 13.0319
-2.82281 6.99036 13.0305
-2.89275 6.91105 13.0291
-2.96269 6.83173 13.0278
-3.03263 6.75242 13.0264
-3.18308 6.73557 13.0275
-3.25303 6.65625 13.0261
-3.32297 6.57694 13.0247
-3.39291 6.49762 13.0234
-3.46285 6.41831 13.022
-3.5328 6.339 13.0206
-3.60274 6.25968 13.0193
-3.67269 6.18037 13.0179
-3.74263 6.10105 13.0165
-3.81257 6.02174 13.0152
-3.88251 5.94242 13.0138
-3.95246 5.86311 13.0125
-4.0224 5.78379 13.0111
-4.09234 5.70448 13.0097
-4.16229 5.62516 13.0083
-4.23223 5.54585 13.007
-4.30217 5.46653 13.0056
-4.37212 5.38722 13.0042
-4.44206 5.30791 13.0029
-4.4315 5.16613 12.9991
-4.50144 5.08681 12.9977
-4.57139 5.0075 12.9964
-4.64133 4.92818 12.995
-4.71127 4.84887 12.9936
-4.78121 4.76955 12.9923
-4.85116 4.69024 12.9909
-4.9211 4.61092 12.9895
-4.91053 4.46914 12.9857
-4.98048 4.38982 12.9844
-5.05042 4.31051 12.983
-5.12037 4.2312 12.9816
-5.19031 4.15188 12.9803
-5.17975 4.0101 12.9765
-5.16919 3.86832 12.9727
-4.88483 5.24345 13.0183
-5.0067 5.15363 13.0193
-5.12857 5.06382 13.0204
-5.14948 4.96016 13.019
-5.06945 4.84265 13.0152
-5.09036 4.73899 13.0139
-5.11128 4.63533 13.0125
-5.23314 4.54552 13.0135
-5.35501 4.4557 13.0146
-5.47688 4.36588 13.0157
-5.49779 4.26222 13.0143
-5.51871 4.15856 13.0129
-5.64057 4.06875 13.014
-5.66149 3.96509 13.0126
-5.6824 3.86143 13.0113
-5.70332 3.75777 13.0099
-5.72423 3.65411 13.0085
-5.74515 3.55045 13.0072
-5.76607 3.44679 13.0058
-5.88793 3.35697 13.0069
-5.90885 3.25331 13.0055
-5.92977 3.14965 13.0041
-5.95068 3.04599 13.0027
-5.9716 2.94233 13.0014
-5.89155 2.82483 12.9976
-5.91247 2.72116 12.9962
-5.93339 2.61751 12.9949
-5.9543 2.51384 12.9935
-5.97522 2.41018 12.9921
-5.99613 2.30653 12.9908
-6.01705 2.20286 12.9894
-5.93701 2.08536 12.9856
-5.95793 1.9817 12.9843
-5.97884 1.87804 12.9829
-5.99976 1.77438 12.9815
-5.91972 1.65688 12.9777
-5.94063 1.55322 12.9764
-5.96155 1.44955 12.975
-5.88151 1.33205 12.9712
-5.90243 1.22839 12.9698
-5.92334 1.12473 12.9685
-5.94426 1.02107 12.9671
-5.96517 0.91741 12.9657
-5.98609 0.81375 12.9644
-6.007 0.71009 12.963
-5.92697 0.592584 12.9592
-5.94788 0.488924 12.9579
-5.9688 0.385265 12.9565
-5.98971 0.281605 12.9551
-5.90968 0.164101 12.9513
-5.82964 0.0465963 12.9475
-5.85056 -0.0570632 12.9462
-5.77052 -0.174571 12.9424
-5.79143 -0.278228 12.941
-6.39368 1.37368 13.0025
-6.45431 1.23496 13.0036
-6.42059 1.13473 13.0022
-6.48123 0.996017 13.0032
-6.54186 0.8573 13.0043
-6.60249 0.718584 13.0054
-6.56877 0.618355 13.004
-6.53506 0.518125 13.0026
-6.59569 0.379409 13.0037
-6.56197 0.279179 13.0023
-6.52826 0.178948 13.0009
-6.49454 0.0787191 12.9996
-6.55517 -0.0599995 13.0006
-6.52146 -0.160229 12.9993
-6.58209 -0.298944 13.0003
-6.54837 -0.399174 12.999
-6.609 -0.53789 13
-6.57528 -0.638122 12.9987
-6.54157 -0.73835 12.9973
-6.50785 -0.838582 12.9959
-6.47414 -0.938812 12.9946
-6.44042 -1.03904 12.9932
-6.4067 -1.13927 12.9918
-6.46733 -1.27799 12.9929
-6.43362 -1.37822 12.9915
-6.3999 -1.47845 12.9901
-6.46053 -1.61716 12.9912
-6.42681 -1.71739 12.9898
-6.39309 -1.81762 12.9885
-6.35938 -1.91785 12.9871
-6.32566 -2.01808 12.9857
-6.29194 -2.11831 12.9844
-6.16388 -2.18006 12.9806
-6.13016 -2.28029 12.9792
-6.09645 -2.38052 12.9779
-6.06273 -2.48075 12.9765
-6.02901 -2.58098 12.9751
-5.99529 -2.68121 12.9738
-5.96158 -2.78144 12.9724
-5.92786 -2.88167 12.971
-5.89414 -2.98189 12.9697
-5.86043 -3.08212 12.9683
-5.82671 -3.18236 12.9669
-5.79299 -3.28259 12.9656
-5.75927 -3.38282 12.9642
-5.72556 -3.48304 12.9628
-5.69184 -3.58328 12.9615
-5.65812 -3.68351 12.9601
-5.62441 -3.78374 12.9587
-5.59069 -3.88397 12.9574
-5.46262 -3.94571 12.9536
-5.42891 -4.04594 12.9522
-5.39519 -4.14617 12.9509
-5.36147 -4.2464 12.9495
-5.32775 -4.34663 12.9481
-5.29404 -4.44686 12.9467
-5.16597 -4.5086 12.943
-5.13225 -4.60883 12.9416
-5.09854 -4.70906 12.9402
-4.97047 -4.77081 12.9364
-4.93676 -4.87104 12.9351
-4.90304 -4.97127 12.9337
-4.86932 -5.0715 12.9323
-4.8356 -5.17172 12.931
-4.70754 -5.23347 12.9272
-4.67382 -5.3337 12.9258
-4.6401 -5.43393 12.9245
-4.60639 -5.53416 12.9231
-4.57267 -5.63439 12.9217
-4.53895 -5.73462 12.9203
-4.50523 -5.83485 12.919
-4.37717 -5.89659 12.9152
-4.34345 -5.99682 12.9138
-4.30973 -6.09705 12.9125
-4.27602 -6.19728 12.9111
-4.2423 -6.29751 12.9097
-4.20858 -6.39774 12.9084
-4.17487 -6.49797 12.907
-4.0468 -6.55971 12.9032
-4.01308 -6.65994 12.9018
-3.97937 -6.76017 12.9005
-3.94565 -6.8604 12.8991
-3.91193 -6.96063 12.8978
-3.78387 -7.02238 12.894
-3.75015 -7.12261 12.8926
-3.71643 -7.22284 12.8912
-3.68272 -7.32307 12.8899
-3.649 -7.4233 12.8885
-3.52093 -7.48504 12.8847
-3.48722 -7.58527 12.8833
-3.35915 -7.64701 12.8795
-3.32543 -7.74724 12.8782
-3.29171 -7.84747 12.8768
-3.258 -7.9477 12.8755
-3.12993 -8.00945 12.8717
-3.09622 -8.10968 12.8703
-3.0625 -8.20991 12.8689
-3.02878 -8.31014 12.8676
-2.90072 -8.37188 12.8638
-6.65913 -0.674288 13.0005
-6.64228 -0.824737 13.0016
-6.62543 -0.975188 13.0027
-6.60858 -1.12563 13.0037
-6.59173 -1.27608 13.0048
-6.51242 -1.34602 13.0034
-6.49557 -1.49647 13.0045
-6.47872 -1.64692 13.0055
-6.39941 -1.71686 13.0042
-6.38256 -1.86731 13.0052
-6.36571 -2.01776 13.0063
-6.28639 -2.0877 13.0049
-6.26954 -2.23815 13.006
-6.25269 -2.38859 13.007
-6.23584 -2.53904 13.0081
-6.219 -2.68949 13.0091
-6.20215 -2.83994 13.0102
-6.1853 -2.99039 13.0113
-6.10598 -3.06033 13.0099
-6.02667 -3.13027 13.0085
-6.00982 -3.28072 13.0096
-5.93051 -3.35067 13.0082
-5.85119 -3.42061 13.0069
-5.77188 -3.49055 13.0055
-5.69256 -3.5605 13.0041
-5.61325 -3.63044 13.0027
-5.5964 -3.78089 13.0038
-5.64201 -4.01184 13.0073
-5.62516 -4.16229 13.0083
-5.60832 -4.31273 13.0094
-5.529 -4.38268 13.008
-5.44969 -4.45262 13.0067
-5.37037 -4.52256 13.0053
-5.29106 -4.59251 13.0039
-5.27421 -4.74295 13.005
-5.19489 -4.8129 13.0036
-5.17804 -4.96334 13.0047
-5.1612 -5.11379 13.0058
-5.08188 -5.18374 13.0044
-5.00257 -5.25368 13.003
-4.92325 -5.32363 13.0016
-4.84394 -5.39357 13.0003
-4.76462 -5.46351 12.9989
-4.68531 -5.53345 12.9975
-4.66846 -5.6839 12.9986
-4.71408 -5.91486 13.0021
-4.69722 -6.0653 13.0031
-4.68038 -6.21575 13.0042
-4.60106 -6.28569 13.0028
-4.52175 -6.35564 13.0015
-4.5049 -6.50608 13.0025
-4.42558 -6.57603 13.0012
-4.34627 -6.64597 12.9998
-4.32942 -6.79642 13.0009
-4.2501 -6.86636 12.9995
-4.23325 -7.01681 13.0005
-4.15394 -7.08675 12.9992
-4.13709 -7.2372 13.0002
-4.05777 -7.30714 12.9989
-3.97846 -7.37709 12.9975
-3.96161 -7.52753 12.9986
-3.8823 -7.59748 12.9972
-3.80298 -7.66742 12.9958
-3.78613 -7.81787 12.9969
-3.70682 -7.88781 12.9955
-3.6275 -7.95775 12.9942
-3.61065 -8.1082 12.9952
-3.53134 -8.17814 12.9938
-3.45202 -8.24809 12.9925
-3.37271 -8.31803 12.9911
-3.29339 -8.38797 12.9897
-3.21408 -8.45792 12.9884
-3.13476 -8.52786 12.987
-3.11792 -8.67831 12.9881
-3.0386 -8.74825 12.9867
-2.95929 -8.81819 12.9853
-2.87998 -8.88814 12.984
-2.80066 -8.95808 12.9826
-2.72135 -9.02803 12.9812
-2.64203 -9.09797 12.9799
-2.56271 -9.16791 12.9785
-2.4834 -9.23785 12.9771
-2.46655 -9.3883 12.9782
-2.38724 -9.45824 12.9768
-2.30792 -9.52818 12.9755
-2.2286 -9.59813 12.9741
-2.08683 -9.58757 12.9703
-2.00751 -9.65751 12.9689
-1.9282 -9.72746 12.9676
-1.84888 -9.7974 12.9662
-1.76957 -9.86734 12.9648
-1.69025 -9.93729 12.9635
-1.61094 -10.0072 12.9621
-1.53162 -10.0772 12.9608
-1.45231 -10.1471 12.9594
-1.373 -10.2171 12.958
-1.29368 -10.287 12.9566
-1.21437 -10.3569 12.9553
-1.07258 -10.3464 12.9515
-0.993266 -10.4163 12.9501
-0.913954 -10.4863 12.9488
-0.83464 -10.5562 12.9474
-0.755325 -10.6262 12.946
-0.676009 -10.6961 12.9447
-0.596694 -10.766 12.9433
-0.454915 -10.7555 12.9395
-0.375601 -10.8254 12.9381
-0.296287 -10.8954 12.9368
-0.154509 -10.8848 12.933
-0.0751934 -10.9548 12.9316
