ply
format ascii 1.0
comment VCGLIB generated
element vertex 933
property float x
property float y
property float z
element face 0
property list uchar int vertex_indices
end_header
4.11627 -12.1351 14.177
4.18621 -12.0558 14.1757
4.33666 -12.039 14.1767
4.48711 -12.0221 14.1778
4.63756 -12.0053 14.1789
4.788 -11.9884 14.1799
5.01896 -12.034 14.1834
5.0889 -11.9547 14.182
5.23935 -11.9379 14.1831
5.30929 -11.8586 14.1817
5.45974 -11.8417 14.1828
5.52968 -11.7624 14.1814
5.59962 -11.6831 14.1801
5.75007 -11.6662 14.1811
5.90052 -11.6494 14.1822
6.05097 -11.6325 14.1832
6.20142 -11.6157 14.1843
6.35186 -11.5988 14.1853
6.42181 -11.5195 14.184
6.49175 -11.4402 14.1826
6.6422 -11.4234 14.1837
6.71214 -11.344 14.1823
6.86259 -11.3272 14.1833
7.01304 -11.3104 14.1844
7.08298 -11.231 14.183
7.23343 -11.2142 14.1841
7.30337 -11.1349 14.1827
7.45382 -11.118 14.1838
7.52376 -11.0387 14.1824
7.5937 -10.9594 14.1811
7.74415 -10.9425 14.1821
7.8141 -10.8632 14.1807
7.88404 -10.7839 14.1794
7.95398 -10.7046 14.178
8.10443 -10.6877 14.1791
8.17437 -10.6084 14.1777
8.24432 -10.5291 14.1763
8.39476 -10.5123 14.1774
8.46471 -10.433 14.176
8.53465 -10.3536 14.1747
8.60459 -10.2743 14.1733
8.67454 -10.195 14.1719
8.74448 -10.1157 14.1706
8.81442 -10.0364 14.1692
8.96487 -10.0195 14.1703
9.03481 -9.94022 14.1689
9.10476 -9.8609 14.1675
9.1747 -9.78159 14.1662
9.24464 -9.70227 14.1648
9.31459 -9.62296 14.1634
9.38453 -9.54364 14.1621
9.45447 -9.46433 14.1607
9.52442 -9.38502 14.1593
9.59436 -9.3057 14.158
9.6643 -9.22639 14.1566
9.73425 -9.14707 14.1552
9.80419 -9.06776 14.1539
9.87413 -8.98844 14.1525
9.94407 -8.90913 14.1511
10.014 -8.82981 14.1498
10.084 -8.7505 14.1484
10.1539 -8.67118 14.147
10.2238 -8.59187 14.1457
10.2133 -8.45009 14.1419
10.2832 -8.37077 14.1405
10.3532 -8.29146 14.1391
10.4231 -8.21214 14.1378
10.4931 -8.13283 14.1364
10.563 -8.05352 14.1351
10.5524 -7.91173 14.1313
10.6224 -7.83242 14.1299
10.6923 -7.7531 14.1285
10.7623 -7.67379 14.1272
10.8322 -7.59447 14.1258
10.8217 -7.4527 14.122
10.8916 -7.37338 14.1206
10.881 -7.2316 14.1169
10.951 -7.15228 14.1155
10.9404 -7.0105 14.1117
10.9299 -6.86873 14.1079
10.8388 -6.66448 14.1017
10.8282 -6.5227 14.0979
10.8982 -6.44338 14.0965
10.8876 -6.3016 14.0928
10.9576 -6.22229 14.0914
11.0275 -6.14298 14.09
11.0169 -6.00119 14.0862
11.0064 -5.85941 14.0824
10.9958 -5.71763 14.0787
10.9852 -5.57586 14.0749
10.9747 -5.43407 14.0711
10.8836 -5.22983 14.0649
10.8731 -5.08805 14.0611
10.8625 -4.94627 14.0573
10.9324 -4.86695 14.0559
10.9219 -4.72517 14.0521
10.9113 -4.58339 14.0483
10.9008 -4.44161 14.0446
10.9707 -4.3623 14.0432
10.9601 -4.22052 14.0394
11.0301 -4.1412 14.038
11.0195 -3.99942 14.0342
11.0895 -3.92011 14.0329
11.0789 -3.77833 14.0291
10.9878 -3.57408 14.0229
10.8968 -3.36984 14.0167
10.3227 -2.7908 13.9959
7.87716 -10.9802 14.1835
7.99902 -10.8904 14.1846
8.12089 -10.8006 14.1856
8.24275 -10.7108 14.1867
8.26367 -10.6071 14.1853
8.38554 -10.5173 14.1864
8.40645 -10.4136 14.185
8.52832 -10.3238 14.1861
8.54923 -10.2202 14.1847
8.97396 -10.1719 14.193
9.19678 -10.0959 14.1965
9.31864 -10.0061 14.1975
9.44051 -9.91628 14.1986
9.46143 -9.81262 14.1972
9.58329 -9.72281 14.1983
9.70516 -9.63299 14.1994
9.72608 -9.52933 14.198
9.74699 -9.42567 14.1966
9.86886 -9.33586 14.1977
9.88977 -9.2322 14.1963
10.0116 -9.14238 14.1974
10.1335 -9.05256 14.1984
10.2554 -8.96275 14.1995
10.2763 -8.85909 14.1981
10.3982 -8.76927 14.1992
10.4191 -8.66561 14.1978
10.5409 -8.5758 14.1989
10.6628 -8.48598 14.1999
10.6837 -8.38232 14.1985
10.8056 -8.29251 14.1996
10.8265 -8.18884 14.1982
10.9484 -8.09903 14.1993
10.9693 -7.99537 14.1979
10.9902 -7.89171 14.1966
11.0111 -7.78805 14.1952
11.032 -7.68439 14.1938
11.0529 -7.58073 14.1925
11.0739 -7.47707 14.1911
11.1957 -7.38725 14.1922
11.2166 -7.28359 14.1908
11.2376 -7.17993 14.1894
11.2585 -7.07627 14.1881
11.2794 -6.97261 14.1867
11.3003 -6.86895 14.1853
11.3212 -6.76529 14.184
11.3421 -6.66163 14.1826
11.363 -6.55797 14.1812
11.384 -6.45431 14.1799
11.4049 -6.35065 14.1785
11.4258 -6.24699 14.1771
11.4467 -6.14333 14.1758
11.4676 -6.03967 14.1744
11.4885 -5.93601 14.173
11.5095 -5.83235 14.1717
11.5304 -5.72869 14.1703
11.5513 -5.62503 14.1689
11.4712 -5.50752 14.1651
11.4922 -5.40386 14.1638
11.5131 -5.3002 14.1624
11.534 -5.19654 14.1611
11.5549 -5.09288 14.1597
11.5758 -4.98922 14.1583
11.5967 -4.88556 14.157
11.6177 -4.7819 14.1556
11.5376 -4.6644 14.1518
11.5585 -4.56074 14.1504
11.5794 -4.45708 14.1491
11.4994 -4.33957 14.1453
11.5203 -4.23591 14.1439
11.4403 -4.11841 14.1401
11.4612 -4.01475 14.1388
11.3812 -3.89724 14.135
11.4021 -3.79359 14.1336
11.322 -3.67608 14.1298
11.343 -3.57242 14.1284
11.2629 -3.45492 14.1247
11.2838 -3.35126 14.1233
11.2038 -3.23375 14.1195
11.2247 -3.13009 14.1181
11.2456 -3.02643 14.1168
11.1656 -2.90893 14.113
11.1865 -2.80527 14.1116
11.1065 -2.68776 14.1078
11.1274 -2.5841 14.1065
11.0474 -2.4666 14.1027
10.8664 -2.33525 14.0965
10.6854 -2.2039 14.0902
10.8072 -2.11408 14.0913
10.8282 -2.01042 14.0899
10.8491 -1.90676 14.0886
10.87 -1.8031 14.0872
10.8909 -1.69944 14.0858
10.8109 -1.58194 14.082
10.7308 -1.46443 14.0783
10.7517 -1.36077 14.0769
10.6717 -1.24327 14.0731
10.1879 -1.07039 14.0596
10.2088 -0.966727 14.0583
10.4316 -0.890756 14.0617
10.4525 -0.787097 14.0604
10.4734 -0.683435 14.059
10.5953 -0.593619 14.0601
10.5153 -0.476114 14.0563
10.5362 -0.372456 14.0549
10.5571 -0.268795 14.0535
10.578 -0.165135 14.0522
10.498 -0.0476298 14.0484
10.5189 0.0560322 14.047
10.4388 0.173535 14.0432
10.3588 0.291039 14.0394
10.2788 0.408544 14.0357
9.89588 0.56758 14.0246
10.0177 0.657399 14.0257
10.0387 0.761059 14.0243
10.1605 0.850874 14.0253
10.1814 0.954532 14.024
10.2024 1.05819 14.0226
10.1223 1.1757 14.0188
10.0423 1.2932 14.015
9.96225 1.41071 14.0112
9.98316 1.51437 14.0099
10.0041 1.61803 14.0085
10.025 1.72169 14.0071
9.94495 1.83919 14.0034
9.96587 1.94285 14.002
9.98679 2.04651 14.0006
10.0077 2.15017 13.9993
9.92766 2.26768 13.9955
9.94858 2.37134 13.9941
9.86854 2.48884 13.9903
9.68756 2.62019 13.9841
9.60752 2.73769 13.9803
9.42653 2.86904 13.9741
9.34649 2.98655 13.9703
9.36741 3.09021 13.9689
9.28737 3.20771 13.9651
9.30828 3.31137 13.9638
9.22825 3.42888 13.96
9.24916 3.53254 13.9586
9.16913 3.65004 13.9548
9.08909 3.76755 13.951
8.9081 3.8989 13.9448
8.82806 4.0164 13.9411
8.74803 4.1339 13.9373
8.66799 4.25141 13.9335
8.6889 4.35507 13.9321
8.70982 4.45873 13.9307
8.62979 4.57623 13.927
8.6507 4.67989 13.9256
8.57066 4.7974 13.9218
11.8807 -6.20243 14.1744
11.9413 -6.06371 14.1755
11.9076 -5.96348 14.1741
11.9682 -5.82476 14.1752
11.9345 -5.72453 14.1738
11.9008 -5.6243 14.1724
11.9614 -5.48559 14.1735
12.0221 -5.34687 14.1745
11.9884 -5.24664 14.1732
11.9546 -5.14641 14.1718
11.9209 -5.04618 14.1705
11.9816 -4.90746 14.1715
11.9478 -4.80723 14.1701
11.9141 -4.707 14.1688
11.8804 -4.60677 14.1674
11.8467 -4.50654 14.166
11.9073 -4.36783 14.1671
11.8736 -4.2676 14.1657
11.8399 -4.16737 14.1644
11.9005 -4.02865 14.1654
11.8668 -3.92842 14.1641
11.8331 -3.82819 14.1627
11.7994 -3.72796 14.1613
11.7657 -3.62773 14.16
11.7319 -3.5275 14.1586
11.6982 -3.42727 14.1572
11.6645 -3.32704 14.1559
11.7251 -3.18833 14.1569
11.6914 -3.08809 14.1555
11.6577 -2.98786 14.1542
11.624 -2.88764 14.1528
11.5903 -2.78741 14.1515
11.5566 -2.68718 14.1501
11.5228 -2.58695 14.1487
11.4891 -2.48671 14.1474
11.4554 -2.38649 14.146
11.3273 -2.32474 14.1422
11.2936 -2.22451 14.1408
11.1656 -2.16277 14.1371
11.2262 -2.02405 14.1381
11.2868 -1.88534 14.1392
11.3474 -1.74662 14.1402
11.3137 -1.64639 14.1389
11.3744 -1.50767 14.1399
11.3406 -1.40744 14.1385
11.3069 -1.30721 14.1372
11.3676 -1.1685 14.1382
11.3338 -1.06827 14.1369
11.3001 -0.968038 14.1355
11.2664 -0.867809 14.1341
11.327 -0.729092 14.1352
11.2933 -0.628863 14.1338
11.2596 -0.528632 14.1325
11.2259 -0.428402 14.1311
11.2865 -0.289687 14.1322
11.2528 -0.189456 14.1308
11.2191 -0.0892258 14.1294
11.1854 0.011004 14.1281
11.1517 0.111234 14.1267
11.1179 0.211463 14.1253
11.0842 0.311694 14.124
11.0505 0.411923 14.1226
11.1111 0.550641 14.1236
11.0774 0.65087 14.1223
11.0437 0.7511 14.1209
11.01 0.85133 14.1196
10.9763 0.951561 14.1182
10.9426 1.05179 14.1168
10.9088 1.15202 14.1154
10.8751 1.25225 14.1141
10.9357 1.39096 14.1151
10.902 1.49119 14.1138
10.8683 1.59143 14.1124
10.8346 1.69165 14.111
10.8009 1.79188 14.1097
10.7672 1.89211 14.1083
10.7334 1.99234 14.1069
10.6997 2.09257 14.1056
10.666 2.1928 14.1042
10.5379 2.25455 14.1004
10.5042 2.35478 14.0991
10.4705 2.45501 14.0977
10.4368 2.55524 14.0963
10.4031 2.65547 14.095
10.3694 2.7557 14.0936
10.2413 2.81744 14.0898
10.2076 2.91767 14.0884
10.1739 3.0179 14.0871
10.1401 3.11813 14.0857
10.1064 3.21836 14.0843
10.0727 3.31859 14.083
10.039 3.41882 14.0816
10.0053 3.51905 14.0802
9.97156 3.61928 14.0789
9.93784 3.71951 14.0775
9.80978 3.78125 14.0737
9.77606 3.88148 14.0724
9.74234 3.98171 14.071
9.70862 4.08194 14.0696
9.67491 4.18217 14.0683
9.64119 4.2824 14.0669
9.60748 4.38263 14.0655
9.47941 4.44438 14.0617
9.44569 4.54461 14.0604
9.41197 4.64484 14.059
9.28391 4.70658 14.0552
9.25019 4.80681 14.0538
9.21647 4.90704 14.0525
9.18276 5.00727 14.0511
9.05469 5.06901 14.0473
9.02098 5.16924 14.046
8.98726 5.26947 14.0446
8.95354 5.3697 14.0432
8.91982 5.46993 14.0419
8.79176 5.53168 14.0381
8.75804 5.63191 14.0367
8.62997 5.69365 14.0329
8.59626 5.79388 14.0316
8.46819 5.85563 14.0278
8.43448 5.95585 14.0264
8.30641 6.0176 14.0226
8.27269 6.11783 14.0212
8.14462 6.17957 14.0175
8.01656 6.24132 14.0137
7.98284 6.34155 14.0123
7.85477 6.40329 14.0085
7.63236 6.42654 14.0023
7.50429 6.48829 13.9985
7.37623 6.55003 13.9947
7.34251 6.65026 13.9934
7.21444 6.71201 13.9896
7.18073 6.81224 13.9882
7.05266 6.87398 13.9844
6.9246 6.93572 13.9806
6.70218 6.95898 13.9744
6.57411 7.02072 13.9706
6.44605 7.08247 13.9668
6.31799 7.14421 13.963
10.8451 1.59293 14.1185
10.7658 1.66288 14.1171
10.749 1.81332 14.1181
10.6697 1.88327 14.1168
10.5904 1.95321 14.1154
10.5735 2.10366 14.1165
10.4942 2.1736 14.1151
10.6647 2.56557 14.1234
10.6479 2.71601 14.1245
10.631 2.86646 14.1255
10.6142 3.01691 14.1266
10.5349 3.08685 14.1252
10.518 3.2373 14.1263
10.4387 3.30724 14.1249
10.3594 3.37719 14.1236
10.2801 3.44713 14.1222
10.2008 3.51707 14.1208
10.1215 3.58701 14.1195
10.1046 3.73746 14.1205
10.0253 3.8074 14.1192
10.0084 3.95786 14.1202
9.92912 4.0278 14.1189
9.91227 4.17824 14.1199
9.83296 4.24819 14.1185
9.75364 4.31813 14.1172
9.73679 4.46858 14.1182
9.59501 4.45802 14.1144
9.57816 4.60847 14.1155
9.62378 4.83942 14.119
9.60693 4.98987 14.12
9.59008 5.14031 14.1211
9.57323 5.29076 14.1221
9.49392 5.36071 14.1208
9.41461 5.43065 14.1194
9.39775 5.5811 14.1205
9.31844 5.65104 14.1191
9.23913 5.72098 14.1178
9.15981 5.79093 14.1164
9.08049 5.86087 14.115
9.00118 5.93081 14.1136
8.98433 6.08126 14.1147
8.90502 6.1512 14.1133
8.8257 6.22115 14.112
8.74639 6.29109 14.1106
8.72954 6.44154 14.1117
8.65022 6.51148 14.1103
8.57091 6.58142 14.1089
8.49159 6.65137 14.1076
8.41228 6.72131 14.1062
8.33296 6.79125 14.1048
8.25365 6.8612 14.1035
8.17433 6.93114 14.1021
8.09502 7.00108 14.1007
8.0157 7.07102 14.0994
7.93639 7.14097 14.098
7.85707 7.21091 14.0966
7.77776 7.28086 14.0953
7.69845 7.3508 14.0939
7.61913 7.42074 14.0925
7.47735 7.41018 14.0887
7.39804 7.48012 14.0874
7.31872 7.55007 14.086
7.2394 7.62001 14.0847
7.16009 7.68995 14.0833
7.08078 7.7599 14.0819
7.00146 7.82984 14.0806
6.92215 7.89978 14.0792
6.84283 7.96972 14.0778
6.76352 8.03967 14.0765
6.6842 8.10961 14.0751
6.54242 8.09905 14.0713
6.46311 8.16899 14.0699
6.38379 8.23894 14.0686
6.30448 8.30888 14.0672
6.1627 8.29832 14.0634
6.02092 8.28776 14.0596
5.75421 8.11619 14.051
5.42503 7.86411 14.0399
5.34571 7.93405 14.0386
5.2664 8.00399 14.0372
5.12462 7.99343 14.0334
5.0453 8.06338 14.032
4.90352 8.05281 14.0283
4.76174 8.04225 14.0245
4.68243 8.1122 14.0231
4.54065 8.10164 14.0193
4.39887 8.09107 14.0155
4.25709 8.08051 14.0117
4.05284 7.98944 14.0055
3.91106 7.97889 14.0017
3.76928 7.96832 13.9979
3.68996 8.03827 13.9966
3.54819 8.0277 13.9928
3.46887 8.09765 13.9914
9.19672 5.74712 14.1062
9.10691 5.86899 14.1073
9.01709 5.99085 14.1083
8.92728 6.11272 14.1094
8.82362 6.13364 14.108
8.7338 6.2555 14.1091
8.63014 6.27642 14.1077
8.52648 6.29733 14.1063
8.43666 6.4192 14.1074
8.34685 6.54107 14.1085
8.24319 6.56198 14.1071
8.15337 6.68385 14.1082
8.06356 6.80572 14.1092
7.9599 6.82663 14.1078
7.85624 6.84755 14.1065
7.76642 6.96941 14.1075
7.66276 6.99033 14.1062
7.5591 7.01124 14.1048
7.45544 7.03216 14.1034
7.36562 7.15403 14.1045
7.26196 7.17494 14.1031
7.25521 7.90252 14.1187
7.1654 8.02439 14.1198
7.06174 8.0453 14.1184
6.95808 8.06622 14.1171
6.85442 8.08713 14.1157
6.75076 8.10805 14.1143
6.6471 8.12896 14.1129
6.55728 8.25083 14.114
6.45362 8.27174 14.1126
6.34996 8.29266 14.1113
6.2463 8.31357 14.1099
6.15648 8.43544 14.111
6.05282 8.45636 14.1096
5.94916 8.47727 14.1082
5.8455 8.49819 14.1069
5.74184 8.5191 14.1055
5.63818 8.54002 14.1041
5.53452 8.56093 14.1028
5.43086 8.58185 14.1014
5.3272 8.60276 14.1
5.22354 8.62368 14.0987
5.11988 8.64459 14.0973
5.01622 8.66551 14.0959
4.91256 8.68642 14.0946
4.8089 8.70734 14.0932
4.6914 8.6273 14.0894
4.58774 8.64822 14.088
4.48408 8.66913 14.0867
4.38042 8.69005 14.0853
4.27676 8.71096 14.084
4.1731 8.73188 14.0826
4.06944 8.75279 14.0812
3.96578 8.77371 14.0798
3.86212 8.79462 14.0785
3.74461 8.71459 14.0747
3.64095 8.7355 14.0733
3.53729 8.75642 14.072
3.41979 8.67638 14.0682
3.31613 8.6973 14.0668
3.19862 8.61726 14.063
3.09496 8.63817 14.0617
2.9913 8.65909 14.0603
2.88764 8.68001 14.0589
2.78398 8.70092 14.0576
2.66648 8.62088 14.0538
2.56282 8.6418 14.0524
2.44531 8.56176 14.0486
2.34165 8.58268 14.0472
2.22415 8.50264 14.0435
2.10664 8.4226 14.0397
1.98914 8.34257 14.0359
1.88548 8.36348 14.0345
1.78182 8.3844 14.0331
5.23696 8.65894 14.0817
5.09824 8.71956 14.0827
4.95953 8.7802 14.0838
4.8593 8.74648 14.0824
4.72058 8.80712 14.0835
4.58186 8.86775 14.0845
4.48163 8.83403 14.0832
4.34292 8.89466 14.0842
4.24269 8.86095 14.0829
4.10397 8.92158 14.0839
3.96525 8.98221 14.085
3.86502 8.94849 14.0836
3.72631 9.00912 14.0847
3.62608 8.97541 14.0833
3.52585 8.94169 14.0819
3.42562 8.90797 14.0806
3.2869 8.9686 14.0816
3.18667 8.93489 14.0803
3.04795 8.99552 14.0813
2.94773 8.96181 14.08
2.80901 9.02243 14.081
2.70878 8.98872 14.0796
2.60855 8.955 14.0783
2.50832 8.92128 14.0769
2.40809 8.88756 14.0755
2.30786 8.85385 14.0742
2.20763 8.82013 14.0728
2.1074 8.78642 14.0714
2.00717 8.7527 14.0701
1.90694 8.71898 14.0687
1.80671 8.68526 14.0674
1.70648 8.65155 14.066
1.60625 8.61783 14.0646
1.50602 8.58412 14.0632
1.36731 8.64475 14.0643
1.26707 8.61103 14.0629
1.16684 8.57731 14.0616
1.06661 8.5436 14.0602
0.966384 8.50988 14.0588
0.866155 8.47616 14.0575
0.765924 8.44245 14.0561
0.665695 8.40873 14.0547
0.565464 8.37501 14.0534
0.465235 8.34129 14.052
0.365006 8.30758 14.0506
0.264775 8.27386 14.0493
0.164544 8.24014 14.0479
0.0643146 8.20643 14.0466
-0.0359137 8.17271 14.0452
-0.136145 8.13899 14.0438
-0.236374 8.10528 14.0424
-0.336604 8.07156 14.0411
-0.436836 8.03784 14.0397
-0.537064 8.00412 14.0383
-0.637294 7.97041 14.037
-0.737524 7.93669 14.0356
-0.837754 7.90298 14.0343
-0.899497 7.77491 14.0305
-0.999725 7.74119 14.0291
-1.09996 7.70747 14.0277
-1.20019 7.67375 14.0264
-1.30042 7.64004 14.025
-1.40065 7.60632 14.0236
-1.50087 7.5726 14.0223
-1.60111 7.53889 14.0209
-1.70134 7.50517 14.0195
-1.76308 7.37711 14.0157
-1.86331 7.34339 14.0144
-1.96354 7.30967 14.013
-2.02528 7.1816 14.0092
-2.12551 7.14789 14.0079
-2.18726 7.01982 14.0041
-2.28749 6.9861 14.0027
-2.34923 6.85804 13.9989
-2.44946 6.82432 13.9975
-2.47272 6.60191 13.9913
-2.53446 6.47384 13.9875
-2.63469 6.44012 13.9862
-2.73492 6.40641 13.9848
-2.79667 6.27834 13.981
-2.8969 6.24462 13.9797
-2.99713 6.21091 13.9783
-3.09735 6.17719 13.9769
-3.1591 6.04912 13.9731
-3.25933 6.01541 13.9718
-3.28259 5.79299 13.9656
-3.26736 5.47623 13.9569
-3.36759 5.44251 13.9556
-3.42933 5.31444 13.9518
-3.49107 5.18638 13.948
-3.55282 5.05831 13.9442
-1.30119 7.94707 14.0403
-1.45164 7.93022 14.0413
-1.52158 7.85091 14.0399
-1.59152 7.77159 14.0386
-1.66147 7.69228 14.0372
-1.73141 7.61296 14.0358
-1.88186 7.59611 14.0369
-2.03231 7.57926 14.038
-2.18275 7.56241 14.039
-2.25269 7.4831 14.0377
-2.40315 7.46625 14.0387
-2.47309 7.38694 14.0373
-2.54303 7.30762 14.036
-2.61298 7.22831 14.0346
-2.68292 7.14899 14.0332
-2.75286 7.06968 14.0319
-2.82281 6.99036 14.0305
-2.97325 6.97351 14.0316
-3.04319 6.8942 14.0302
-3.11314 6.81488 14.0288
-3.18308 6.73557 14.0275
-3.25303 6.65625 14.0261
-3.32297 6.57694 14.0247
-3.47341 6.56009 14.0258
-3.54336 6.48078 14.0244
-3.6133 6.40146 14.0231
-3.68325 6.32215 14.0217
-3.75319 6.24283 14.0203
-3.82313 6.16352 14.019
-3.89307 6.0842 14.0176
-3.96302 6.00489 14.0162
-4.03296 5.92557 14.0149
-4.10291 5.84626 14.0135
-4.17285 5.76694 14.0121
-4.24279 5.68763 14.0108
-4.31273 5.60832 14.0094
-4.38268 5.529 14.008
-4.37212 5.38722 14.0042
-4.44206 5.30791 14.0029
-4.512 5.22859 14.0015
-4.58195 5.14928 14.0002
-4.65189 5.06996 13.9988
-4.72183 4.99064 13.9974
-4.71127 4.84887 13.9936
-4.78121 4.76955 13.9923
-4.85116 4.69024 13.9909
-4.84059 4.54846 13.9871
-4.91053 4.46914 13.9857
-4.98048 4.38982 13.9844
-5.05042 4.31051 13.983
-5.12037 4.2312 13.9816
-5.19031 4.15188 13.9803
-5.17975 4.0101 13.9765
-5.16919 3.86832 13.9727
-5.15863 3.72654 13.9689
-5.14807 3.58476 13.9651
-5.1375 3.44298 13.9613
-5.12694 3.3012 13.9576
-4.57835 5.73406 14.0202
-4.70022 5.64424 14.0213
-4.72114 5.54058 14.0199
-4.84301 5.45077 14.021
-4.86392 5.34711 14.0196
-4.88483 5.24345 14.0183
-4.90575 5.13979 14.0169
-5.02762 5.04997 14.018
-5.04853 4.94631 14.0166
-5.1704 4.8565 14.0177
-5.19131 4.75284 14.0163
-5.31318 4.66302 14.0173
-5.3341 4.55936 14.016
-5.35501 4.4557 14.0146
-5.47688 4.36588 14.0157
-5.49779 4.26222 14.0143
-5.61966 4.17241 14.0154
-5.64057 4.06875 14.014
-5.76245 3.97893 14.015
-5.78336 3.87527 14.0137
-5.80427 3.77161 14.0123
-5.82519 3.66795 14.011
-5.84611 3.56429 14.0096
-5.86702 3.46063 14.0082
-5.88793 3.35697 14.0069
-5.90885 3.25331 14.0055
-5.92977 3.14965 14.0041
-5.95068 3.04599 14.0027
-5.9716 2.94233 14.0014
-5.89155 2.82483 13.9976
-5.91247 2.72116 13.9962
-5.93339 2.61751 13.9949
-5.9543 2.51384 13.9935
-5.87427 2.39634 13.9897
-5.89518 2.29268 13.9883
-5.9161 2.18902 13.987
-5.93701 2.08536 13.9856
-5.95793 1.9817 13.9843
-5.97884 1.87804 13.9829
-5.99976 1.77438 13.9815
-6.02067 1.67072 13.9801
-5.94063 1.55322 13.9764
-5.96155 1.44955 13.975
-5.88151 1.33205 13.9712
-5.90243 1.22839 13.9698
-5.82239 1.11089 13.966
-5.84331 1.00723 13.9647
-5.86422 0.903565 13.9633
-5.88514 0.799905 13.9619
-5.90605 0.696245 13.9606
-5.92697 0.592584 13.9592
-5.94788 0.488924 13.9579
-5.9688 0.385265 13.9565
-6.441 2.15226 14.0072
-6.50163 2.01354 14.0083
-6.46792 1.91331 14.0069
-6.4342 1.81308 14.0055
-6.49483 1.67437 14.0066
-6.55546 1.53565 14.0076
-6.52175 1.43542 14.0063
-6.58238 1.29671 14.0073
-6.54866 1.19648 14.006
-6.51494 1.09625 14.0046
-6.48123 0.996017 14.0032
-6.54186 0.8573 14.0043
-6.50814 0.757071 14.0029
-6.56877 0.618355 14.004
-6.6294 0.479639 14.0051
-6.59569 0.379409 14.0037
-6.56197 0.279179 14.0023
-6.52826 0.178948 14.0009
-6.49454 0.0787191 13.9996
-6.55517 -0.0599995 14.0006
-6.6158 -0.198714 14.0017
-6.67644 -0.337431 14.0027
-6.64272 -0.437662 14.0014
-6.609 -0.53789 14
-6.57528 -0.638122 13.9987
-6.63592 -0.776837 13.9997
-6.6022 -0.877069 13.9984
-6.56848 -0.977299 13.997
-6.53477 -1.07753 13.9956
-6.50105 -1.17776 13.9942
-6.46733 -1.27799 13.9929
-6.43362 -1.37822 13.9915
-6.49424 -1.51693 13.9926
-6.46053 -1.61716 13.9912
-6.42681 -1.71739 13.9898
-6.39309 -1.81762 13.9885
-6.35938 -1.91785 13.9871
-6.32566 -2.01808 13.9857
-6.29194 -2.11831 13.9844
-6.25822 -2.21854 13.983
-6.22451 -2.31877 13.9816
-6.19079 -2.419 13.9803
-6.06273 -2.48075 13.9765
-6.02901 -2.58098 13.9751
-5.99529 -2.68121 13.9738
-5.96158 -2.78144 13.9724
-5.92786 -2.88167 13.971
-5.89414 -2.98189 13.9697
-5.86043 -3.08212 13.9683
-5.82671 -3.18236 13.9669
-5.79299 -3.28259 13.9656
-5.75927 -3.38282 13.9642
-5.72556 -3.48304 13.9628
-5.69184 -3.58328 13.9615
-5.65812 -3.68351 13.9601
-5.62441 -3.78374 13.9587
-5.59069 -3.88397 13.9574
-5.46262 -3.94571 13.9536
-5.42891 -4.04594 13.9522
-5.39519 -4.14617 13.9509
-5.36147 -4.2464 13.9495
-5.32775 -4.34663 13.9481
-5.29404 -4.44686 13.9467
-5.26032 -4.54709 13.9454
-5.22661 -4.64732 13.944
-5.19289 -4.74755 13.9426
-5.15917 -4.84778 13.9413
-5.12545 -4.94801 13.9399
-4.99739 -5.00975 13.9361
-4.96367 -5.10998 13.9348
-4.92995 -5.21021 13.9334
-4.89623 -5.31044 13.932
-4.76817 -5.37218 13.9282
-4.73446 -5.47242 13.9269
-4.70074 -5.57265 13.9255
-4.66702 -5.67287 13.9241
-4.6333 -5.77311 13.9228
-4.59959 -5.87333 13.9214
-4.56587 -5.97357 13.92
-4.53215 -6.07379 13.9187
-4.40408 -6.13554 13.9149
-4.37037 -6.23577 13.9135
-4.33665 -6.336 13.9122
-4.30293 -6.43623 13.9108
-4.17487 -6.49797 13.907
-4.14115 -6.5982 13.9056
-4.10743 -6.69843 13.9043
-3.97937 -6.76017 13.9005
-3.94565 -6.8604 13.8991
-3.91193 -6.96063 13.8978
-3.87821 -7.06086 13.8964
-3.75015 -7.12261 13.8926
-3.71643 -7.22284 13.8912
-3.58837 -7.28458 13.8874
-3.55465 -7.38481 13.8861
-3.52093 -7.48504 13.8847
-3.48722 -7.58527 13.8833
-3.35915 -7.64701 13.8795
-3.32543 -7.74724 13.8782
-4.66353 -6.3662 14.0053
-4.58421 -6.43614 14.0039
-4.56736 -6.58659 14.0049
-4.48805 -6.65653 14.0036
-4.4712 -6.80698 14.0046
-4.39188 -6.87692 14.0033
-4.37503 -7.02737 14.0043
-4.29572 -7.09731 14.003
-4.2164 -7.16725 14.0016
-4.19956 -7.31771 14.0027
-4.12024 -7.38765 14.0013
-4.10339 -7.53809 14.0023
-4.02407 -7.60804 14.001
-4.00723 -7.75848 14.002
-3.92791 -7.82843 14.0007
-3.8486 -7.89837 13.9993
-3.83175 -8.04882 14.0004
-3.75244 -8.11876 13.999
-3.67312 -8.18871 13.9976
-3.59381 -8.25865 13.9963
-3.51449 -8.32859 13.9949
-3.43518 -8.39854 13.9935
-3.35586 -8.46848 13.9922
-3.27655 -8.53842 13.9908
-3.19723 -8.60837 13.9894
-3.11792 -8.67831 13.9881
-3.0386 -8.74825 13.9867
-3.02175 -8.8987 13.9878
-2.94244 -8.96864 13.9864
-2.86312 -9.03858 13.985
-2.78381 -9.10853 13.9837
-2.70449 -9.17847 13.9823
-2.62518 -9.24841 13.9809
-2.54586 -9.31836 13.9796
-2.46655 -9.3883 13.9782
-2.38724 -9.45824 13.9768
-2.30792 -9.52818 13.9755
-2.2286 -9.59813 13.9741
-2.14929 -9.66807 13.9727
-2.06998 -9.73802 13.9714
-1.99066 -9.80796 13.97
-1.91135 -9.8779 13.9686
-1.83203 -9.94784 13.9673
-1.69025 -9.93729 13.9635
-1.61094 -10.0072 13.9621
-1.53162 -10.0772 13.9608
-1.45231 -10.1471 13.9594
-1.43546 -10.2976 13.9604
-1.35614 -10.3675 13.9591
-1.27683 -10.4374 13.9577
-1.13505 -10.4269 13.9539
-1.05574 -10.4968 13.9526
-0.976423 -10.5668 13.9512
-0.897109 -10.6367 13.9498
-0.755325 -10.6262 13.946
-0.676009 -10.6961 13.9447
-0.596694 -10.766 13.9433
-0.51738 -10.836 13.9419
-0.375601 -10.8254 13.9381
-0.296287 -10.8954 13.9368
-0.216971 -10.9653 13.9354
-0.0751934 -10.9548 13.9316
0.00412035 -11.0247 13.9303
0.0834346 -11.0946 13.9289
0.225221 -11.0841 13.9251
0.554394 -10.832 13.914
0.633709 -10.9019 13.9127
0.77549 -10.8914 13.9089
0.854804 -10.9613 13.9075
