ply
format ascii 1.0
comment VCGLIB generated
element vertex 974
property float x
property float y
property float z
element face 0
property list uchar int vertex_indices
end_header
2.10764 -11.6453 15.1444
2.33859 -11.6909 15.1478
2.89156 -11.9864 15.161
3.20302 -12.0944 15.1669
3.35347 -12.0776 15.168
3.50391 -12.0608 15.169
3.73487 -12.1064 15.1725
3.88532 -12.0895 15.1736
4.03576 -12.0727 15.1746
4.18621 -12.0558 15.1757
4.25615 -11.9765 15.1743
4.4066 -11.9597 15.1754
4.55705 -11.9428 15.1764
4.7075 -11.926 15.1775
4.85794 -11.9091 15.1785
5.00839 -11.8923 15.1796
5.15884 -11.8754 15.1807
5.30929 -11.8586 15.1817
5.45974 -11.8417 15.1828
5.61019 -11.8249 15.1838
5.68013 -11.7456 15.1825
5.83058 -11.7287 15.1835
5.98102 -11.7119 15.1846
6.05097 -11.6325 15.1832
6.20142 -11.6157 15.1843
6.27136 -11.5364 15.1829
6.42181 -11.5195 15.184
6.49175 -11.4402 15.1826
6.56169 -11.3609 15.1812
6.71214 -11.344 15.1823
6.78208 -11.2647 15.1809
6.93253 -11.2479 15.182
7.08298 -11.231 15.183
7.15292 -11.1517 15.1817
7.38387 -11.1973 15.1852
7.45382 -11.118 15.1838
7.60427 -11.1012 15.1848
7.67421 -11.0219 15.1835
7.74415 -10.9425 15.1821
7.8141 -10.8632 15.1807
7.96454 -10.8464 15.1818
8.03448 -10.7671 15.1804
8.10443 -10.6877 15.1791
8.17437 -10.6084 15.1777
8.32482 -10.5916 15.1788
8.39476 -10.5123 15.1774
8.46471 -10.433 15.176
8.53465 -10.3536 15.1747
8.60459 -10.2743 15.1733
8.67454 -10.195 15.1719
8.74448 -10.1157 15.1706
8.81442 -10.0364 15.1692
8.88437 -9.95707 15.1678
8.95431 -9.87775 15.1665
9.02425 -9.79844 15.1651
9.0942 -9.71912 15.1637
9.16414 -9.63981 15.1624
9.23408 -9.56049 15.161
9.38453 -9.54364 15.1621
9.45447 -9.46433 15.1607
9.52442 -9.38502 15.1593
9.59436 -9.3057 15.158
9.6643 -9.22639 15.1566
9.73425 -9.14707 15.1552
9.80419 -9.06776 15.1539
9.87413 -8.98844 15.1525
9.94407 -8.90913 15.1511
10.014 -8.82981 15.1498
10.0035 -8.68803 15.146
10.0734 -8.60872 15.1446
10.1433 -8.5294 15.1432
10.2133 -8.45009 15.1419
10.2832 -8.37077 15.1405
10.3532 -8.29146 15.1391
10.4231 -8.21214 15.1378
10.4931 -8.13283 15.1364
10.563 -8.05352 15.1351
10.6329 -7.9742 15.1337
10.7029 -7.89489 15.1323
10.6923 -7.7531 15.1285
10.7623 -7.67379 15.1272
10.8322 -7.59447 15.1258
10.9022 -7.51516 15.1244
10.9721 -7.43584 15.1231
10.9615 -7.29406 15.1193
11.0315 -7.21475 15.1179
11.1014 -7.13544 15.1165
11.1714 -7.05612 15.1152
11.1608 -6.91434 15.1114
11.1502 -6.77256 15.1076
10.8982 -6.44338 15.0965
10.8876 -6.3016 15.0928
10.877 -6.15982 15.089
10.8665 -6.01804 15.0852
10.8559 -5.87626 15.0814
10.9259 -5.79695 15.08
10.9153 -5.65517 15.0762
10.9852 -5.57586 15.0749
10.9747 -5.43407 15.0711
11.0446 -5.35476 15.0697
10.9536 -5.15051 15.0635
10.8625 -4.94627 15.0573
10.8519 -4.80449 15.0535
10.8414 -4.66271 15.0497
10.8308 -4.52092 15.0459
10.9008 -4.44161 15.0446
10.8902 -4.29983 15.0408
10.9601 -4.22052 15.0394
10.8691 -4.01627 15.0332
10.8585 -3.87449 15.0294
10.3649 -3.35792 15.0111
10.4349 -3.2786 15.0097
7.55339 -11.0424 15.1776
7.67525 -10.9525 15.1786
7.89807 -10.8766 15.1821
8.12089 -10.8006 15.1856
8.24275 -10.7108 15.1867
8.36462 -10.621 15.1877
8.48649 -10.5311 15.1888
8.60836 -10.4413 15.1898
8.73022 -10.3515 15.1909
8.75114 -10.2479 15.1895
8.87301 -10.158 15.1906
8.99487 -10.0682 15.1916
9.11674 -9.97841 15.1927
9.33956 -9.90244 15.1962
9.46143 -9.81262 15.1972
9.58329 -9.72281 15.1983
9.60421 -9.61915 15.1969
9.72608 -9.52933 15.198
9.74699 -9.42567 15.1966
9.86886 -9.33586 15.1977
9.88977 -9.2322 15.1963
10.0116 -9.14238 15.1974
10.1335 -9.05256 15.1984
10.2554 -8.96275 15.1995
10.3772 -8.87293 15.2005
10.3982 -8.76927 15.1992
10.4191 -8.66561 15.1978
10.44 -8.56195 15.1964
10.4609 -8.45829 15.1951
10.4818 -8.35463 15.1937
10.6037 -8.26482 15.1948
10.6246 -8.16115 15.1934
10.6455 -8.0575 15.192
10.7674 -7.96768 15.1931
10.8892 -7.87786 15.1942
10.9102 -7.7742 15.1928
11.032 -7.68439 15.1938
11.0529 -7.58073 15.1925
11.0739 -7.47707 15.1911
11.0948 -7.37341 15.1897
11.1157 -7.26975 15.1884
11.1366 -7.16609 15.187
11.1575 -7.06243 15.1856
11.1784 -6.95877 15.1843
11.1994 -6.85511 15.1829
11.2203 -6.75145 15.1815
11.2412 -6.64779 15.1802
11.363 -6.55797 15.1812
11.384 -6.45431 15.1799
11.4049 -6.35065 15.1785
11.4258 -6.24699 15.1771
11.4467 -6.14333 15.1758
11.4676 -6.03967 15.1744
11.4885 -5.93601 15.173
11.5095 -5.83235 15.1717
11.5304 -5.72869 15.1703
11.4503 -5.61118 15.1665
11.4712 -5.50752 15.1651
11.4922 -5.40386 15.1638
11.4121 -5.28636 15.16
11.433 -5.1827 15.1586
11.454 -5.07904 15.1573
11.4749 -4.97538 15.1559
11.4958 -4.87172 15.1545
11.4157 -4.75421 15.1507
11.4367 -4.65055 15.1494
11.4576 -4.54689 15.148
11.3775 -4.42939 15.1442
11.3985 -4.32573 15.1429
11.3184 -4.20823 15.1391
11.3393 -4.10457 15.1377
11.3603 -4.0009 15.1363
11.2802 -3.8834 15.1325
11.3011 -3.77974 15.1312
11.322 -3.67608 15.1298
11.343 -3.57242 15.1284
11.2629 -3.45492 15.1247
11.2838 -3.35126 15.1233
11.3048 -3.24759 15.1219
11.2247 -3.13009 15.1181
11.1447 -3.01259 15.1143
11.1656 -2.90893 15.113
11.0856 -2.79142 15.1092
11.1065 -2.68776 15.1078
11.0264 -2.57026 15.104
11.0474 -2.4666 15.1027
10.9673 -2.34909 15.0989
10.9882 -2.24543 15.0975
10.9082 -2.12793 15.0937
10.9291 -2.02427 15.0924
10.8491 -1.90676 15.0886
10.87 -1.8031 15.0872
10.8909 -1.69944 15.0858
10.8109 -1.58194 15.082
10.8318 -1.47828 15.0807
10.8527 -1.37462 15.0793
10.7727 -1.25711 15.0755
10.6926 -1.13961 15.0717
10.6126 -1.0221 15.0679
10.6335 -0.918444 15.0666
10.5535 -0.80094 15.0628
10.4734 -0.683435 15.059
10.3934 -0.56593 15.0552
10.3134 -0.448424 15.0514
10.3343 -0.344767 15.0501
10.3552 -0.241105 15.0487
10.3761 -0.137446 15.0473
10.397 -0.0337863 15.046
10.4179 0.069876 15.0446
10.4388 0.173535 15.0432
10.4598 0.277195 15.0419
10.4807 0.380854 15.0405
10.4006 0.498358 15.0367
10.1187 0.643553 15.0281
9.83675 0.788746 15.0194
9.85767 0.892407 15.0181
9.87859 0.996065 15.0167
9.8995 1.09972 15.0153
9.92041 1.20339 15.014
9.94133 1.30705 15.0126
9.96225 1.41071 15.0112
9.98316 1.51437 15.0099
9.90312 1.63187 15.0061
9.62118 1.77707 14.9975
9.54115 1.89457 14.9937
9.56207 1.99823 14.9923
9.58298 2.10189 14.9909
9.60389 2.20555 14.9896
9.62481 2.30921 14.9882
9.64572 2.41287 14.9868
9.56569 2.53037 14.983
9.5866 2.63403 14.9817
9.50657 2.75154 14.9779
9.52748 2.8552 14.9765
9.44744 2.9727 14.9727
9.36741 3.09021 14.9689
9.28737 3.20771 14.9651
9.20733 3.32522 14.9614
9.1273 3.44272 14.9576
9.04726 3.56023 14.9538
9.06818 3.66389 14.9524
8.98814 3.78139 14.9486
9.00905 3.88505 14.9473
8.92902 4.00255 14.9435
8.74803 4.1339 14.9373
8.36514 4.29294 14.9262
8.2851 4.41045 14.9224
11.4294 -7.41238 15.1673
11.49 -7.27367 15.1684
11.4563 -7.17344 15.167
11.5169 -7.03472 15.1681
11.4832 -6.93449 15.1667
11.4495 -6.83426 15.1653
11.5101 -6.69555 15.1664
11.4764 -6.59532 15.165
11.537 -6.4566 15.1661
11.5977 -6.31788 15.1671
11.6583 -6.17917 15.1682
11.6246 -6.07894 15.1668
11.6852 -5.94022 15.1679
11.7458 -5.80151 15.169
11.8065 -5.66279 15.17
11.8671 -5.52407 15.1711
11.9277 -5.38536 15.1721
11.894 -5.28512 15.1708
11.9546 -5.14641 15.1718
11.9209 -5.04618 15.1705
11.9816 -4.90746 15.1715
11.9478 -4.80723 15.1701
11.9141 -4.707 15.1688
11.9748 -4.56829 15.1698
11.941 -4.46806 15.1685
11.9073 -4.36783 15.1671
11.8736 -4.2676 15.1657
11.8399 -4.16737 15.1644
11.8062 -4.06714 15.163
11.7725 -3.96691 15.1616
11.7387 -3.86668 15.1603
11.7994 -3.72796 15.1613
11.7657 -3.62773 15.16
11.7319 -3.5275 15.1586
11.6982 -3.42727 15.1572
11.6645 -3.32704 15.1559
11.6308 -3.22681 15.1545
11.5971 -3.12658 15.1531
11.5634 -3.02635 15.1518
11.624 -2.88764 15.1528
11.5903 -2.78741 15.1515
11.5566 -2.68718 15.1501
11.5228 -2.58695 15.1487
11.4891 -2.48671 15.1474
11.4554 -2.38649 15.146
11.4217 -2.28626 15.1446
11.388 -2.18603 15.1433
11.4486 -2.04731 15.1443
11.4149 -1.94708 15.1429
11.3812 -1.84685 15.1416
11.3474 -1.74662 15.1402
11.3137 -1.64639 15.1389
11.28 -1.54616 15.1375
11.3406 -1.40744 15.1385
11.3069 -1.30721 15.1372
11.2732 -1.20698 15.1358
11.3338 -1.06827 15.1369
11.3001 -0.968038 15.1355
11.2664 -0.867809 15.1341
11.327 -0.729092 15.1352
11.2933 -0.628863 15.1338
11.2596 -0.528632 15.1325
11.2259 -0.428402 15.1311
11.1922 -0.328174 15.1297
11.1585 -0.227943 15.1284
11.1247 -0.127712 15.127
11.091 -0.0274827 15.1256
11.0573 0.0727468 15.1243
11.1179 0.211463 15.1253
11.0842 0.311694 15.124
11.0505 0.411923 15.1226
11.0168 0.512154 15.1212
11.0774 0.65087 15.1223
11.0437 0.7511 15.1209
11.01 0.85133 15.1196
10.9763 0.951561 15.1182
10.9426 1.05179 15.1168
10.9088 1.15202 15.1154
10.8751 1.25225 15.1141
10.8414 1.35248 15.1127
10.8077 1.45271 15.1114
10.774 1.55294 15.11
10.7402 1.65317 15.1086
10.7065 1.7534 15.1073
10.6728 1.85363 15.1059
10.6391 1.95386 15.1045
10.6054 2.05409 15.1032
10.5717 2.15432 15.1018
10.5379 2.25455 15.1004
10.5042 2.35478 15.0991
10.4705 2.45501 15.0977
10.4368 2.55524 15.0963
10.4031 2.65547 15.095
10.3694 2.7557 15.0936
10.3356 2.85593 15.0922
10.3019 2.95616 15.0909
10.1739 3.0179 15.0871
10.1401 3.11813 15.0857
10.1064 3.21836 15.0843
10.0727 3.31859 15.083
10.039 3.41882 15.0816
9.91092 3.48056 15.0778
9.87721 3.58079 15.0765
9.84349 3.68102 15.0751
9.80978 3.78125 15.0737
9.77606 3.88148 15.0724
9.74234 3.98171 15.071
9.70862 4.08194 15.0696
9.67491 4.18217 15.0683
9.54684 4.24392 15.0645
9.51313 4.34415 15.0631
9.47941 4.44438 15.0617
9.44569 4.54461 15.0604
9.41197 4.64484 15.059
9.37826 4.74507 15.0576
9.25019 4.80681 15.0538
9.21647 4.90704 15.0525
9.18276 5.00727 15.0511
9.05469 5.06901 15.0473
9.02098 5.16924 15.046
8.98726 5.26947 15.0446
8.85919 5.33122 15.0408
8.73113 5.39296 15.037
8.69741 5.49319 15.0357
8.56934 5.55493 15.0319
8.53562 5.65516 15.0305
8.50191 5.75539 15.0291
8.37384 5.81714 15.0253
8.34012 5.91737 15.024
8.21206 5.97911 15.0202
8.08399 6.04086 15.0164
7.95592 6.1026 15.0126
7.92221 6.20283 15.0112
7.60545 6.1876 15.0026
7.47738 6.24934 14.9988
7.44366 6.34957 14.9975
7.40995 6.4498 14.9961
7.37623 6.55003 14.9947
7.34251 6.65026 14.9934
7.21444 6.71201 14.9896
10.9631 0.539797 15.1111
10.9462 0.690248 15.1121
10.9294 0.840696 15.1132
10.9125 0.991141 15.1142
11.0206 1.3026 15.1201
11.0038 1.45305 15.1212
10.9869 1.6035 15.1223
10.9076 1.67344 15.1209
10.8908 1.82389 15.1219
10.8114 1.89383 15.1206
10.7321 1.96378 15.1192
10.7153 2.11422 15.1203
10.636 2.18416 15.1189
10.5567 2.2541 15.1175
10.5398 2.40456 15.1186
10.5854 2.63551 15.1221
10.5061 2.70545 15.1207
10.4893 2.8559 15.1218
10.4724 3.00635 15.1228
10.4556 3.15679 15.1239
10.4387 3.30724 15.1249
10.3594 3.37719 15.1236
10.3425 3.52763 15.1246
10.2632 3.59758 15.1233
10.1839 3.66752 15.1219
10.1671 3.81797 15.123
10.0878 3.88791 15.1216
10.0709 4.03836 15.1226
9.99159 4.1083 15.1213
9.97474 4.25875 15.1223
9.89542 4.32869 15.121
9.87858 4.47914 15.122
9.79926 4.54908 15.1207
9.78241 4.69953 15.1217
9.7031 4.76948 15.1203
9.68625 4.91993 15.1214
9.6694 5.07037 15.1225
9.59008 5.14031 15.1211
9.57323 5.29076 15.1221
9.49392 5.36071 15.1208
9.41461 5.43065 15.1194
9.33529 5.50059 15.1181
9.31844 5.65104 15.1191
9.23913 5.72098 15.1178
9.15981 5.79093 15.1164
9.08049 5.86087 15.115
9.00118 5.93081 15.1136
8.92187 6.00076 15.1123
8.84255 6.0707 15.1109
8.76324 6.14064 15.1095
8.74639 6.29109 15.1106
8.66707 6.36103 15.1092
8.58776 6.43098 15.1079
8.50844 6.50092 15.1065
8.42913 6.57086 15.1051
8.34981 6.6408 15.1038
8.2705 6.71075 15.1024
8.19118 6.78069 15.101
8.11187 6.85063 15.0997
8.03255 6.92058 15.0983
7.95324 6.99052 15.0969
7.87392 7.06046 15.0956
7.79461 7.13041 15.0942
7.71529 7.20035 15.0928
7.63598 7.2703 15.0915
7.55667 7.34024 15.0901
7.47735 7.41018 15.0887
7.39804 7.48012 15.0874
7.31872 7.55007 15.086
7.2394 7.62001 15.0847
7.09763 7.60945 15.0809
7.01831 7.67939 15.0795
6.939 7.74933 15.0781
6.85968 7.81928 15.0768
6.78037 7.88922 15.0754
6.70105 7.95916 15.074
6.62174 8.02911 15.0727
6.54242 8.09905 15.0713
6.40064 8.08849 15.0675
6.32133 8.15843 15.0661
6.24201 8.22837 15.0648
6.1627 8.29832 15.0634
6.08338 8.36826 15.062
5.9416 8.3577 15.0583
5.67489 8.18613 15.0496
5.47064 8.09506 15.0434
5.32887 8.0845 15.0396
5.06215 7.91293 15.031
4.98284 7.98287 15.0296
4.90352 8.05281 15.0283
4.76174 8.04225 15.0245
4.68243 8.1122 15.0231
4.54065 8.10164 15.0193
4.39887 8.09107 15.0155
4.06969 7.839 15.0045
3.92791 7.82844 15.0007
3.8486 7.89838 14.9993
3.76928 7.96832 14.9979
3.6275 7.95776 14.9942
3.54819 8.0277 14.9928
3.40641 8.01715 14.989
3.01477 7.68456 14.9755
2.87298 7.674 14.9717
2.7312 7.66344 14.9679
2.58942 7.65288 14.9641
2.38518 7.56181 14.9579
8.7267 5.42697 15.091
8.69227 5.95265 15.1018
8.6163 6.17547 15.1053
8.51263 6.19638 15.1039
8.42282 6.31825 15.105
8.31916 6.33916 15.1036
8.25703 6.66294 15.1095
8.16722 6.78481 15.1106
8.06356 6.80572 15.1092
7.97374 6.92758 15.1103
7.87008 6.9485 15.1089
7.76642 6.96941 15.1075
7.6766 7.09128 15.1086
7.58679 7.21315 15.1096
7.58004 7.94073 15.1252
7.47638 7.96164 15.1239
7.38656 8.08351 15.1249
7.2829 8.10443 15.1236
7.17924 8.12534 15.1222
7.07558 8.14625 15.1208
6.97192 8.16717 15.1195
6.86826 8.18809 15.1181
6.7646 8.209 15.1167
6.66094 8.22991 15.1154
6.55728 8.25083 15.114
6.46746 8.3727 15.1151
6.36381 8.39361 15.1137
6.26014 8.41453 15.1123
6.15648 8.43544 15.111
6.05282 8.45636 15.1096
5.94916 8.47727 15.1082
5.8455 8.49819 15.1069
5.74184 8.5191 15.1055
5.65203 8.64097 15.1066
5.54837 8.66189 15.1052
5.44471 8.6828 15.1038
5.3272 8.60276 15.1
5.22354 8.62368 15.0987
5.11988 8.64459 15.0973
5.01622 8.66551 15.0959
4.91256 8.68642 15.0946
4.79506 8.60639 15.0908
4.6914 8.6273 15.0894
4.60158 8.74917 15.0905
4.49792 8.77008 15.0891
4.39426 8.791 15.0877
4.2906 8.81191 15.0864
4.1731 8.73188 15.0826
4.06944 8.75279 15.0812
3.96578 8.77371 15.0798
3.84827 8.69367 15.0761
3.74461 8.71459 15.0747
3.64095 8.7355 15.0733
3.53729 8.75642 15.072
3.41979 8.67638 15.0682
3.31613 8.6973 15.0668
3.21247 8.71821 15.0654
3.09496 8.63817 15.0617
2.9913 8.65909 15.0603
2.8738 8.57905 15.0565
2.77014 8.59997 15.0551
2.65263 8.51993 15.0513
2.54897 8.54085 15.05
2.44531 8.56176 15.0486
2.32781 8.48173 15.0448
2.2103 8.40168 15.041
2.10664 8.4226 15.0397
1.98914 8.34257 15.0359
1.88548 8.36348 15.0345
1.76797 8.28344 15.0307
1.66431 8.30436 15.0294
1.54681 8.22432 15.0256
1.44315 8.24524 15.0242
1.32565 8.16521 15.0204
1.20814 8.08517 15.0166
1.07679 7.90417 15.0104
0.959288 7.82414 15.0066
0.855627 7.84505 15.0053
0.738123 7.76502 15.0015
5.51439 8.53767 15.0796
5.33719 8.69265 15.083
5.19847 8.75328 15.0841
5.05976 8.81392 15.0852
4.95953 8.7802 15.0838
4.82081 8.84083 15.0848
4.68209 8.90147 15.0859
4.54338 8.96209 15.087
4.40466 9.02273 15.088
4.30443 8.98901 15.0867
4.2042 8.95529 15.0853
4.06548 9.01593 15.0863
3.96525 8.98221 15.085
3.86502 8.94849 15.0836
3.72631 9.00912 15.0847
3.62608 8.97541 15.0833
3.48736 9.03604 15.0844
3.38713 9.00232 15.083
3.2869 8.9686 15.0816
3.18667 8.93489 15.0803
3.08644 8.90117 15.0789
2.94773 8.96181 15.08
2.8475 8.92809 15.0786
2.74727 8.89437 15.0772
2.64704 8.86065 15.0759
2.50832 8.92128 15.0769
2.40809 8.88756 15.0755
2.30786 8.85385 15.0742
2.20763 8.82013 15.0728
2.1074 8.78642 15.0714
2.00717 8.7527 15.0701
1.90694 8.71898 15.0687
1.80671 8.68526 15.0674
1.70648 8.65155 15.066
1.56776 8.71218 15.067
1.46753 8.67847 15.0657
1.36731 8.64475 15.0643
1.26707 8.61103 15.0629
1.16684 8.57731 15.0616
1.06661 8.5436 15.0602
0.966384 8.50988 15.0588
0.866155 8.47616 15.0575
0.765924 8.44245 15.0561
0.665695 8.40873 15.0547
0.565464 8.37501 15.0534
0.465235 8.34129 15.052
0.365006 8.30758 15.0506
0.264775 8.27386 15.0493
0.164544 8.24014 15.0479
0.0643146 8.20643 15.0466
-0.0359137 8.17271 15.0452
-0.136145 8.13899 15.0438
-0.236374 8.10528 15.0424
-0.336604 8.07156 15.0411
-0.436836 8.03784 15.0397
-0.537064 8.00412 15.0383
-0.637294 7.97041 15.037
-0.737524 7.93669 15.0356
-0.837754 7.90298 15.0343
-0.937985 7.86926 15.0329
-1.03821 7.83554 15.0315
-1.13844 7.80182 15.0302
-1.23867 7.76811 15.0288
-1.33891 7.73439 15.0274
-1.43913 7.70067 15.0261
-1.53936 7.66695 15.0247
-1.63959 7.63324 15.0233
-1.70134 7.50517 15.0195
-1.80157 7.47145 15.0182
-1.9018 7.43773 15.0168
-2.00202 7.40402 15.0154
-2.06377 7.27596 15.0116
-2.164 7.24224 15.0103
-2.26423 7.20852 15.0089
-2.32597 7.08045 15.0051
-2.4262 7.04673 15.0038
-2.48795 6.91867 15
-2.58818 6.88495 14.9986
-2.64992 6.75689 14.9948
-2.75015 6.72317 14.9935
-2.85038 6.68946 14.9921
-2.91212 6.56139 14.9883
-2.97387 6.43332 14.9845
-3.03561 6.30526 14.9807
-3.05887 6.08284 14.9745
-3.12061 5.95477 14.9707
-3.18236 5.82671 14.9669
-3.28259 5.79299 14.9656
-3.34433 5.66492 14.9618
-3.44456 5.63121 14.9604
-3.5063 5.50314 14.9566
-3.60653 5.46942 14.9552
0.0211539 8.52405 15.0421
-0.129294 8.5072 15.0432
-0.199235 8.42789 15.0418
-0.349683 8.41104 15.0429
-0.500131 8.39419 15.0439
-0.570075 8.31488 15.0425
-0.720523 8.29803 15.0436
-0.790464 8.21871 15.0422
-0.860409 8.1394 15.0409
-0.930351 8.06008 15.0395
-1.0003 7.98077 15.0381
-1.07024 7.90145 15.0368
-1.22068 7.8846 15.0378
-1.37114 7.86776 15.0389
-1.52158 7.85091 15.0399
-1.67203 7.83406 15.041
-1.74197 7.75474 15.0396
-1.89242 7.73789 15.0407
-1.96236 7.65858 15.0393
-2.03231 7.57926 15.038
-2.18275 7.56241 15.039
-2.25269 7.4831 15.0377
-2.32264 7.40378 15.0363
-2.47309 7.38694 15.0373
-2.54303 7.30762 15.036
-2.61298 7.22831 15.0346
-2.76342 7.21146 15.0357
-2.83337 7.13214 15.0343
-2.90331 7.05283 15.0329
-2.97325 6.97351 15.0316
-3.04319 6.8942 15.0302
-3.11314 6.81488 15.0288
-3.18308 6.73557 15.0275
-3.33353 6.71872 15.0285
-3.40347 6.63941 15.0272
-3.47341 6.56009 15.0258
-3.54336 6.48078 15.0244
-3.6133 6.40146 15.0231
-3.68325 6.32215 15.0217
-3.75319 6.24283 15.0203
-3.82313 6.16352 15.019
-3.97358 6.14667 15.02
-4.04352 6.06735 15.0187
-4.11347 5.98804 15.0173
-4.18341 5.90873 15.0159
-4.17285 5.76694 15.0121
-4.24279 5.68763 15.0108
-4.31273 5.60832 15.0094
-4.38268 5.529 15.008
-4.45262 5.44969 15.0067
-4.52256 5.37037 15.0053
-4.59251 5.29106 15.0039
-4.58195 5.14928 15.0002
-4.65189 5.06996 14.9988
-4.72183 4.99064 14.9974
-4.79177 4.91133 14.996
-4.86172 4.83202 14.9947
-4.93166 4.7527 14.9933
-5.00161 4.67339 14.992
-4.99104 4.53161 14.9882
-5.06099 4.45229 14.9868
-5.13093 4.37298 14.9854
-5.20087 4.29367 14.9841
-5.27082 4.21435 14.9827
-5.26025 4.07257 14.9789
-5.33019 3.99325 14.9776
-5.40014 3.91394 14.9762
-5.38958 3.77216 14.9724
-5.37902 3.63038 14.9686
-5.04853 4.94631 15.0166
-5.1704 4.8565 15.0177
-5.29226 4.76668 15.0187
-5.41413 4.67686 15.0198
-5.43505 4.5732 15.0184
-5.45597 4.46954 15.017
-5.47688 4.36588 15.0157
-5.59874 4.27607 15.0167
-5.61966 4.17241 15.0154
-5.64057 4.06875 15.014
-5.76245 3.97893 15.015
-5.78336 3.87527 15.0137
-5.80427 3.77161 15.0123
-5.92614 3.6818 15.0134
-5.94706 3.57814 15.012
-5.96797 3.47448 15.0106
-5.98889 3.37082 15.0093
-6.0098 3.26715 15.0079
-6.03072 3.1635 15.0065
-6.05163 3.05984 15.0052
-6.07255 2.95618 15.0038
-6.09346 2.85251 15.0024
-6.11438 2.74885 15.0011
-6.03434 2.63135 14.9973
-6.05526 2.52769 14.9959
-6.07617 2.42403 14.9946
-6.09708 2.32037 14.9932
-6.118 2.21671 14.9918
-6.13892 2.11305 14.9905
-6.05888 1.99554 14.9867
-6.07979 1.89188 14.9853
-6.10071 1.78823 14.9839
-6.12162 1.68456 14.9826
-6.14254 1.5809 14.9812
-6.16345 1.47724 14.9798
-6.18437 1.37358 14.9785
-6.20528 1.26992 14.9771
-6.12525 1.15242 14.9733
-6.14617 1.04876 14.972
-6.16708 0.945099 14.9706
-6.08704 0.827594 14.9668
-6.10795 0.723935 14.9654
-6.12887 0.620273 14.9641
-6.14979 0.516614 14.9627
-6.06975 0.39911 14.9589
-6.09066 0.29545 14.9576
-6.11158 0.191791 14.9562
-6.03154 0.0742837 14.9524
-6.05246 -0.0293759 14.951
-6.07337 -0.133038 14.9497
-6.09429 -0.236696 14.9483
-6.1152 -0.340357 14.9469
-6.13612 -0.444017 14.9456
-6.05608 -0.56152 14.9418
-6.077 -0.665182 14.9404
-6.09791 -0.768842 14.939
-6.11883 -0.872501 14.9377
-6.03879 -0.990004 14.9339
-6.05971 -1.09366 14.9325
-5.97967 -1.21117 14.9287
-5.89963 -1.32867 14.9249
-6.58889 0.040231 15.002
-6.64952 -0.0984843 15.0031
-6.6158 -0.198714 15.0017
-6.67644 -0.337431 15.0027
-6.64272 -0.437662 15.0014
-6.70335 -0.576377 15.0024
-6.66963 -0.676609 15.0011
-6.73026 -0.815322 15.0021
-6.69655 -0.915554 15.0008
-6.66283 -1.01578 14.9994
-6.62911 -1.11601 14.998
-6.59539 -1.21624 14.9967
-6.56168 -1.31647 14.9953
-6.52796 -1.4167 14.9939
-6.49424 -1.51693 14.9926
-6.46053 -1.61716 14.9912
-6.42681 -1.71739 14.9898
-6.39309 -1.81762 14.9885
-6.35938 -1.91785 14.9871
-6.32566 -2.01808 14.9857
-6.29194 -2.11831 14.9844
-6.25822 -2.21854 14.983
-6.22451 -2.31877 14.9816
-6.19079 -2.419 14.9803
-6.15707 -2.51923 14.9789
-6.12336 -2.61946 14.9776
-6.08964 -2.71969 14.9762
-6.05592 -2.81992 14.9748
-6.02221 -2.92015 14.9734
-5.98849 -3.02038 14.9721
-5.95477 -3.12061 14.9707
-5.82671 -3.18236 14.9669
-5.79299 -3.28259 14.9656
-5.75927 -3.38282 14.9642
-5.72556 -3.48304 14.9628
-5.69184 -3.58328 14.9615
-5.65812 -3.68351 14.9601
-5.62441 -3.78374 14.9587
-5.59069 -3.88397 14.9574
-5.55697 -3.9842 14.956
-5.52326 -4.08442 14.9546
-5.48954 -4.18465 14.9533
-5.45582 -4.28488 14.9519
-5.32775 -4.34663 14.9481
-5.29404 -4.44686 14.9467
-5.26032 -4.54709 14.9454
-5.22661 -4.64732 14.944
-5.19289 -4.74755 14.9426
-5.15917 -4.84778 14.9413
-5.12545 -4.94801 14.9399
-5.09174 -5.04824 14.9386
-4.96367 -5.10998 14.9348
-4.92995 -5.21021 14.9334
-4.89623 -5.31044 14.932
-4.86252 -5.41067 14.9307
-4.8288 -5.5109 14.9293
-4.79508 -5.61113 14.9279
-4.66702 -5.67287 14.9241
-4.6333 -5.77311 14.9228
-4.59959 -5.87333 14.9214
-4.56587 -5.97357 14.92
-4.53215 -6.07379 14.9187
-4.49843 -6.17402 14.9173
-4.46472 -6.27425 14.9159
-4.33665 -6.336 14.9122
-4.30293 -6.43623 14.9108
-4.26922 -6.53646 14.9094
-4.2355 -6.63668 14.9081
-4.10743 -6.69843 14.9043
-4.07372 -6.79866 14.9029
-3.94565 -6.8604 14.8991
-3.81758 -6.92215 14.8953
-3.78387 -7.02238 14.894
-3.75015 -7.12261 14.8926
-3.71643 -7.22284 14.8912
-3.68272 -7.32307 14.8899
-3.649 -7.4233 14.8885
-3.61528 -7.52353 14.8871
-3.48722 -7.58527 14.8833
-3.4535 -7.6855 14.882
-3.32543 -7.74724 14.8782
-3.29171 -7.84747 14.8768
-3.258 -7.9477 14.8755
-3.12993 -8.00945 14.8717
-3.09622 -8.10968 14.8703
-3.0625 -8.20991 14.8689
-2.93443 -8.27165 14.8651
-5.62023 -4.84458 15.015
-5.54092 -4.91452 15.0136
-5.52407 -5.06497 15.0147
-5.44475 -5.13492 15.0133
-5.36544 -5.20486 15.012
-5.28612 -5.2748 15.0106
-5.20681 -5.34474 15.0092
-5.18996 -5.49519 15.0103
-5.11065 -5.56514 15.0089
-5.09379 -5.71558 15.01
-5.01448 -5.78552 15.0086
-4.99763 -5.93598 15.0097
-4.91832 -6.00592 15.0083
-4.90147 -6.15637 15.0094
-4.82215 -6.22631 15.008
-4.74284 -6.29625 15.0066
-4.66353 -6.3662 15.0053
-4.58421 -6.43614 15.0039
-4.5049 -6.50608 15.0025
-4.48805 -6.65653 15.0036
-4.4712 -6.80698 15.0046
-4.45435 -6.95743 15.0057
-4.37503 -7.02737 15.0043
-4.35818 -7.17782 15.0054
-4.27887 -7.24776 15.004
-4.26202 -7.39821 15.0051
-4.18271 -7.46815 15.0037
-4.16586 -7.6186 15.0048
-4.08654 -7.68854 15.0034
-4.00723 -7.75848 15.002
-3.92791 -7.82843 15.0007
-3.91107 -7.97888 15.0017
-3.83175 -8.04882 15.0004
-3.75244 -8.11876 14.999
-3.67312 -8.18871 14.9976
-3.65627 -8.33915 14.9987
-3.57696 -8.4091 14.9973
-3.49764 -8.47904 14.996
-3.41832 -8.54898 14.9946
-3.33901 -8.61892 14.9932
-3.2597 -8.68887 14.9919
-3.18038 -8.75881 14.9905
-3.10107 -8.82875 14.9891
-3.02175 -8.8987 14.9878
-2.94244 -8.96864 14.9864
-2.86312 -9.03858 14.985
-2.78381 -9.10853 14.9837
-2.70449 -9.17847 14.9823
-2.62518 -9.24841 14.9809
-2.60833 -9.39886 14.982
-2.52902 -9.46881 14.9806
-2.4497 -9.53875 14.9792
-2.30792 -9.52818 14.9755
-2.2286 -9.59813 14.9741
-2.14929 -9.66807 14.9727
-2.06998 -9.73802 14.9714
-1.99066 -9.80796 14.97
-1.91135 -9.8779 14.9686
-1.83203 -9.94784 14.9673
-1.75272 -10.0178 14.9659
-1.6734 -10.0877 14.9645
-1.59409 -10.1577 14.9632
-1.51477 -10.2276 14.9618
-1.43546 -10.2976 14.9604
-1.35614 -10.3675 14.9591
-1.27683 -10.4374 14.9577
-1.19751 -10.5074 14.9563
-1.05574 -10.4968 14.9526
-0.976423 -10.5668 14.9512
-0.897109 -10.6367 14.9498
-0.817794 -10.7067 14.9485
-0.676009 -10.6961 14.9447
-0.596694 -10.766 14.9433
-0.51738 -10.836 14.9419
-0.438066 -10.9059 14.9406
-0.296287 -10.8954 14.9368
-0.216971 -10.9653 14.9354
-0.137656 -11.0353 14.9341
0.00412035 -11.0247 14.9303
0.0834346 -11.0946 14.9289
0.225221 -11.0841 14.9251
