ply
format ascii 1.0
comment VCGLIB generated
element vertex 995
property float x
property float y
property float z
element face 0
property list uchar int vertex_indices
end_header
3.19246 -11.9527 16.1631
3.34291 -11.9358 16.1642
3.65437 -12.0439 16.1701
3.80481 -12.0271 16.1711
3.95526 -12.0102 16.1722
4.10571 -11.9934 16.1733
4.33666 -12.039 16.1767
4.48711 -12.0221 16.1778
4.63756 -12.0053 16.1789
4.788 -11.9884 16.1799
4.93845 -11.9716 16.181
5.00839 -11.8923 16.1796
5.15884 -11.8754 16.1807
5.30929 -11.8586 16.1817
5.45974 -11.8417 16.1828
5.61019 -11.8249 16.1838
5.76063 -11.808 16.1849
5.83058 -11.7287 16.1835
5.98102 -11.7119 16.1846
6.05097 -11.6325 16.1832
6.12091 -11.5532 16.1819
6.19086 -11.4739 16.1805
6.3413 -11.4571 16.1815
6.41124 -11.3777 16.1802
6.56169 -11.3609 16.1812
6.63164 -11.2816 16.1799
6.70158 -11.2023 16.1785
6.85203 -11.1854 16.1796
7.00247 -11.1686 16.1806
7.15292 -11.1517 16.1817
7.22287 -11.0724 16.1803
7.37331 -11.0556 16.1814
7.52376 -11.0387 16.1824
7.5937 -10.9594 16.1811
7.74415 -10.9425 16.1821
7.8141 -10.8632 16.1807
7.88404 -10.7839 16.1794
7.95398 -10.7046 16.178
8.10443 -10.6877 16.1791
8.17437 -10.6084 16.1777
8.24432 -10.5291 16.1763
8.31426 -10.4498 16.175
8.3842 -10.3705 16.1736
8.45414 -10.2912 16.1722
8.52409 -10.2119 16.1709
8.59403 -10.1325 16.1695
8.74448 -10.1157 16.1706
8.81442 -10.0364 16.1692
8.88437 -9.95707 16.1678
8.95431 -9.87775 16.1665
9.02425 -9.79844 16.1651
9.0942 -9.71912 16.1637
9.16414 -9.63981 16.1624
9.23408 -9.56049 16.161
9.30403 -9.48118 16.1596
9.37397 -9.40186 16.1583
9.44391 -9.32255 16.1569
9.51385 -9.24323 16.1555
9.5838 -9.16392 16.1542
9.65374 -9.08461 16.1528
9.72369 -9.00529 16.1514
9.79363 -8.92597 16.1501
9.86357 -8.84666 16.1487
9.93351 -8.76735 16.1473
10.0035 -8.68803 16.146
10.0734 -8.60872 16.1446
10.1433 -8.5294 16.1432
10.2133 -8.45009 16.1419
10.2832 -8.37077 16.1405
10.2727 -8.22899 16.1367
10.3426 -8.14968 16.1354
10.4126 -8.07036 16.134
10.4825 -7.99105 16.1326
10.5524 -7.91173 16.1313
10.6224 -7.83242 16.1299
10.6923 -7.7531 16.1285
10.6818 -7.61132 16.1247
10.7517 -7.53201 16.1234
10.8217 -7.4527 16.122
10.8916 -7.37338 16.1206
10.881 -7.2316 16.1169
10.8705 -7.08982 16.1131
10.8599 -6.94804 16.1093
10.9299 -6.86873 16.1079
10.8388 -6.66448 16.1017
10.8282 -6.5227 16.0979
10.8177 -6.38092 16.0941
10.8876 -6.3016 16.0928
10.877 -6.15982 16.089
10.8665 -6.01804 16.0852
10.9364 -5.93873 16.0838
10.9259 -5.79695 16.08
10.9153 -5.65517 16.0762
10.9852 -5.57586 16.0749
10.9747 -5.43407 16.0711
10.8836 -5.22983 16.0649
10.8731 -5.08805 16.0611
10.943 -5.00873 16.0597
10.9324 -4.86695 16.0559
10.9219 -4.72517 16.0521
10.9113 -4.58339 16.0483
10.9008 -4.44161 16.0446
10.8097 -4.23737 16.0383
10.7991 -4.09559 16.0345
10.7081 -3.89134 16.0283
10.6975 -3.74956 16.0246
10.6869 -3.60778 16.0208
10.5959 -3.40353 16.0145
10.5048 -3.19929 16.0083
10.4137 -2.99504 16.0021
6.64119 -11.4499 16.165
6.76306 -11.3601 16.1661
6.78398 -11.2564 16.1647
6.90584 -11.1666 16.1658
7.02771 -11.0768 16.1668
7.55339 -11.0424 16.1776
7.67525 -10.9525 16.1786
7.69617 -10.8489 16.1773
7.81803 -10.7591 16.1783
7.9399 -10.6692 16.1794
8.06177 -10.5794 16.1805
8.08268 -10.4758 16.1791
8.20455 -10.386 16.1801
8.42737 -10.31 16.1836
8.54923 -10.2202 16.1847
8.6711 -10.1304 16.1857
8.79297 -10.0405 16.1868
8.91484 -9.95072 16.1879
9.0367 -9.86091 16.1889
9.15857 -9.77109 16.19
9.17949 -9.66743 16.1886
9.30135 -9.57761 16.1897
9.42322 -9.4878 16.1907
9.44413 -9.38414 16.1893
9.566 -9.29432 16.1904
9.68787 -9.20451 16.1915
9.91069 -9.12854 16.1949
10.0326 -9.03872 16.196
10.1544 -8.9489 16.1971
10.2763 -8.85909 16.1981
10.2972 -8.75543 16.1967
10.4191 -8.66561 16.1978
10.44 -8.56195 16.1964
10.5619 -8.47214 16.1975
10.5828 -8.36848 16.1961
10.7046 -8.27866 16.1972
10.7255 -8.175 16.1958
10.7465 -8.07134 16.1945
10.8683 -7.98152 16.1955
10.8892 -7.87786 16.1942
10.9102 -7.7742 16.1928
10.9311 -7.67054 16.1914
10.952 -7.56688 16.19
10.9729 -7.46322 16.1887
10.9938 -7.35956 16.1873
11.1157 -7.26975 16.1884
11.1366 -7.16609 16.187
11.1575 -7.06243 16.1856
11.1784 -6.95877 16.1843
11.1994 -6.85511 16.1829
11.2203 -6.75145 16.1815
11.2412 -6.64779 16.1802
11.2621 -6.54413 16.1788
11.283 -6.44047 16.1774
11.3039 -6.3368 16.1761
11.3248 -6.23315 16.1747
11.3458 -6.12949 16.1733
11.3667 -6.02582 16.172
11.3876 -5.92216 16.1706
11.4085 -5.8185 16.1693
11.3285 -5.701 16.1655
11.3494 -5.59734 16.1641
11.3703 -5.49368 16.1627
11.3912 -5.39002 16.1614
11.4121 -5.28636 16.16
11.433 -5.1827 16.1586
11.353 -5.06519 16.1548
11.3739 -4.96153 16.1535
11.3948 -4.85787 16.1521
11.4157 -4.75421 16.1507
11.4367 -4.65055 16.1494
11.4576 -4.54689 16.148
11.3775 -4.42939 16.1442
11.3985 -4.32573 16.1429
11.3184 -4.20823 16.1391
11.3393 -4.10457 16.1377
11.2593 -3.98706 16.1339
11.2802 -3.8834 16.1325
11.2002 -3.7659 16.1288
11.1201 -3.64839 16.125
11.0401 -3.53089 16.1212
10.9601 -3.41338 16.1174
10.981 -3.30972 16.116
11.0019 -3.20606 16.1147
11.0228 -3.1024 16.1133
11.0437 -2.99874 16.1119
10.9637 -2.88124 16.1081
10.9846 -2.77758 16.1068
10.9046 -2.66007 16.103
10.9255 -2.55641 16.1016
10.9464 -2.45275 16.1003
10.9673 -2.34909 16.0989
10.8873 -2.23159 16.0951
10.9082 -2.12793 16.0937
10.9291 -2.02427 16.0924
10.8491 -1.90676 16.0886
10.87 -1.8031 16.0872
10.79 -1.6856 16.0834
10.7099 -1.56809 16.0796
10.7308 -1.46443 16.0783
10.7517 -1.36077 16.0769
10.6717 -1.24327 16.0731
10.6926 -1.13961 16.0717
10.6126 -1.0221 16.0679
10.6335 -0.918444 16.0666
10.5535 -0.80094 16.0628
10.5744 -0.697279 16.0614
10.5953 -0.593619 16.0601
10.5153 -0.476114 16.0563
10.5362 -0.372456 16.0549
10.4561 -0.254949 16.0511
10.4771 -0.151289 16.0498
10.498 -0.0476298 16.0484
10.5189 0.0560322 16.047
10.5398 0.159692 16.0457
10.5607 0.263351 16.0443
10.5816 0.367011 16.0429
10.5016 0.484514 16.0391
10.2196 0.629709 16.0305
10.1396 0.747213 16.0267
10.1605 0.850874 16.0253
10.0805 0.968378 16.0216
10.0005 1.08588 16.0178
10.0214 1.18954 16.0164
9.94133 1.30705 16.0126
9.96225 1.41071 16.0112
9.88221 1.52821 16.0075
9.90312 1.63187 16.0061
9.82309 1.74938 16.0023
9.844 1.85304 16.0009
9.76397 1.97054 15.9971
9.68393 2.08805 15.9934
9.60389 2.20555 15.9896
9.52386 2.32305 15.9858
9.44382 2.44056 15.982
9.46474 2.54422 15.9806
9.3847 2.66172 15.9768
9.40561 2.76538 15.9755
9.32558 2.88289 15.9717
9.24554 3.00039 15.9679
9.26645 3.10405 15.9665
8.78261 3.27693 15.953
8.80352 3.38059 15.9517
8.82444 3.48425 15.9503
8.84536 3.58791 15.9489
8.86627 3.69158 15.9476
8.88719 3.79524 15.9462
8.9081 3.8989 15.9448
8.82806 4.0164 15.9411
8.74803 4.1339 15.9373
8.66799 4.25141 15.9335
11.3282 -7.1117 16.1632
11.3888 -6.97298 16.1643
11.3551 -6.87275 16.1629
11.3214 -6.77252 16.1616
11.2877 -6.67229 16.1602
11.254 -6.57206 16.1588
11.2203 -6.47183 16.1575
11.3752 -6.29463 16.1609
11.7189 -6.04045 16.1693
11.7796 -5.90174 16.1703
11.7458 -5.80151 16.169
11.8065 -5.66279 16.17
11.8671 -5.52407 16.1711
11.8334 -5.42384 16.1697
11.894 -5.28512 16.1708
11.8603 -5.18489 16.1694
11.8266 -5.08467 16.168
11.7929 -4.98444 16.1667
11.7591 -4.88421 16.1653
11.7254 -4.78398 16.1639
11.7861 -4.64526 16.165
11.7523 -4.54503 16.1636
11.7186 -4.4448 16.1622
11.6849 -4.34457 16.1609
11.7455 -4.20585 16.1619
11.7118 -4.10562 16.1606
11.7725 -3.96691 16.1616
11.7387 -3.86668 16.1603
11.705 -3.76645 16.1589
11.6713 -3.66622 16.1575
11.6376 -3.56599 16.1562
11.6039 -3.46576 16.1548
11.6645 -3.32704 16.1559
11.6308 -3.22681 16.1545
11.5971 -3.12658 16.1531
11.5634 -3.02635 16.1518
11.5296 -2.92612 16.1504
11.4959 -2.82589 16.149
11.4622 -2.72566 16.1477
11.4285 -2.62543 16.1463
11.4891 -2.48671 16.1474
11.4554 -2.38649 16.146
11.4217 -2.28626 16.1446
11.388 -2.18603 16.1433
11.3542 -2.0858 16.1419
11.3205 -1.98557 16.1405
11.3812 -1.84685 16.1416
11.3474 -1.74662 16.1402
11.3137 -1.64639 16.1389
11.28 -1.54616 16.1375
11.2463 -1.44593 16.1361
11.3069 -1.30721 16.1372
11.2732 -1.20698 16.1358
11.2395 -1.10675 16.1344
11.2058 -1.00652 16.1331
11.2664 -0.867809 16.1341
11.2327 -0.767578 16.1328
11.199 -0.667349 16.1314
11.1653 -0.567118 16.13
11.1315 -0.466888 16.1287
11.0978 -0.36666 16.1273
11.0641 -0.266429 16.1259
11.0304 -0.166198 16.1246
10.9967 -0.0659688 16.1232
10.963 0.034261 16.1218
11.0236 0.172976 16.1229
10.9899 0.273207 16.1215
10.9562 0.373437 16.1202
11.0168 0.512154 16.1212
10.9831 0.612383 16.1199
10.9494 0.712612 16.1185
10.9156 0.812843 16.1171
10.8819 0.913074 16.1158
10.8482 1.0133 16.1144
10.9088 1.15202 16.1154
10.8751 1.25225 16.1141
10.8414 1.35248 16.1127
10.8077 1.45271 16.1114
10.774 1.55294 16.11
10.7402 1.65317 16.1086
10.7065 1.7534 16.1073
10.6728 1.85363 16.1059
10.5447 1.91537 16.1021
10.511 2.0156 16.1007
10.4773 2.11583 16.0994
10.4436 2.21606 16.098
10.4099 2.31629 16.0966
10.3762 2.41652 16.0953
10.3424 2.51675 16.0939
10.3087 2.61698 16.0925
10.275 2.71721 16.0912
10.1469 2.77895 16.0874
10.1132 2.87919 16.086
10.0795 2.97941 16.0847
10.0458 3.07964 16.0833
10.0121 3.17987 16.0819
9.97836 3.2801 16.0806
9.94464 3.38034 16.0792
9.91092 3.48056 16.0778
9.87721 3.58079 16.0765
9.74914 3.64254 16.0727
9.71543 3.74277 16.0713
9.68171 3.843 16.0699
9.64799 3.94323 16.0686
9.61427 4.04346 16.0672
9.58056 4.14369 16.0658
9.45249 4.20543 16.062
9.41878 4.30566 16.0607
9.38506 4.40589 16.0593
9.35134 4.50612 16.058
9.31763 4.60635 16.0566
9.18956 4.66809 16.0528
9.15584 4.76832 16.0514
9.12212 4.86855 16.0501
9.08841 4.96878 16.0487
9.05469 5.06901 16.0473
8.92663 5.13076 16.0435
8.89291 5.23099 16.0422
8.85919 5.33122 16.0408
8.73113 5.39296 16.037
8.60306 5.4547 16.0332
8.47499 5.51645 16.0294
8.44127 5.61668 16.0281
8.31321 5.67842 16.0243
8.27949 5.77865 16.0229
8.15143 5.84039 16.0191
8.11771 5.94063 16.0178
7.98964 6.00237 16.014
7.86158 6.06411 16.0102
7.73351 6.12586 16.0064
7.69979 6.22609 16.005
7.57173 6.28783 16.0012
7.53801 6.38806 15.9999
7.50429 6.48829 15.9985
7.37623 6.55003 15.9947
7.34251 6.65026 15.9934
7.21444 6.71201 15.9896
7.18073 6.81224 15.9882
6.95831 6.83549 15.982
6.7359 6.85875 15.9758
6.60783 6.92049 15.972
6.47976 6.98224 15.9682
10.9631 0.539797 16.1111
10.9462 0.690248 16.1121
10.9294 0.840696 16.1132
10.9125 0.991141 16.1142
10.9582 1.22209 16.1177
11.0038 1.45305 16.1212
10.9245 1.52299 16.1198
10.9076 1.67344 16.1209
10.8283 1.74338 16.1195
10.8114 1.89383 16.1206
10.7321 1.96378 16.1192
10.7153 2.11422 16.1203
10.636 2.18416 16.1189
10.5567 2.2541 16.1175
10.5398 2.40456 16.1186
10.4605 2.4745 16.1172
10.3812 2.54444 16.1159
10.4268 2.77539 16.1193
10.4099 2.92584 16.1204
10.3306 2.99579 16.119
10.3138 3.14623 16.1201
10.2345 3.21618 16.1187
10.2176 3.36662 16.1198
10.1383 3.43657 16.1184
10.1215 3.58701 16.1195
10.0421 3.65696 16.1181
10.0253 3.8074 16.1192
9.94597 3.87735 16.1178
9.86666 3.94729 16.1164
9.84981 4.09774 16.1175
9.83296 4.24819 16.1185
9.81611 4.39863 16.1196
9.73679 4.46858 16.1182
9.71995 4.61903 16.1193
9.64063 4.68897 16.1179
9.56132 4.75892 16.1166
9.482 4.82886 16.1152
9.46515 4.97931 16.1162
9.38584 5.04925 16.1149
9.30652 5.11919 16.1135
9.28967 5.26964 16.1146
9.27282 5.42009 16.1156
9.25597 5.57054 16.1167
9.17666 5.64048 16.1153
9.09735 5.71042 16.114
9.01803 5.78036 16.1126
9.00118 5.93081 16.1136
8.92187 6.00076 16.1123
8.84255 6.0707 16.1109
8.76324 6.14064 16.1095
8.68392 6.21058 16.1082
8.60461 6.28053 16.1068
8.52529 6.35047 16.1055
8.50844 6.50092 16.1065
8.42913 6.57086 16.1051
8.34981 6.6408 16.1038
8.2705 6.71075 16.1024
8.19118 6.78069 16.101
8.11187 6.85063 16.0997
8.03255 6.92058 16.0983
7.95324 6.99052 16.0969
7.87392 7.06046 16.0956
7.79461 7.13041 16.0942
7.71529 7.20035 16.0928
7.63598 7.2703 16.0915
7.55667 7.34024 16.0901
7.47735 7.41018 16.0887
7.39804 7.48012 16.0874
7.25626 7.46956 16.0836
7.17694 7.5395 16.0822
7.09763 7.60945 16.0809
7.01831 7.67939 16.0795
6.939 7.74933 16.0781
6.85968 7.81928 16.0768
6.78037 7.88922 16.0754
6.70105 7.95916 16.074
6.62174 8.02911 16.0727
6.54242 8.09905 16.0713
6.40064 8.08849 16.0675
6.32133 8.15843 16.0661
6.24201 8.22837 16.0648
6.10023 8.21781 16.061
5.83352 8.04624 16.0524
5.69174 8.03568 16.0486
5.54996 8.02512 16.0448
5.34571 7.93405 16.0386
5.20393 7.92349 16.0348
5.06215 7.91293 16.031
4.92037 7.90237 16.0272
4.84106 7.97231 16.0258
4.69928 7.96175 16.022
4.61996 8.03169 16.0207
4.47818 8.02113 16.0169
4.39887 8.09107 16.0155
4.19462 8.00001 16.0093
4.05284 7.98944 16.0055
3.91106 7.97889 16.0017
3.83175 8.04883 16.0004
3.68996 8.03827 15.9966
3.61065 8.10821 15.9952
3.46887 8.09765 15.9914
9.48676 4.7549 16.0899
9.39695 4.87676 16.0909
9.30713 4.99863 16.092
9.21732 5.12049 16.093
9.1275 5.24236 16.0941
9.03769 5.36423 16.0952
9.00325 5.88991 16.1059
8.91343 6.01177 16.107
8.82362 6.13364 16.108
8.71996 6.15455 16.1067
8.63014 6.27642 16.1077
8.52648 6.29733 16.1063
8.43666 6.4192 16.1074
8.333 6.44012 16.106
8.24319 6.56198 16.1071
8.15337 6.68385 16.1082
8.06356 6.80572 16.1092
7.9599 6.82663 16.1078
7.87008 6.9485 16.1089
7.76642 6.96941 16.1075
7.69045 7.19224 16.111
7.62832 7.516 16.1169
7.55235 7.73882 16.1204
7.46253 7.86069 16.1214
7.37272 7.98256 16.1225
7.26906 8.00347 16.1211
7.1654 8.02439 16.1198
7.07558 8.14625 16.1208
6.97192 8.16717 16.1195
6.86826 8.18809 16.1181
6.7646 8.209 16.1167
6.66094 8.22991 16.1154
6.55728 8.25083 16.114
6.45362 8.27174 16.1126
6.34996 8.29266 16.1113
6.2463 8.31357 16.1099
6.15648 8.43544 16.111
6.05282 8.45636 16.1096
5.94916 8.47727 16.1082
5.8455 8.49819 16.1069
5.74184 8.5191 16.1055
5.63818 8.54002 16.1041
5.53452 8.56093 16.1028
5.43086 8.58185 16.1014
5.3272 8.60276 16.1
5.2097 8.52273 16.0963
5.10604 8.54364 16.0949
5.00238 8.56456 16.0935
4.89872 8.58547 16.0921
4.79506 8.60639 16.0908
4.6914 8.6273 16.0894
4.58774 8.64822 16.088
4.48408 8.66913 16.0867
4.38042 8.69005 16.0853
4.27676 8.71096 16.084
4.1731 8.73188 16.0826
4.06944 8.75279 16.0812
3.96578 8.77371 16.0798
3.84827 8.69367 16.0761
3.74461 8.71459 16.0747
3.64095 8.7355 16.0733
3.53729 8.75642 16.072
3.41979 8.67638 16.0682
3.31613 8.6973 16.0668
3.21247 8.71821 16.0654
3.10881 8.73913 16.0641
2.9913 8.65909 16.0603
2.88764 8.68001 16.0589
2.78398 8.70092 16.0576
2.68032 8.72183 16.0562
2.57666 8.74275 16.0548
2.473 8.76367 16.0535
2.3555 8.68363 16.0497
2.2103 8.40168 16.041
2.0928 8.32165 16.0372
1.98914 8.34257 16.0359
1.87164 8.26253 16.0321
1.76797 8.28344 16.0307
1.66431 8.30436 16.0294
1.54681 8.22432 16.0256
1.44315 8.24524 16.0242
1.32565 8.16521 16.0204
1.22199 8.18612 16.019
1.11833 8.20703 16.0177
1.00082 8.12699 16.0139
0.89716 8.14791 16.0125
0.779656 8.06787 16.0087
0.675996 8.08879 16.0074
0.558492 8.00875 16.0036
0.454833 8.02967 16.0022
0.337326 7.94963 15.9984
0.219823 7.8696 15.9946
0.0746269 7.58765 15.986
-0.0428745 7.50761 15.9822
-0.160381 7.42758 15.9784
-0.26404 7.4485 15.9771
5.19847 8.75328 16.0841
5.05976 8.81392 16.0852
4.92104 8.87455 16.0862
4.74384 9.02953 16.0897
4.60512 9.09016 16.0907
4.4664 9.15079 16.0918
4.36617 9.11708 16.0904
4.26594 9.08336 16.0891
4.12723 9.14399 16.0901
4.027 9.11028 16.0888
3.92677 9.07656 16.0874
3.82654 9.04284 16.086
3.68782 9.10347 16.0871
3.58759 9.06976 16.0857
3.48736 9.03604 16.0844
3.38713 9.00232 16.083
3.2869 8.9686 16.0816
3.18667 8.93489 16.0803
3.08644 8.90117 16.0789
2.98621 8.86745 16.0775
2.88598 8.83373 16.0762
2.78575 8.80002 16.0748
2.64704 8.86065 16.0759
2.54681 8.82694 16.0745
2.44658 8.79322 16.0731
2.34635 8.7595 16.0717
2.24612 8.72579 16.0704
2.14589 8.69207 16.069
2.00717 8.7527 16.0701
1.90694 8.71898 16.0687
1.80671 8.68526 16.0674
1.70648 8.65155 16.066
1.60625 8.61783 16.0646
1.50602 8.58412 16.0632
1.40579 8.5504 16.0619
1.30556 8.51668 16.0605
1.20533 8.48296 16.0591
1.1051 8.44925 16.0578
1.00487 8.41553 16.0564
0.866155 8.47616 16.0575
0.765924 8.44245 16.0561
0.665695 8.40873 16.0547
0.565464 8.37501 16.0534
0.465235 8.34129 16.052
0.365006 8.30758 16.0506
0.264775 8.27386 16.0493
0.164544 8.24014 16.0479
0.0643146 8.20643 16.0466
-0.0743997 8.26706 16.0476
-0.17463 8.23334 16.0462
-0.27486 8.19963 16.0449
-0.37509 8.16591 16.0435
-0.475322 8.13219 16.0421
-0.57555 8.09847 16.0408
-0.637294 7.97041 16.037
-0.737524 7.93669 16.0356
-0.837754 7.90298 16.0343
-0.937985 7.86926 16.0329
-1.03821 7.83554 16.0315
-1.09996 7.70747 16.0277
-1.20019 7.67375 16.0264
-1.30042 7.64004 16.025
-1.40065 7.60632 16.0236
-1.50087 7.5726 16.0223
-1.60111 7.53889 16.0209
-1.66285 7.41082 16.0171
-1.76308 7.37711 16.0157
-1.86331 7.34339 16.0144
-1.96354 7.30967 16.013
-2.02528 7.1816 16.0092
-2.08703 7.05354 16.0054
-2.18726 7.01982 16.0041
-2.249 6.89176 16.0003
-2.34923 6.85804 15.9989
-2.41097 6.72997 15.9951
-2.5112 6.69626 15.9938
-2.61143 6.66254 15.9924
-2.71166 6.62882 15.991
-2.81189 6.5951 15.9897
-2.91212 6.56139 15.9883
-2.97387 6.43332 15.9845
-3.0741 6.39961 15.9831
-3.13584 6.27154 15.9794
-3.19758 6.14347 15.9756
-3.29782 6.10976 15.9742
-3.35956 5.98169 15.9704
-1.74197 7.75474 16.0396
-1.89242 7.73789 16.0407
-1.96236 7.65858 16.0393
-2.11281 7.64173 16.0404
-2.18275 7.56241 16.039
-2.25269 7.4831 16.0377
-2.40315 7.46625 16.0387
-2.47309 7.38694 16.0373
-2.54303 7.30762 16.036
-2.69348 7.29077 16.037
-2.76342 7.21146 16.0357
-2.83337 7.13214 16.0343
-2.90331 7.05283 16.0329
-3.05376 7.03598 16.034
-3.1237 6.95666 16.0326
-3.19364 6.87735 16.0313
-3.26359 6.79803 16.0299
-3.33353 6.71872 16.0285
-3.40347 6.63941 16.0272
-3.47341 6.56009 16.0258
-3.54336 6.48078 16.0244
-3.69381 6.46393 16.0255
-3.76375 6.38461 16.0241
-3.83369 6.3053 16.0228
-3.90364 6.22598 16.0214
-3.97358 6.14667 16.02
-4.04352 6.06735 16.0187
-4.11347 5.98804 16.0173
-4.18341 5.90873 16.0159
-4.25335 5.82941 16.0146
-4.3233 5.75009 16.0132
-4.39324 5.67078 16.0118
-4.46318 5.59147 16.0105
-4.53313 5.51215 16.0091
-4.60307 5.43284 16.0077
-4.67301 5.35352 16.0064
-4.74295 5.27421 16.005
-4.7324 5.13243 16.0012
-4.80234 5.05311 15.9998
-4.87228 4.9738 15.9985
-4.94222 4.89448 15.9971
-5.01217 4.81517 15.9957
-5.08211 4.73585 15.9944
-5.15205 4.65654 15.993
-5.14149 4.51476 15.9892
-5.21143 4.43544 15.9879
-5.28138 4.35613 15.9865
-5.27082 4.21435 15.9827
-5.34076 4.13503 15.9813
-5.33019 3.99325 15.9776
-5.31964 3.85147 15.9738
-5.38958 3.77216 15.9724
-5.37902 3.63038 15.9686
-5.36845 3.4886 15.9648
-5.35789 3.34682 15.961
-5.35139 4.98785 16.0239
-5.47325 4.89803 16.0249
-5.59512 4.80821 16.026
-5.61604 4.70455 16.0246
-5.63695 4.60089 16.0232
-5.65787 4.49723 16.0219
-5.77973 4.40742 16.0229
-5.80065 4.30376 16.0216
-5.82157 4.2001 16.0202
-5.84248 4.09644 16.0188
-5.96434 4.00662 16.0199
-5.98526 3.90296 16.0185
-6.00617 3.7993 16.0172
-6.02709 3.69564 16.0158
-6.14896 3.60583 16.0168
-6.16988 3.50216 16.0155
-6.19079 3.3985 16.0141
-6.2117 3.29484 16.0128
-6.23262 3.19118 16.0114
-6.25354 3.08752 16.01
-6.27445 2.98386 16.0087
-6.19441 2.86636 16.0049
-6.21532 2.7627 16.0035
-6.13529 2.6452 15.9997
-6.15621 2.54153 15.9984
-6.17712 2.43787 15.997
-6.09708 2.32037 15.9932
-6.118 2.21671 15.9918
-6.13892 2.11305 15.9905
-6.15983 2.00939 15.9891
-6.18075 1.90573 15.9877
-6.20166 1.80207 15.9864
-6.22258 1.69841 15.985
-6.14254 1.5809 15.9812
-6.16345 1.47724 15.9798
-6.18437 1.37358 15.9785
-6.20528 1.26992 15.9771
-6.2262 1.16626 15.9757
-6.24711 1.0626 15.9744
-6.26803 0.958943 15.973
-6.18799 0.841438 15.9692
-6.20891 0.737779 15.9678
-6.22983 0.634117 15.9665
-6.25074 0.530458 15.9651
-6.1707 0.412954 15.9613
-6.19161 0.309294 15.96
-6.21253 0.205634 15.9586
-6.23345 0.101973 15.9572
-6.15341 -0.0155303 15.9534
-6.17432 -0.119192 15.9521
-6.19524 -0.22285 15.9507
-6.21615 -0.326512 15.9493
-6.13612 -0.444017 15.9456
-6.15703 -0.547676 15.9442
-6.56227 1.87483 16.0093
-6.71725 1.69763 16.0128
-6.68353 1.5974 16.0114
-6.74416 1.45868 16.0125
-6.71044 1.35845 16.0111
-6.67673 1.25822 16.0098
-6.64301 1.15799 16.0084
-6.60929 1.05776 16.007
-6.66992 0.919044 16.0081
-6.73056 0.780327 16.0091
-6.79119 0.64161 16.0102
-6.85182 0.502897 16.0113
-6.8181 0.402666 16.0099
-6.78439 0.302436 16.0085
-6.84502 0.163719 16.0096
-6.90565 0.0250008 16.0106
-6.87193 -0.0752277 16.0093
-6.93256 -0.213943 16.0103
-6.89885 -0.314173 16.009
-6.86513 -0.414402 16.0076
-6.83141 -0.514633 16.0062
-6.7977 -0.614862 16.0049
-6.85833 -0.75358 16.0059
-6.82462 -0.853809 16.0046
-6.7909 -0.954041 16.0032
-6.75718 -1.05427 16.0018
-6.72346 -1.1545 16.0005
-6.68975 -1.25473 15.9991
-6.65603 -1.35496 15.9977
-6.62231 -1.45519 15.9964
-6.58859 -1.55542 15.995
-6.55488 -1.65565 15.9936
-6.52116 -1.75588 15.9923
-6.48745 -1.85611 15.9909
-6.45373 -1.95634 15.9895
-6.42001 -2.05657 15.9882
-6.38629 -2.1568 15.9868
-6.35258 -2.25703 15.9854
-6.31886 -2.35726 15.9841
-6.28514 -2.45749 15.9827
-6.25142 -2.55772 15.9813
-6.12336 -2.61946 15.9776
-6.08964 -2.71969 15.9762
-6.05592 -2.81992 15.9748
-6.02221 -2.92015 15.9734
-5.98849 -3.02038 15.9721
-5.95477 -3.12061 15.9707
-5.92105 -3.22084 15.9693
-5.88734 -3.32107 15.968
-5.85362 -3.4213 15.9666
-5.8199 -3.52153 15.9653
-5.78619 -3.62176 15.9639
-5.75247 -3.72199 15.9625
-5.71875 -3.82222 15.9612
-5.59069 -3.88397 15.9574
-5.55697 -3.9842 15.956
-5.52326 -4.08442 15.9546
-5.48954 -4.18465 15.9533
-5.45582 -4.28488 15.9519
-5.4221 -4.38511 15.9505
-5.38839 -4.48534 15.9492
-5.35467 -4.58558 15.9478
-5.32096 -4.6858 15.9464
-5.19289 -4.74755 15.9426
-5.15917 -4.84778 15.9413
-5.12545 -4.94801 15.9399
-5.09174 -5.04824 15.9386
-5.05802 -5.14847 15.9372
-5.0243 -5.2487 15.9358
-4.99059 -5.34893 15.9344
-4.95687 -5.44916 15.9331
-4.92315 -5.54939 15.9317
-4.79508 -5.61113 15.9279
-4.76136 -5.71136 15.9266
-4.72765 -5.81159 15.9252
-4.69393 -5.91182 15.9238
-4.56587 -5.97357 15.92
-4.53215 -6.07379 15.9187
-4.40408 -6.13554 15.9149
-4.37037 -6.23577 15.9135
-4.33665 -6.336 15.9122
-4.30293 -6.43623 15.9108
-4.26922 -6.53646 15.9094
-4.2355 -6.63668 15.9081
-4.20178 -6.73692 15.9067
-4.16807 -6.83715 15.9053
-4.04 -6.89889 15.9015
-4.00628 -6.99912 15.9002
-3.87821 -7.06086 15.8964
-3.8445 -7.16109 15.895
-3.81078 -7.26132 15.8936
-3.68272 -7.32307 15.8899
-3.649 -7.4233 15.8885
-3.52093 -7.48504 15.8847
-3.48722 -7.58527 15.8833
-3.35915 -7.64701 15.8795
-3.32543 -7.74724 15.8782
-3.19737 -7.80899 15.8744
-3.0693 -7.87073 15.8706
-3.03559 -7.97096 15.8692
-3.00187 -8.07119 15.8679
-2.96815 -8.17142 15.8665
-2.84008 -8.23316 15.8627
-5.57462 -4.61363 16.0115
-5.62023 -4.84458 16.015
-5.60338 -4.99503 16.0161
-5.52407 -5.06497 16.0147
-5.44475 -5.13492 16.0133
-5.4279 -5.28536 16.0144
-5.34859 -5.35531 16.013
-5.26928 -5.42525 16.0116
-5.18996 -5.49519 16.0103
-5.11065 -5.56514 16.0089
-5.09379 -5.71558 16.01
-5.01448 -5.78552 16.0086
-4.99763 -5.93598 16.0097
-4.98079 -6.08642 16.0107
-4.90147 -6.15637 16.0094
-4.88462 -6.30681 16.0104
-4.80531 -6.37676 16.009
-4.78846 -6.52721 16.0101
-4.70914 -6.59715 16.0087
-4.62983 -6.66709 16.0074
-4.61298 -6.81754 16.0084
-4.53366 -6.88748 16.0071
-4.45435 -6.95743 16.0057
-4.4375 -7.10788 16.0068
-4.35818 -7.17782 16.0054
-4.27887 -7.24776 16.004
-4.26202 -7.39821 16.0051
-4.18271 -7.46815 16.0037
-4.16586 -7.6186 16.0048
-4.08654 -7.68854 16.0034
-4.00723 -7.75848 16.002
-3.99038 -7.90893 16.0031
-3.91107 -7.97888 16.0017
-3.83175 -8.04882 16.0004
-3.8149 -8.19927 16.0014
-3.73558 -8.26921 16.0001
-3.65627 -8.33915 15.9987
-3.57696 -8.4091 15.9973
-3.49764 -8.47904 15.996
-3.41832 -8.54898 15.9946
-3.33901 -8.61892 15.9932
-3.2597 -8.68887 15.9919
-3.18038 -8.75881 15.9905
-3.10107 -8.82875 15.9891
-3.02175 -8.8987 15.9878
-2.94244 -8.96864 15.9864
-2.86312 -9.03858 15.985
-2.78381 -9.10853 15.9837
-2.76696 -9.25898 15.9847
-2.68764 -9.32892 15.9834
-2.60833 -9.39886 15.982
-2.52902 -9.46881 15.9806
-2.4497 -9.53875 15.9792
-2.37039 -9.60869 15.9779
-2.2286 -9.59813 15.9741
-2.14929 -9.66807 15.9727
-2.06998 -9.73802 15.9714
-1.99066 -9.80796 15.97
-1.91135 -9.8779 15.9686
-1.83203 -9.94784 15.9673
-1.75272 -10.0178 15.9659
-1.6734 -10.0877 15.9645
-1.59409 -10.1577 15.9632
-1.51477 -10.2276 15.9618
-1.43546 -10.2976 15.9604
-1.35614 -10.3675 15.9591
-1.27683 -10.4374 15.9577
-1.19751 -10.5074 15.9563
-1.1182 -10.5773 15.955
-0.976423 -10.5668 15.9512
-0.897109 -10.6367 15.9498
-0.817794 -10.7067 15.9485
-0.738477 -10.7766 15.9471
-0.659162 -10.8465 15.9457
-0.51738 -10.836 15.9419
-0.438066 -10.9059 15.9406
-0.358752 -10.9759 15.9392
-0.279436 -11.0458 15.9378
-0.137656 -11.0353 15.9341
-0.058342 -11.1052 15.9327
0.0209718 -11.1751 15.9313
0.16275 -11.1646 15.9275
0.49193 -10.9125 15.9165
0.633709 -10.9019 15.9127
0.77549 -10.8914 15.9089
0.917268 -10.8808 15.9051
1.05905 -10.8703 15.9013
1.20083 -10.8597 15.8975
1.28015 -10.9296 15.8961
1.42192 -10.9191 15.8924
1.50124 -10.989 15.891
1.58055 -11.059 15.8896
1.65987 -11.1289 15.8883
1.80165 -11.1183 15.8845
1.94343 -11.1078 15.8807
2.21014 -10.9362 15.8721
2.47685 -10.7646 15.8634
