ply
format ascii 1.0
comment VCGLIB generated
element vertex 911
property float x
property float y
property float z
element face 0
property list uchar int vertex_indices
end_header
2.27921 -11.912 17.153
2.51016 -11.9576 17.1565
2.5801 -11.8783 17.1551
2.73056 -11.8614 17.1562
2.881 -11.8446 17.1572
3.27296 -12.0151 17.1656
3.66492 -12.1857 17.1739
3.81538 -12.1688 17.1749
3.96582 -12.152 17.176
4.03576 -12.0727 17.1746
4.18621 -12.0558 17.1757
4.33666 -12.039 17.1767
4.4066 -11.9597 17.1754
4.55705 -11.9428 17.1764
4.7075 -11.926 17.1775
4.77744 -11.8466 17.1761
4.92789 -11.8298 17.1772
5.07834 -11.8129 17.1782
5.22879 -11.7961 17.1793
5.29873 -11.7168 17.1779
5.44917 -11.6999 17.179
5.51912 -11.6206 17.1776
5.58906 -11.5413 17.1763
5.73951 -11.5245 17.1773
5.88996 -11.5076 17.1784
6.20142 -11.6157 17.1843
6.27136 -11.5364 17.1829
6.42181 -11.5195 17.184
6.49175 -11.4402 17.1826
6.6422 -11.4234 17.1837
6.71214 -11.344 17.1823
6.86259 -11.3272 17.1833
6.93253 -11.2479 17.182
7.08298 -11.231 17.183
7.23343 -11.2142 17.1841
7.30337 -11.1349 17.1827
7.37331 -11.0556 17.1814
7.44326 -10.9762 17.18
7.5937 -10.9594 17.1811
7.66365 -10.8801 17.1797
7.8141 -10.8632 17.1807
7.88404 -10.7839 17.1794
7.95398 -10.7046 17.178
8.02392 -10.6253 17.1767
8.17437 -10.6084 17.1777
8.24432 -10.5291 17.1763
8.31426 -10.4498 17.175
8.3842 -10.3705 17.1736
8.45414 -10.2912 17.1722
8.52409 -10.2119 17.1709
8.59403 -10.1325 17.1695
8.66397 -10.0532 17.1681
8.81442 -10.0364 17.1692
8.88437 -9.95707 17.1678
8.95431 -9.87775 17.1665
9.02425 -9.79844 17.1651
9.0942 -9.71912 17.1637
9.16414 -9.63981 17.1624
9.23408 -9.56049 17.161
9.30403 -9.48118 17.1596
9.37397 -9.40186 17.1583
9.44391 -9.32255 17.1569
9.51385 -9.24323 17.1555
9.5838 -9.16392 17.1542
9.65374 -9.08461 17.1528
9.72369 -9.00529 17.1514
9.79363 -8.92597 17.1501
9.86357 -8.84666 17.1487
9.93351 -8.76735 17.1473
10.0035 -8.68803 17.146
10.0734 -8.60872 17.1446
10.1433 -8.5294 17.1432
10.1328 -8.38762 17.1395
10.2027 -8.30831 17.1381
10.2727 -8.22899 17.1367
10.3426 -8.14968 17.1354
10.4126 -8.07036 17.134
10.4825 -7.99105 17.1326
10.5524 -7.91173 17.1313
10.5419 -7.76996 17.1275
10.6118 -7.69064 17.1261
10.6818 -7.61132 17.1247
10.6712 -7.46954 17.121
10.6606 -7.32776 17.1172
10.4086 -6.99859 17.1061
10.4785 -6.91927 17.1047
10.5485 -6.83996 17.1034
10.6184 -6.76064 17.102
10.6883 -6.68133 17.1006
10.6778 -6.53955 17.0968
10.7477 -6.46023 17.0955
10.8177 -6.38092 17.0941
10.8876 -6.3016 17.0928
10.877 -6.15982 17.089
10.8665 -6.01804 17.0852
10.8559 -5.87626 17.0814
10.8454 -5.73448 17.0776
10.8348 -5.5927 17.0738
10.9047 -5.51339 17.0724
10.8942 -5.37161 17.0686
10.8836 -5.22983 17.0649
10.8731 -5.08805 17.0611
10.8625 -4.94627 17.0573
10.7714 -4.74202 17.0511
10.6804 -4.53777 17.0449
10.6698 -4.396 17.0411
10.6592 -4.25421 17.0373
10.6487 -4.11244 17.0335
10.6381 -3.97065 17.0297
10.6276 -3.82887 17.0259
10.5365 -3.62463 17.0197
10.2039 -3.23299 17.0062
10.2739 -3.15367 17.0049
7.5743 -10.9387 17.1762
7.69617 -10.8489 17.1773
7.81803 -10.7591 17.1783
8.24275 -10.7108 17.1867
8.46557 -10.6348 17.1901
8.48649 -10.5311 17.1888
8.60836 -10.4413 17.1898
8.73022 -10.3515 17.1909
8.75114 -10.2479 17.1895
8.87301 -10.158 17.1906
8.89392 -10.0544 17.1892
8.91484 -9.95072 17.1879
9.0367 -9.86091 17.1889
9.05762 -9.75725 17.1875
9.17949 -9.66743 17.1886
9.2004 -9.56377 17.1872
9.32227 -9.47396 17.1883
9.54509 -9.39798 17.1918
9.66695 -9.30817 17.1928
9.78882 -9.21835 17.1939
10.0116 -9.14238 17.1974
10.0326 -9.03872 17.196
10.0535 -8.93506 17.1946
10.0744 -8.8314 17.1933
10.1963 -8.74158 17.1943
10.2172 -8.63792 17.193
10.44 -8.56195 17.1964
10.4609 -8.45829 17.1951
10.5828 -8.36848 17.1961
10.6037 -8.26482 17.1948
10.7255 -8.175 17.1958
10.7465 -8.07134 17.1945
10.7674 -7.96768 17.1931
10.7883 -7.86402 17.1917
10.9102 -7.7742 17.1928
10.9311 -7.67054 17.1914
10.952 -7.56688 17.19
10.9729 -7.46322 17.1887
10.9938 -7.35956 17.1873
11.0147 -7.2559 17.1859
11.0357 -7.15224 17.1846
11.1575 -7.06243 17.1856
11.1784 -6.95877 17.1843
11.1994 -6.85511 17.1829
11.2203 -6.75145 17.1815
11.2412 -6.64779 17.1802
11.2621 -6.54413 17.1788
11.283 -6.44047 17.1774
11.3039 -6.3368 17.1761
11.3248 -6.23315 17.1747
11.3458 -6.12949 17.1733
11.2657 -6.01198 17.1696
11.2866 -5.90832 17.1682
11.3076 -5.80466 17.1668
11.3285 -5.701 17.1655
11.3494 -5.59734 17.1641
11.3703 -5.49368 17.1627
11.3912 -5.39002 17.1614
11.4121 -5.28636 17.16
11.3321 -5.16885 17.1562
11.353 -5.06519 17.1548
11.3739 -4.96153 17.1535
11.3948 -4.85787 17.1521
11.3148 -4.74037 17.1483
11.3357 -4.63671 17.147
11.3566 -4.53305 17.1456
11.3775 -4.42939 17.1442
11.2975 -4.31189 17.1404
11.3184 -4.20823 17.1391
11.2384 -4.09072 17.1353
11.2593 -3.98706 17.1339
11.1793 -3.86956 17.1301
11.2002 -3.7659 17.1288
11.1201 -3.64839 17.125
11.0401 -3.53089 17.1212
11.061 -3.42723 17.1198
10.981 -3.30972 17.116
10.9009 -3.19222 17.1122
10.8209 -3.07471 17.1084
10.6399 -2.94337 17.1022
11.2069 -7.38913 17.1611
11.2676 -7.25041 17.1622
11.2339 -7.15018 17.1608
11.2945 -7.01147 17.1619
11.3551 -6.87275 17.1629
11.4158 -6.73403 17.164
11.4764 -6.59532 17.165
11.537 -6.4566 17.1661
11.5977 -6.31788 17.1671
11.5639 -6.21765 17.1658
11.6246 -6.07894 17.1668
11.5909 -5.97871 17.1655
11.6515 -5.83999 17.1665
11.6178 -5.73976 17.1652
11.584 -5.63953 17.1638
11.6447 -5.50082 17.1649
11.7053 -5.3621 17.1659
11.7659 -5.22338 17.167
11.8266 -5.08467 17.168
11.7929 -4.98444 17.1667
11.7591 -4.88421 17.1653
11.8198 -4.74549 17.1664
11.7861 -4.64526 17.165
11.7523 -4.54503 17.1636
11.813 -4.40631 17.1647
11.7793 -4.30609 17.1633
11.7455 -4.20585 17.1619
11.7118 -4.10562 17.1606
11.7725 -3.96691 17.1616
11.7387 -3.86668 17.1603
11.705 -3.76645 17.1589
11.6713 -3.66622 17.1575
11.6376 -3.56599 17.1562
11.6039 -3.46576 17.1548
11.6645 -3.32704 17.1559
11.6308 -3.22681 17.1545
11.5971 -3.12658 17.1531
11.5634 -3.02635 17.1518
11.5296 -2.92612 17.1504
11.4959 -2.82589 17.149
11.4622 -2.72566 17.1477
11.4285 -2.62543 17.1463
11.3948 -2.5252 17.1449
11.3611 -2.42497 17.1436
11.3273 -2.32474 17.1422
11.2936 -2.22451 17.1408
11.3542 -2.0858 17.1419
11.3205 -1.98557 17.1405
11.2868 -1.88534 17.1392
11.2531 -1.78511 17.1378
11.3137 -1.64639 17.1389
11.28 -1.54616 17.1375
11.2463 -1.44593 17.1361
11.2126 -1.3457 17.1348
11.1789 -1.24547 17.1334
11.1451 -1.14524 17.132
11.2058 -1.00652 17.1331
11.1721 -0.906295 17.1317
11.1383 -0.806065 17.1303
11.1046 -0.705835 17.129
11.0709 -0.605604 17.1276
11.0372 -0.505374 17.1263
11.0035 -0.405146 17.1249
11.0641 -0.266429 17.1259
11.0304 -0.166198 17.1246
10.9967 -0.0659688 17.1232
10.963 0.034261 17.1218
10.9292 0.13449 17.1205
10.8955 0.234721 17.1191
10.9562 0.373437 17.1202
10.9224 0.473667 17.1188
10.8887 0.573896 17.1174
10.855 0.674125 17.1161
10.8213 0.774356 17.1147
10.7876 0.874587 17.1133
10.8482 1.0133 17.1144
10.8145 1.11353 17.113
10.7808 1.21376 17.1117
10.747 1.31399 17.1103
10.7133 1.41422 17.1089
10.6796 1.51445 17.1076
10.6459 1.61468 17.1062
10.6122 1.71491 17.1048
10.5785 1.81514 17.1035
10.5447 1.91537 17.1021
10.511 2.0156 17.1007
10.4773 2.11583 17.0994
10.4436 2.21606 17.098
10.4099 2.31629 17.0966
10.3762 2.41652 17.0953
10.2481 2.47827 17.0915
10.2144 2.57849 17.0901
10.1807 2.67873 17.0887
10.1469 2.77895 17.0874
10.1132 2.87919 17.086
10.0795 2.97941 17.0847
10.0458 3.07964 17.0833
10.0121 3.17987 17.0819
9.88401 3.24162 17.0781
9.8503 3.34185 17.0768
9.81658 3.44208 17.0754
9.78286 3.54231 17.074
9.74914 3.64254 17.0727
9.62108 3.70428 17.0689
9.58736 3.80451 17.0675
9.55364 3.90474 17.0661
9.51993 4.00497 17.0648
9.48621 4.1052 17.0634
9.45249 4.20543 17.062
9.41878 4.30566 17.0607
9.38506 4.40589 17.0593
9.25699 4.46763 17.0555
9.22328 4.56786 17.0542
9.18956 4.66809 17.0528
9.06149 4.72984 17.049
9.02778 4.83007 17.0476
8.99406 4.9303 17.0463
8.96034 5.03053 17.0449
8.92663 5.13076 17.0435
8.89291 5.23099 17.0422
8.76484 5.29273 17.0384
8.73113 5.39296 17.037
8.60306 5.4547 17.0332
8.47499 5.51645 17.0294
8.25258 5.53971 17.0232
8.21886 5.63994 17.0219
8.09079 5.70168 17.0181
8.05708 5.80191 17.0167
8.02336 5.90214 17.0153
7.89529 5.96388 17.0116
7.86158 6.06411 17.0102
7.82786 6.16434 17.0088
7.69979 6.22609 17.005
7.57173 6.28783 17.0012
7.44366 6.34957 16.9975
7.40995 6.4498 16.9961
7.28188 6.51155 16.9923
7.24816 6.61178 16.9909
7.1201 6.67352 16.9871
6.99203 6.73526 16.9834
6.86396 6.797 16.9796
6.7359 6.85875 16.9758
6.60783 6.92049 16.972
6.47976 6.98224 16.9682
10.0421 3.65696 17.1181
10.0253 3.8074 17.1192
10.0084 3.95786 17.1202
9.99159 4.1083 17.1213
9.91227 4.17824 17.1199
9.83296 4.24819 17.1185
9.81611 4.39863 17.1196
9.73679 4.46858 17.1182
9.71995 4.61903 17.1193
9.64063 4.68897 17.1179
9.62378 4.83942 17.119
9.54447 4.90936 17.1176
9.46515 4.97931 17.1162
9.4483 5.12975 17.1173
9.36899 5.1997 17.1159
9.28967 5.26964 17.1146
9.27282 5.42009 17.1156
9.19351 5.49003 17.1143
9.11419 5.55997 17.1129
9.03488 5.62992 17.1115
9.01803 5.78036 17.1126
8.93871 5.85031 17.1112
8.8594 5.92025 17.1099
8.78009 5.9902 17.1085
8.70077 6.06014 17.1071
8.62146 6.13008 17.1058
8.54214 6.20002 17.1044
8.46283 6.26997 17.103
8.44598 6.42041 17.1041
8.36666 6.49036 17.1027
8.28735 6.5603 17.1013
8.20803 6.63024 17.1
8.12872 6.70019 17.0986
8.0494 6.77013 17.0973
7.97009 6.84008 17.0959
7.89077 6.91002 17.0945
7.81146 6.97996 17.0932
7.73214 7.0499 17.0918
7.65283 7.11985 17.0904
7.57352 7.18979 17.0891
7.4942 7.25973 17.0877
7.41488 7.32968 17.0863
7.33557 7.39962 17.085
7.25626 7.46956 17.0836
7.17694 7.5395 17.0822
7.09763 7.60945 17.0809
7.01831 7.67939 17.0795
6.87653 7.66883 17.0757
6.79722 7.73878 17.0743
6.7179 7.80872 17.073
6.63859 7.87866 17.0716
6.55927 7.9486 17.0702
6.47996 8.01855 17.0689
6.40064 8.08849 17.0675
6.25886 8.07793 17.0637
6.17955 8.14787 17.0624
6.10023 8.21781 17.061
6.02092 8.28776 17.0596
5.9416 8.3577 17.0583
5.86229 8.42764 17.0569
5.72051 8.41708 17.0531
5.57873 8.40652 17.0493
5.06215 7.91293 17.031
4.98284 7.98287 17.0296
4.90352 8.05281 17.0283
4.82421 8.12276 17.0269
4.68243 8.1122 17.0231
4.54065 8.10164 17.0193
4.3364 8.01057 17.0131
4.19462 8.00001 17.0093
3.99038 7.90894 17.0031
3.8486 7.89838 16.9993
3.70682 7.88782 16.9955
3.56504 7.87726 16.9917
8.70611 6.0536 17.1042
8.6163 6.17547 17.1053
8.51263 6.19638 17.1039
8.42282 6.31825 17.105
8.31916 6.33916 17.1036
8.22934 6.46103 17.1047
8.12568 6.48195 17.1033
8.03587 6.60381 17.1044
7.93221 6.62473 17.103
7.84239 6.7466 17.104
7.75258 6.86847 17.1051
7.66276 6.99033 17.1062
7.57294 7.11219 17.1072
7.48313 7.23407 17.1083
7.46253 7.86069 17.1214
7.37272 7.98256 17.1225
7.26906 8.00347 17.1211
7.1654 8.02439 17.1198
7.06174 8.0453 17.1184
6.97192 8.16717 17.1195
6.86826 8.18809 17.1181
6.7646 8.209 17.1167
6.66094 8.22991 17.1154
6.55728 8.25083 17.114
6.45362 8.27174 17.1126
6.34996 8.29266 17.1113
6.2463 8.31357 17.1099
6.14264 8.33449 17.1085
6.03898 8.3554 17.1072
5.93532 8.37632 17.1058
5.8455 8.49819 17.1069
5.74184 8.5191 17.1055
5.63818 8.54002 17.1041
5.53452 8.56093 17.1028
5.43086 8.58185 17.1014
5.3272 8.60276 17.1
5.2097 8.52273 17.0963
5.10604 8.54364 17.0949
5.00238 8.56456 17.0935
4.89872 8.58547 17.0921
4.79506 8.60639 17.0908
4.6914 8.6273 17.0894
4.58774 8.64822 17.088
4.48408 8.66913 17.0867
4.38042 8.69005 17.0853
4.27676 8.71096 17.084
4.1731 8.73188 17.0826
4.06944 8.75279 17.0812
3.96578 8.77371 17.0798
3.84827 8.69367 17.0761
3.74461 8.71459 17.0747
3.64095 8.7355 17.0733
3.52345 8.65547 17.0695
3.41979 8.67638 17.0682
3.31613 8.6973 17.0668
3.19862 8.61726 17.063
3.09496 8.63817 17.0617
2.97746 8.55814 17.0579
2.8738 8.57905 17.0565
2.77014 8.59997 17.0551
2.66648 8.62088 17.0538
2.54897 8.54085 17.05
2.41762 8.35986 17.0438
2.30012 8.27982 17.04
2.18261 8.19978 17.0362
2.07896 8.2207 17.0348
1.96145 8.14066 17.031
1.85779 8.16158 17.0297
1.75413 8.18249 17.0283
1.65047 8.2034 17.0269
1.54681 8.22432 17.0256
1.42931 8.14429 17.0218
1.32565 8.16521 17.0204
1.20814 8.08517 17.0166
1.10448 8.10608 17.0153
1.00082 8.12699 17.0139
0.883315 8.04696 17.0101
0.779656 8.06787 17.0087
0.675996 8.08879 17.0074
0.572336 8.1097 17.006
0.468676 8.13062 17.0046
0.351171 8.05058 17.0009
0.233666 7.97055 16.9971
0.0607831 7.4867 16.9836
-0.0567193 7.40666 16.9798
-0.160381 7.42758 16.9784
-0.26404 7.4485 16.9771
-0.381544 7.36846 16.9733
5.19847 8.75328 17.0841
5.05976 8.81392 17.0852
4.92104 8.87455 17.0862
4.78232 8.93518 17.0873
4.64361 8.99581 17.0883
4.50489 9.05644 17.0894
4.36617 9.11708 17.0904
4.22746 9.17771 17.0915
4.12723 9.14399 17.0901
4.027 9.11028 17.0888
3.92677 9.07656 17.0874
3.78805 9.13719 17.0885
3.68782 9.10347 17.0871
3.58759 9.06976 17.0857
3.48736 9.03604 17.0844
3.38713 9.00232 17.083
3.2869 8.9686 17.0816
3.18667 8.93489 17.0803
3.04795 8.99552 17.0813
2.94773 8.96181 17.08
2.8475 8.92809 17.0786
2.74727 8.89437 17.0772
2.64704 8.86065 17.0759
2.50832 8.92128 17.0769
2.40809 8.88756 17.0755
2.30786 8.85385 17.0742
2.20763 8.82013 17.0728
2.1074 8.78642 17.0714
2.00717 8.7527 17.0701
1.90694 8.71898 17.0687
1.80671 8.68526 17.0674
1.70648 8.65155 17.066
1.60625 8.61783 17.0646
1.46753 8.67847 17.0657
1.36731 8.64475 17.0643
1.26707 8.61103 17.0629
1.16684 8.57731 17.0616
1.02813 8.63795 17.0626
0.927898 8.60423 17.0613
0.866155 8.47616 17.0575
0.765924 8.44245 17.0561
0.665695 8.40873 17.0547
0.565464 8.37501 17.0534
0.426749 8.43564 17.0544
0.32652 8.40193 17.0531
0.226289 8.36821 17.0517
0.126059 8.33449 17.0503
-0.0126581 8.39513 17.0514
-0.112886 8.36141 17.05
-0.213117 8.32769 17.0487
-0.313347 8.29397 17.0473
-0.413577 8.26026 17.0459
-0.513808 8.22654 17.0446
-0.614037 8.19282 17.0432
-0.675781 8.06476 17.0394
-0.77601 8.03104 17.038
-0.87624 7.99732 17.0367
-0.976471 7.96361 17.0353
-1.0767 7.92989 17.034
-1.17693 7.89617 17.0326
-1.23867 7.76811 17.0288
-1.33891 7.73439 17.0274
-1.43913 7.70067 17.0261
-1.53936 7.66695 17.0247
-1.63959 7.63324 17.0233
-1.73982 7.59952 17.022
-1.84006 7.5658 17.0206
-1.94028 7.53208 17.0192
-2.04051 7.49837 17.0179
-2.14074 7.46465 17.0165
-2.20248 7.33658 17.0127
-2.30272 7.30287 17.0113
-2.36446 7.1748 17.0076
-2.46469 7.14109 17.0062
-2.52643 7.01302 17.0024
-2.58818 6.88495 16.9986
-2.64992 6.75689 16.9948
-2.71166 6.62882 16.991
-2.81189 6.5951 16.9897
-2.87364 6.46704 16.9859
-2.93538 6.33897 16.9821
-2.99713 6.21091 16.9783
-3.09735 6.17719 16.9769
-3.1591 6.04912 16.9731
-3.25933 6.01541 16.9718
-3.35956 5.98169 16.9704
-3.4213 5.85362 16.9666
-3.52153 5.8199 16.9653
-3.5063 5.50314 16.9566
-3.56805 5.37508 16.9528
-3.66828 5.34136 16.9515
-3.73002 5.21329 16.9477
-3.83025 5.17957 16.9463
-3.93048 5.14586 16.9449
-3.99222 5.01779 16.9411
-4.09245 4.98408 16.9398
-4.1542 4.85601 16.936
-4.25443 4.82229 16.9346
-4.27768 4.59988 16.9284
-4.33943 4.47181 16.9246
-4.40117 4.34375 16.9208
-4.5014 4.31003 16.9195
-4.56314 4.18196 16.9157
-4.66337 4.14825 16.9143
-1.38169 8.00953 17.0427
-1.53214 7.99269 17.0437
-1.68259 7.97584 17.0448
-1.75254 7.89652 17.0434
-1.90298 7.87967 17.0445
-1.97292 7.80036 17.0431
-2.04287 7.72104 17.0417
-2.11281 7.64173 17.0404
-2.26326 7.62488 17.0414
-2.3332 7.54557 17.0401
-2.40315 7.46625 17.0387
-2.47309 7.38694 17.0373
-2.62354 7.37009 17.0384
-2.69348 7.29077 17.037
-2.76342 7.21146 17.0357
-2.83337 7.13214 17.0343
-2.98381 7.11529 17.0354
-3.05376 7.03598 17.034
-3.1237 6.95666 17.0326
-3.19364 6.87735 17.0313
-3.26359 6.79803 17.0299
-3.41403 6.78119 17.0309
-3.48398 6.70187 17.0296
-3.55392 6.62256 17.0282
-3.62386 6.54324 17.0269
-3.69381 6.46393 17.0255
-3.76375 6.38461 17.0241
-3.83369 6.3053 17.0228
-3.90364 6.22598 17.0214
-3.97358 6.14667 17.02
-4.04352 6.06735 17.0187
-4.11347 5.98804 17.0173
-4.18341 5.90873 17.0159
-4.33386 5.89187 17.017
-4.4038 5.81256 17.0156
-4.47374 5.73325 17.0143
-4.54369 5.65393 17.0129
-4.61363 5.57462 17.0115
-4.60307 5.43284 17.0077
-4.67301 5.35352 17.0064
-4.74295 5.27421 17.005
-4.8129 5.19489 17.0036
-4.88284 5.11558 17.0023
-4.87228 4.9738 16.9985
-4.94222 4.89448 16.9971
-5.01217 4.81517 16.9957
-5.08211 4.73585 16.9944
-5.15205 4.65654 16.993
-5.22199 4.57722 16.9917
-5.29194 4.49791 16.9903
-5.36188 4.4186 16.9889
-5.43183 4.33928 16.9875
-5.42126 4.1975 16.9838
-5.4107 4.05572 16.98
-4.75935 5.86541 17.0265
-4.78026 5.76175 17.0251
-4.90212 5.67193 17.0262
-4.92304 5.56827 17.0248
-4.94396 5.46461 17.0234
-5.06582 5.3748 17.0245
-5.08674 5.27114 17.0231
-5.2086 5.18132 17.0242
-5.33047 5.09151 17.0252
-5.45234 5.00169 17.0263
-5.47325 4.89803 17.0249
-5.59512 4.80821 17.026
-5.61604 4.70455 17.0246
-5.63695 4.60089 17.0232
-5.65787 4.49723 17.0219
-5.67878 4.39357 17.0205
-5.80065 4.30376 17.0216
-5.82157 4.2001 17.0202
-5.84248 4.09644 17.0188
-5.8634 3.99278 17.0175
-5.88431 3.88912 17.0161
-5.90523 3.78546 17.0147
-6.02709 3.69564 17.0158
-6.048 3.59198 17.0144
-6.06892 3.48832 17.0131
-6.08983 3.38466 17.0117
-6.11075 3.281 17.0103
-6.13167 3.17734 17.009
-6.15258 3.07368 17.0076
-6.1735 2.97002 17.0062
-6.19441 2.86636 17.0049
-6.21532 2.7627 17.0035
-6.23624 2.65904 17.0021
-6.15621 2.54153 16.9984
-6.07617 2.42403 16.9946
-5.99613 2.30653 16.9908
-6.01705 2.20286 16.9894
-6.03796 2.0992 16.988
-6.15983 2.00939 16.9891
-6.18075 1.90573 16.9877
-6.20166 1.80207 16.9864
-6.22258 1.69841 16.985
-6.24349 1.59475 16.9836
-6.26441 1.49109 16.9823
-6.28532 1.38743 16.9809
-6.30624 1.28377 16.9795
-6.2262 1.16626 16.9757
-6.24711 1.0626 16.9744
-6.26803 0.958943 16.973
-6.18799 0.841438 16.9692
-6.20891 0.737779 16.9678
-6.22983 0.634117 16.9665
-6.25074 0.530458 16.9651
-6.27166 0.426798 16.9638
-6.29257 0.323138 16.9624
-6.31349 0.219479 16.961
-6.23345 0.101973 16.9572
-6.25436 -0.00168669 16.9559
-6.27527 -0.105349 16.9545
-6.19524 -0.22285 16.9507
-6.21615 -0.326512 16.9493
-6.23707 -0.430171 16.948
-6.25799 -0.533831 16.9466
-6.17795 -0.651338 16.9428
-6.19886 -0.754998 16.9415
-6.11883 -0.872501 16.9377
-6.8116 1.65914 17.0152
-6.77788 1.55891 17.0139
-6.83851 1.42019 17.0149
-6.80479 1.31996 17.0135
-6.86543 1.18125 17.0146
-6.92606 1.04253 17.0157
-6.89234 0.942301 17.0143
-6.95297 0.803585 17.0154
-6.91925 0.703355 17.014
-6.97989 0.564638 17.015
-7.04052 0.425922 17.0161
-7.0068 0.325692 17.0147
-7.06743 0.186977 17.0158
-7.03372 0.0867476 17.0144
-7 -0.013484 17.0131
-7.06063 -0.1522 17.0141
-7.02692 -0.25243 17.0128
-6.9932 -0.35266 17.0114
-6.95948 -0.45289 17.01
-6.92577 -0.55312 17.0087
-6.89205 -0.653349 17.0073
-6.85833 -0.75358 17.0059
-6.82462 -0.853809 17.0046
-6.7909 -0.954041 17.0032
-6.85153 -1.09276 17.0042
-6.81781 -1.19298 17.0029
-6.7841 -1.29322 17.0015
-6.75038 -1.39345 17.0002
-6.71666 -1.49368 16.9988
-6.68294 -1.59391 16.9974
-6.64923 -1.69413 16.996
-6.61551 -1.79437 16.9947
-6.58179 -1.8946 16.9933
-6.54808 -1.99483 16.992
-6.51436 -2.09506 16.9906
-6.48064 -2.19529 16.9892
-6.44693 -2.29552 16.9879
-6.41321 -2.39574 16.9865
-6.37949 -2.49598 16.9851
-6.25142 -2.55772 16.9813
-6.21771 -2.65795 16.98
-6.18399 -2.75818 16.9786
-6.15028 -2.85841 16.9772
-6.02221 -2.92015 16.9734
-5.98849 -3.02038 16.9721
-6.04912 -3.1591 16.9731
-6.01541 -3.25933 16.9718
-5.98169 -3.35956 16.9704
-5.94797 -3.45979 16.969
-5.91426 -3.56002 16.9677
-5.88054 -3.66025 16.9663
-5.84682 -3.76048 16.965
-5.71875 -3.82222 16.9612
-5.68503 -3.92245 16.9598
-5.65132 -4.02268 16.9584
-5.6176 -4.12291 16.9571
-5.58389 -4.22314 16.9557
-5.55017 -4.32337 16.9543
-5.51645 -4.4236 16.953
-5.38839 -4.48534 16.9492
-5.35467 -4.58558 16.9478
-5.32096 -4.6858 16.9464
-5.19289 -4.74755 16.9426
-5.15917 -4.84778 16.9413
-5.12545 -4.94801 16.9399
-5.09174 -5.04824 16.9386
-5.05802 -5.14847 16.9372
-5.0243 -5.2487 16.9358
-4.99059 -5.34893 16.9344
-4.95687 -5.44916 16.9331
-4.92315 -5.54939 16.9317
-4.79508 -5.61113 16.9279
-4.76136 -5.71136 16.9266
-4.72765 -5.81159 16.9252
-4.69393 -5.91182 16.9238
-4.66022 -6.01205 16.9225
-4.6265 -6.11228 16.9211
-4.59278 -6.21251 16.9197
-4.46472 -6.27425 16.9159
-4.431 -6.37448 16.9146
-4.39729 -6.47471 16.9132
-4.36357 -6.57494 16.9118
-4.32985 -6.67517 16.9105
-4.29613 -6.7754 16.9091
-4.16807 -6.83715 16.9053
-4.13435 -6.93738 16.904
-4.00628 -6.99912 16.9002
-3.87821 -7.06086 16.8964
-3.8445 -7.16109 16.895
-3.81078 -7.26132 16.8936
-3.77707 -7.36156 16.8923
-3.649 -7.4233 16.8885
-3.61528 -7.52353 16.8871
-3.58157 -7.62376 16.8858
-3.4535 -7.6855 16.882
-3.41978 -7.78573 16.8806
-3.29171 -7.84747 16.8768
-3.258 -7.9477 16.8755
-3.12993 -8.00945 16.8717
-3.09622 -8.10968 16.8703
-5.82941 -4.25335 17.0146
-5.81256 -4.4038 17.0156
-5.79571 -4.55425 17.0167
-5.7164 -4.62419 17.0153
-5.63708 -4.69414 17.0139
-5.62023 -4.84458 17.015
-5.54092 -4.91452 17.0136
-5.4616 -4.98447 17.0123
-5.38229 -5.05441 17.0109
-5.36544 -5.20486 17.012
-5.28612 -5.2748 17.0106
-5.20681 -5.34474 17.0092
-5.1275 -5.41469 17.0079
-5.11065 -5.56514 17.0089
-5.09379 -5.71558 17.01
-5.07695 -5.86603 17.011
-4.99763 -5.93598 17.0097
-4.98079 -6.08642 17.0107
-4.96394 -6.23687 17.0118
-4.88462 -6.30681 17.0104
-4.86777 -6.45726 17.0115
-4.85092 -6.60771 17.0125
-4.77161 -6.67765 17.0112
-4.69229 -6.7476 17.0098
-4.67545 -6.89805 17.0108
-4.59613 -6.96799 17.0095
-4.51682 -7.03793 17.0081
-4.49997 -7.18838 17.0092
-4.42065 -7.25832 17.0078
-4.34133 -7.32826 17.0064
-4.32448 -7.47871 17.0075
-4.24517 -7.54866 17.0061
-4.22833 -7.69911 17.0072
-4.14901 -7.76905 17.0058
-4.06969 -7.83899 17.0045
-4.05284 -7.98944 17.0055
-3.97353 -8.05938 17.0042
-3.89422 -8.12932 17.0028
-3.8149 -8.19927 17.0014
-3.73558 -8.26921 17.0001
-3.65627 -8.33915 16.9987
-3.57696 -8.4091 16.9973
-3.49764 -8.47904 16.996
-3.41832 -8.54898 16.9946
-3.33901 -8.61892 16.9932
-3.2597 -8.68887 16.9919
-3.18038 -8.75881 16.9905
-3.10107 -8.82875 16.9891
-3.02175 -8.8987 16.9878
-3.0049 -9.04915 16.9888
-2.92559 -9.11909 16.9875
-2.84628 -9.18904 16.9861
-2.76696 -9.25898 16.9847
-2.68764 -9.32892 16.9834
-2.60833 -9.39886 16.982
-2.52902 -9.46881 16.9806
-2.4497 -9.53875 16.9792
-2.37039 -9.60869 16.9779
-2.29107 -9.67864 16.9765
-2.21176 -9.74858 16.9752
-2.13244 -9.81852 16.9738
-1.99066 -9.80796 16.97
-1.91135 -9.8779 16.9686
-1.83203 -9.94784 16.9673
-1.75272 -10.0178 16.9659
-1.6734 -10.0877 16.9645
-1.59409 -10.1577 16.9632
-1.51477 -10.2276 16.9618
-1.43546 -10.2976 16.9604
-1.35614 -10.3675 16.9591
-1.27683 -10.4374 16.9577
-1.19751 -10.5074 16.9563
-1.1182 -10.5773 16.955
-1.03889 -10.6473 16.9536
-0.959571 -10.7172 16.9522
-0.880256 -10.7872 16.9509
-0.738477 -10.7766 16.9471
-0.659162 -10.8465 16.9457
-0.579848 -10.9165 16.9444
-0.500535 -10.9864 16.943
-0.358752 -10.9759 16.9392
-0.279436 -11.0458 16.9378
-0.20012 -11.1158 16.9365
-0.058342 -11.1052 16.9327
0.0209718 -11.1751 16.9313
0.16275 -11.1646 16.9275
0.242064 -11.2345 16.9262
0.383849 -11.224 16.9224
