ply
format ascii 1.0
comment VCGLIB generated
element vertex 946
property float x
property float y
property float z
element face 0
property list uchar int vertex_indices
end_header
2.90212 -12.1281 18.1648
3.05257 -12.1113 18.1659
3.20302 -12.0944 18.1669
3.35347 -12.0776 18.168
3.42341 -11.9983 18.1666
3.49335 -11.919 18.1653
3.6438 -11.9021 18.1663
3.71374 -11.8228 18.1649
4.10571 -11.9934 18.1733
4.25615 -11.9765 18.1743
4.4066 -11.9597 18.1754
4.55705 -11.9428 18.1764
4.7075 -11.926 18.1775
4.85794 -11.9091 18.1785
5.00839 -11.8923 18.1796
5.15884 -11.8754 18.1807
5.22879 -11.7961 18.1793
5.37923 -11.7792 18.1804
5.44917 -11.6999 18.179
5.59962 -11.6831 18.1801
5.66957 -11.6038 18.1787
5.73951 -11.5245 18.1773
5.80945 -11.4451 18.1759
5.8794 -11.3658 18.1746
5.94934 -11.2865 18.1732
6.18029 -11.3321 18.1767
6.49175 -11.4402 18.1826
6.56169 -11.3609 18.1812
6.71214 -11.344 18.1823
6.78208 -11.2647 18.1809
6.85203 -11.1854 18.1796
7.00247 -11.1686 18.1806
7.07242 -11.0893 18.1792
7.22287 -11.0724 18.1803
7.29281 -10.9931 18.1789
7.44326 -10.9762 18.18
7.5132 -10.8969 18.1786
7.58314 -10.8176 18.1773
7.73359 -10.8008 18.1783
7.80353 -10.7214 18.177
7.87348 -10.6421 18.1756
8.02392 -10.6253 18.1767
8.09387 -10.546 18.1753
8.16381 -10.4667 18.1739
8.23376 -10.3873 18.1725
8.3037 -10.308 18.1712
8.37364 -10.2287 18.1698
8.44358 -10.1494 18.1685
8.51353 -10.0701 18.1671
8.66397 -10.0532 18.1681
8.73391 -9.97391 18.1668
8.80386 -9.8946 18.1654
8.8738 -9.81528 18.164
8.94375 -9.73597 18.1627
9.01369 -9.65666 18.1613
9.16414 -9.63981 18.1624
9.23408 -9.56049 18.161
9.30403 -9.48118 18.1596
9.37397 -9.40186 18.1583
9.44391 -9.32255 18.1569
9.51385 -9.24323 18.1555
9.5838 -9.16392 18.1542
9.65374 -9.08461 18.1528
9.72369 -9.00529 18.1514
9.71312 -8.86351 18.1477
9.78306 -8.78419 18.1463
9.85301 -8.70488 18.1449
9.92295 -8.62557 18.1436
9.99289 -8.54625 18.1422
10.0628 -8.46693 18.1408
10.0523 -8.32516 18.137
10.1222 -8.24584 18.1357
10.1922 -8.16653 18.1343
10.2621 -8.08721 18.1329
10.332 -8.0079 18.1316
10.3215 -7.86612 18.1278
10.3914 -7.7868 18.1264
10.4614 -7.70749 18.125
10.4508 -7.56571 18.1213
10.5208 -7.48639 18.1199
10.5907 -7.40708 18.1185
10.5801 -7.2653 18.1147
10.6501 -7.18599 18.1134
10.6395 -7.0442 18.1096
10.629 -6.90242 18.1058
10.6184 -6.76064 18.102
10.6883 -6.68133 18.1006
10.6778 -6.53955 18.0968
10.7477 -6.46023 18.0955
10.7372 -6.31845 18.0917
10.8071 -6.23914 18.0903
10.7965 -6.09736 18.0865
10.8665 -6.01804 18.0852
10.8559 -5.87626 18.0814
10.9259 -5.79695 18.08
10.9153 -5.65517 18.0762
10.9047 -5.51339 18.0724
10.8137 -5.30914 18.0662
10.8031 -5.16736 18.0624
10.712 -4.96312 18.0562
10.7015 -4.82134 18.0524
10.6909 -4.67955 18.0486
10.6804 -4.53777 18.0449
10.5893 -4.33353 18.0387
10.4982 -4.12928 18.0324
10.4877 -3.9875 18.0286
10.4771 -3.84572 18.0249
10.4665 -3.70394 18.0211
10.456 -3.56216 18.0173
10.3649 -3.35792 18.0111
7.79712 -10.8627 18.1797
8.01994 -10.7868 18.1832
8.1418 -10.6969 18.1842
8.36462 -10.621 18.1877
8.48649 -10.5311 18.1888
8.60836 -10.4413 18.1898
8.62927 -10.3377 18.1885
8.65019 -10.234 18.1871
8.77205 -10.1442 18.1882
8.79297 -10.0405 18.1868
8.91484 -9.95072 18.1879
9.0367 -9.86091 18.1889
9.15857 -9.77109 18.19
9.28044 -9.68127 18.191
9.30135 -9.57761 18.1897
9.42322 -9.4878 18.1907
9.54509 -9.39798 18.1918
9.66695 -9.30817 18.1928
9.68787 -9.20451 18.1915
9.80974 -9.11469 18.1925
9.9316 -9.02487 18.1936
9.95252 -8.92122 18.1922
10.0744 -8.8314 18.1933
10.0953 -8.72774 18.1919
10.2172 -8.63792 18.193
10.2381 -8.53426 18.1916
10.3599 -8.44445 18.1926
10.4818 -8.35463 18.1937
10.5027 -8.25097 18.1923
10.6246 -8.16115 18.1934
10.6455 -8.0575 18.192
10.6664 -7.95384 18.1907
10.6873 -7.85018 18.1893
10.7083 -7.74651 18.1879
10.8301 -7.6567 18.189
10.851 -7.55304 18.1876
10.872 -7.44938 18.1863
10.8929 -7.34572 18.1849
10.9138 -7.24206 18.1835
10.9347 -7.1384 18.1822
11.0566 -7.04858 18.1832
11.0775 -6.94492 18.1819
11.0984 -6.84126 18.1805
11.1193 -6.7376 18.1791
11.1402 -6.63394 18.1777
11.1611 -6.53028 18.1764
11.1821 -6.42662 18.175
11.203 -6.32296 18.1737
11.2239 -6.2193 18.1723
11.2448 -6.11564 18.1709
11.2657 -6.01198 18.1696
11.1857 -5.89447 18.1658
11.2066 -5.79082 18.1644
11.2275 -5.68716 18.163
11.2484 -5.5835 18.1617
11.2693 -5.47983 18.1603
11.2903 -5.37617 18.1589
11.3112 -5.27251 18.1576
11.3321 -5.16885 18.1562
11.353 -5.06519 18.1548
11.273 -4.94769 18.151
11.2939 -4.84403 18.1497
11.3148 -4.74037 18.1483
11.3357 -4.63671 18.147
11.3566 -4.53305 18.1456
11.2766 -4.41555 18.1418
11.1966 -4.29804 18.138
11.2175 -4.19438 18.1366
11.1374 -4.07688 18.1329
11.0574 -3.95937 18.1291
11.0783 -3.85571 18.1277
11.0992 -3.75205 18.1263
11.0192 -3.63455 18.1225
11.0401 -3.53089 18.1212
11.061 -3.42723 18.1198
10.981 -3.30972 18.116
11.0019 -3.20606 18.1147
10.9219 -3.08856 18.1109
10.9428 -2.9849 18.1095
10.8627 -2.86739 18.1057
10.8837 -2.76373 18.1043
10.8036 -2.64623 18.1006
10.7236 -2.52872 18.0968
10.7445 -2.42507 18.0954
10.6645 -2.30756 18.0916
10.5844 -2.19006 18.0878
10.5044 -2.07255 18.084
10.5253 -1.96889 18.0827
10.5462 -1.86523 18.0813
10.5671 -1.76157 18.0799
10.588 -1.65791 18.0786
10.609 -1.55425 18.0772
10.6299 -1.45059 18.0758
10.5498 -1.33308 18.0721
10.4698 -1.21558 18.0683
10.3898 -1.09808 18.0645
10.3097 -0.980571 18.0607
10.3306 -0.876911 18.0593
10.3516 -0.773251 18.058
10.3725 -0.66959 18.0566
10.3934 -0.56593 18.0552
10.4143 -0.462268 18.0538
10.3343 -0.344767 18.0501
10.5938 -8.43711 18.1489
10.6545 -8.2984 18.1499
10.7151 -8.15968 18.151
10.7757 -8.02097 18.152
10.742 -7.92074 18.1507
10.8026 -7.78202 18.1517
10.8633 -7.6433 18.1528
11.0182 -7.4661 18.1563
11.0789 -7.32738 18.1573
11.0452 -7.22715 18.156
11.0114 -7.12692 18.1546
11.0721 -6.98821 18.1557
11.4158 -6.73403 18.164
11.4764 -6.59532 18.165
11.537 -6.4566 18.1661
11.5977 -6.31788 18.1671
11.5639 -6.21765 18.1658
11.6246 -6.07894 18.1668
11.5909 -5.97871 18.1655
11.6515 -5.83999 18.1665
11.6178 -5.73976 18.1652
11.6784 -5.60105 18.1662
11.6447 -5.50082 18.1649
11.7053 -5.3621 18.1659
11.6716 -5.26187 18.1646
11.7322 -5.12315 18.1656
11.6985 -5.02292 18.1642
11.6648 -4.92269 18.1629
11.6311 -4.82246 18.1615
11.6917 -4.68375 18.1626
11.658 -4.58352 18.1612
11.7186 -4.4448 18.1622
11.6849 -4.34457 18.1609
11.6512 -4.24434 18.1595
11.6175 -4.14411 18.1582
11.6781 -4.00539 18.1592
11.6444 -3.90517 18.1579
11.6107 -3.80493 18.1565
11.577 -3.70471 18.1551
11.6376 -3.56599 18.1562
11.6039 -3.46576 18.1548
11.5702 -3.36553 18.1534
11.5364 -3.2653 18.1521
11.5027 -3.16507 18.1507
11.469 -3.06484 18.1493
11.5296 -2.92612 18.1504
11.4959 -2.82589 18.149
11.3679 -2.76415 18.1452
11.3341 -2.66392 18.1439
11.3004 -2.56369 18.1425
11.2667 -2.46346 18.1411
11.233 -2.36323 18.1398
11.2936 -2.22451 18.1408
11.2599 -2.12428 18.1395
11.3205 -1.98557 18.1405
11.2868 -1.88534 18.1392
11.2531 -1.78511 18.1378
11.2194 -1.68488 18.1364
11.1857 -1.58465 18.1351
11.2463 -1.44593 18.1361
11.2126 -1.3457 18.1348
11.1789 -1.24547 18.1334
11.0508 -1.18373 18.1296
11.0171 -1.0835 18.1282
11.0777 -0.944782 18.1293
11.044 -0.844551 18.1279
11.0103 -0.744321 18.1266
10.9766 -0.64409 18.1252
10.9428 -0.543861 18.1238
11.0035 -0.405146 18.1249
10.9698 -0.304915 18.1235
10.936 -0.204684 18.1221
10.9023 -0.104455 18.1208
10.8686 -0.00422502 18.1194
10.8349 0.0960042 18.1181
10.8955 0.234721 18.1191
10.8618 0.334951 18.1178
10.8281 0.435181 18.1164
10.8887 0.573896 18.1174
10.855 0.674125 18.1161
10.8213 0.774356 18.1147
10.7876 0.874587 18.1133
10.7539 0.974817 18.112
10.7201 1.07505 18.1106
10.6864 1.17528 18.1092
10.6527 1.27551 18.1079
10.619 1.37574 18.1065
10.5853 1.47597 18.1051
10.5515 1.5762 18.1038
10.5178 1.67643 18.1024
10.4841 1.77666 18.101
10.4504 1.87689 18.0997
10.4167 1.97712 18.0983
10.383 2.07734 18.0969
10.3492 2.17758 18.0956
10.3155 2.2778 18.0942
10.2818 2.37804 18.0928
10.2481 2.47827 18.0915
10.12 2.54001 18.0877
10.0863 2.64024 18.0863
10.0526 2.74047 18.085
10.0189 2.8407 18.0836
9.98516 2.94093 18.0822
9.95145 3.04116 18.0809
9.91773 3.14139 18.0795
9.88401 3.24162 18.0781
9.8503 3.34185 18.0768
9.72223 3.40359 18.073
9.68851 3.50382 18.0716
9.6548 3.60405 18.0702
9.62108 3.70428 18.0689
9.58736 3.80451 18.0675
9.55364 3.90474 18.0661
9.51993 4.00497 18.0648
9.48621 4.1052 18.0634
9.45249 4.20543 18.062
9.32443 4.26718 18.0583
9.29071 4.3674 18.0569
9.16264 4.42915 18.0531
9.12893 4.52938 18.0517
9.09521 4.62961 18.0504
9.06149 4.72984 18.049
9.02778 4.83007 18.0476
8.99406 4.9303 18.0463
8.86599 4.99204 18.0425
8.83228 5.09227 18.0411
8.79856 5.1925 18.0397
8.67049 5.25425 18.036
8.63678 5.35448 18.0346
8.60306 5.4547 18.0332
8.47499 5.51645 18.0294
8.44127 5.61668 18.0281
8.31321 5.67842 18.0243
8.27949 5.77865 18.0229
8.15143 5.84039 18.0191
8.02336 5.90214 18.0153
7.89529 5.96388 18.0116
7.86158 6.06411 18.0102
7.73351 6.12586 18.0064
7.69979 6.22609 18.005
7.57173 6.28783 18.0012
10.4605 2.4745 18.1172
10.4436 2.62495 18.1183
10.4268 2.77539 18.1193
10.3475 2.84534 18.118
10.3306 2.99579 18.119
10.3138 3.14623 18.1201
10.2969 3.29668 18.1211
10.2176 3.36662 18.1198
10.2008 3.51707 18.1208
10.1215 3.58701 18.1195
10.1046 3.73746 18.1205
10.0253 3.8074 18.1192
9.94597 3.87735 18.1178
9.92912 4.0278 18.1189
9.84981 4.09774 18.1175
9.7705 4.16769 18.1161
9.75364 4.31813 18.1172
9.67433 4.38807 18.1158
9.65748 4.53852 18.1169
9.64063 4.68897 18.1179
9.56132 4.75892 18.1166
9.482 4.82886 18.1152
9.46515 4.97931 18.1162
9.38584 5.04925 18.1149
9.30652 5.11919 18.1135
9.28967 5.26964 18.1146
9.21036 5.33958 18.1132
9.19351 5.49003 18.1143
9.11419 5.55997 18.1129
9.03488 5.62992 18.1115
8.95556 5.69986 18.1102
8.87625 5.7698 18.1088
8.79694 5.83975 18.1074
8.71762 5.90969 18.1061
8.63831 5.97963 18.1047
8.62146 6.13008 18.1058
8.54214 6.20002 18.1044
8.46283 6.26997 18.103
8.44598 6.42041 18.1041
8.36666 6.49036 18.1027
8.28735 6.5603 18.1013
8.20803 6.63024 18.1
8.12872 6.70019 18.0986
8.0494 6.77013 18.0973
7.97009 6.84008 18.0959
7.89077 6.91002 18.0945
7.81146 6.97996 18.0932
7.73214 7.0499 18.0918
7.65283 7.11985 18.0904
7.57352 7.18979 18.0891
7.4942 7.25973 18.0877
7.41488 7.32968 18.0863
7.33557 7.39962 18.085
7.25626 7.46956 18.0836
7.17694 7.5395 18.0822
7.09763 7.60945 18.0809
6.95585 7.59889 18.0771
6.87653 7.66883 18.0757
6.79722 7.73878 18.0743
6.7179 7.80872 18.073
6.57612 7.79815 18.0692
6.49681 7.8681 18.0678
6.41749 7.93804 18.0665
6.33818 8.00799 18.0651
6.25886 8.07793 18.0637
6.17955 8.14787 18.0624
6.10023 8.21781 18.061
5.95845 8.20725 18.0572
5.87914 8.2772 18.0558
5.79982 8.34714 18.0545
5.40818 8.01456 18.041
5.2664 8.00399 18.0372
5.12462 7.99343 18.0334
4.98284 7.98287 18.0296
4.90352 8.05281 18.0283
4.76174 8.04225 18.0245
4.61996 8.03169 18.0207
4.47818 8.02113 18.0169
4.3364 8.01057 18.0131
8.71996 6.15455 18.1067
8.6163 6.17547 18.1053
8.52648 6.29733 18.1063
8.43666 6.4192 18.1074
8.333 6.44012 18.106
8.24319 6.56198 18.1071
8.13953 6.5829 18.1057
8.04971 6.70476 18.1068
7.9599 6.82663 18.1078
7.88393 7.04945 18.1113
7.78026 7.07037 18.11
7.69045 7.19224 18.111
7.58679 7.21315 18.1096
7.49697 7.33501 18.1107
7.39331 7.35593 18.1093
7.28965 7.37684 18.108
7.18599 7.39776 18.1066
7.08233 7.41867 18.1052
6.99252 7.54054 18.1063
6.88886 7.56146 18.1049
6.84057 7.98618 18.1133
6.73691 8.00709 18.1119
6.6471 8.12896 18.1129
6.54344 8.14988 18.1116
6.43978 8.17079 18.1102
6.34996 8.29266 18.1113
6.2463 8.31357 18.1099
6.14264 8.33449 18.1085
6.03898 8.3554 18.1072
5.93532 8.37632 18.1058
5.83166 8.39724 18.1044
5.728 8.41815 18.1031
5.62434 8.43907 18.1017
5.52068 8.45998 18.1003
5.41702 8.4809 18.099
5.31336 8.50181 18.0976
5.2097 8.52273 18.0963
5.10604 8.54364 18.0949
5.00238 8.56456 18.0935
4.89872 8.58547 18.0921
4.79506 8.60639 18.0908
4.67755 8.52635 18.087
4.57389 8.54727 18.0856
4.47023 8.56818 18.0843
4.36657 8.5891 18.0829
4.26291 8.61001 18.0815
4.15925 8.63093 18.0802
4.05559 8.65184 18.0788
3.95193 8.67276 18.0774
3.84827 8.69367 18.0761
3.74461 8.71459 18.0747
3.62711 8.63455 18.0709
3.52345 8.65547 18.0695
3.41979 8.67638 18.0682
3.30228 8.59634 18.0644
3.19862 8.61726 18.063
3.08112 8.53722 18.0592
2.96361 8.45719 18.0555
2.84611 8.37715 18.0517
2.74245 8.39807 18.0503
2.62495 8.31802 18.0465
2.50744 8.23799 18.0427
2.40378 8.25891 18.0414
2.28627 8.17887 18.0376
2.18261 8.19978 18.0362
2.07896 8.2207 18.0348
1.9753 8.24161 18.0335
1.87164 8.26253 18.0321
1.75413 8.18249 18.0283
1.65047 8.2034 18.0269
1.54681 8.22432 18.0256
1.42931 8.14429 18.0218
1.32565 8.16521 18.0204
1.20814 8.08517 18.0166
1.10448 8.10608 18.0153
0.986977 8.02604 18.0115
0.883315 8.04696 18.0101
0.765812 7.96692 18.0063
0.662152 7.98784 18.0049
0.558492 8.00875 18.0036
0.440987 7.92871 17.9998
0.337326 7.94963 17.9984
0.219823 7.8696 17.9946
5.09824 8.71956 18.0827
4.95953 8.7802 18.0838
4.82081 8.84083 18.0848
4.72058 8.80712 18.0835
4.62035 8.7734 18.0821
4.48163 8.83403 18.0832
4.30443 8.98901 18.0867
4.2042 8.95529 18.0853
4.06548 9.01593 18.0863
3.96525 8.98221 18.085
3.82654 9.04284 18.086
3.72631 9.00912 18.0847
3.62608 8.97541 18.0833
3.52585 8.94169 18.0819
3.42562 8.90797 18.0806
3.2869 8.9686 18.0816
3.18667 8.93489 18.0803
3.08644 8.90117 18.0789
2.98621 8.86745 18.0775
2.88598 8.83373 18.0762
2.78575 8.80002 18.0748
2.68552 8.7663 18.0734
2.54681 8.82694 18.0745
2.44658 8.79322 18.0731
2.34635 8.7595 18.0717
2.24612 8.72579 18.0704
2.14589 8.69207 18.069
2.00717 8.7527 18.0701
1.90694 8.71898 18.0687
1.80671 8.68526 18.0674
1.70648 8.65155 18.066
1.60625 8.61783 18.0646
1.46753 8.67847 18.0657
1.36731 8.64475 18.0643
1.26707 8.61103 18.0629
1.16684 8.57731 18.0616
1.06661 8.5436 18.0602
0.966384 8.50988 18.0588
0.866155 8.47616 18.0575
0.765924 8.44245 18.0561
0.665695 8.40873 18.0547
0.565464 8.37501 18.0534
0.465235 8.34129 18.052
0.365006 8.30758 18.0506
0.226289 8.36821 18.0517
0.126059 8.33449 18.0503
0.0258286 8.30078 18.049
-0.0743997 8.26706 18.0476
-0.17463 8.23334 18.0462
-0.27486 8.19963 18.0449
-0.37509 8.16591 18.0435
-0.475322 8.13219 18.0421
-0.57555 8.09847 18.0408
-0.675781 8.06476 18.0394
-0.77601 8.03104 18.038
-0.87624 7.99732 18.0367
-0.976471 7.96361 18.0353
-1.0767 7.92989 18.034
-1.17693 7.89617 18.0326
-1.23867 7.76811 18.0288
-1.33891 7.73439 18.0274
-1.43913 7.70067 18.0261
-1.53936 7.66695 18.0247
-1.63959 7.63324 18.0233
-1.73982 7.59952 18.022
-1.84006 7.5658 18.0206
-1.94028 7.53208 18.0192
-2.04051 7.49837 18.0179
-2.14074 7.46465 18.0165
-2.24097 7.43094 18.0151
-2.30272 7.30287 18.0113
-2.40294 7.26915 18.01
-2.46469 7.14109 18.0062
-2.56492 7.10737 18.0048
-2.62666 6.9793 18.001
-2.68841 6.85124 17.9972
-2.78864 6.81752 17.9959
-2.85038 6.68946 17.9921
-2.91212 6.56139 17.9883
-2.97387 6.43332 17.9845
-3.0741 6.39961 17.9831
-3.13584 6.27154 17.9794
-3.23607 6.23782 17.978
-3.3363 6.2041 17.9766
-3.35956 5.98169 17.9704
-3.4213 5.85362 17.9666
-3.48304 5.72556 17.9628
-3.58328 5.69184 17.9615
-3.64502 5.56378 17.9577
-3.74525 5.53006 17.9563
-3.84548 5.49634 17.9549
-3.94571 5.46262 17.9536
-4.00745 5.33455 17.9498
-4.10768 5.30084 17.9484
-4.16943 5.17278 17.9446
-4.26966 5.13906 17.9433
-4.36989 5.10534 17.9419
-4.43163 4.97727 17.9381
-4.53186 4.94356 17.9368
-4.5936 4.81549 17.933
-1.25237 8.30995 18.0492
-1.40282 8.2931 18.0502
-1.55326 8.27624 18.0513
-1.62321 8.19693 18.0499
-1.69315 8.11761 18.0486
-1.8436 8.10077 18.0496
-1.91354 8.02146 18.0483
-1.98349 7.94214 18.0469
-2.05343 7.86282 18.0455
-2.12337 7.78351 18.0442
-2.19332 7.7042 18.0428
-2.26326 7.62488 18.0414
-2.3332 7.54557 18.0401
-2.48365 7.52872 18.0411
-2.6341 7.51187 18.0422
-2.70404 7.43255 18.0408
-2.85449 7.4157 18.0419
-2.92443 7.33639 18.0405
-2.99438 7.25707 18.0392
-3.06432 7.17776 18.0378
-3.13426 7.09844 18.0364
-3.2042 7.01913 18.035
-3.27415 6.93981 18.0337
-3.4246 6.92297 18.0347
-3.49454 6.84365 18.0334
-3.56448 6.76434 18.032
-3.63442 6.68502 18.0306
-3.70437 6.60571 18.0293
-3.77431 6.52639 18.0279
-3.84425 6.44708 18.0266
-3.9142 6.36776 18.0252
-3.98414 6.28845 18.0238
-4.05408 6.20913 18.0224
-4.12403 6.12982 18.0211
-4.19397 6.0505 18.0197
-4.26391 5.97119 18.0183
-4.33386 5.89187 18.017
-4.4038 5.81256 18.0156
-4.47374 5.73325 18.0143
-4.54369 5.65393 18.0129
-4.61363 5.57462 18.0115
-4.68357 5.4953 18.0101
-4.75352 5.41599 18.0088
-4.82346 5.33667 18.0074
-4.8934 5.25736 18.0061
-4.96334 5.17804 18.0047
-5.03329 5.09873 18.0033
-5.10323 5.01941 18.002
-5.09267 4.87763 17.9982
-5.16261 4.79832 17.9968
-5.23256 4.719 17.9954
-5.3025 4.63969 17.9941
-5.37244 4.56038 17.9927
-5.44239 4.48106 17.9913
-5.51233 4.40175 17.99
-5.58227 4.32243 17.9886
-5.65221 4.24312 17.9872
-5.64165 4.10134 17.9834
-5.7116 4.02202 17.9821
-5.78154 3.94271 17.9807
-5.77098 3.80093 17.9769
-5.67991 3.59668 17.9707
-5.18632 3.08011 17.9524
-5.25627 3.00079 17.951
-5.2457 2.85901 17.9472
-4.96487 5.36095 18.022
-5.18769 5.28498 18.0255
-5.41051 5.20901 18.029
-5.43142 5.10535 18.0276
-5.55329 5.01553 18.0287
-5.57421 4.91187 18.0273
-5.69607 4.82206 18.0284
-5.71699 4.7184 18.027
-5.73791 4.61474 18.0257
-5.75882 4.51108 18.0243
-5.77973 4.40742 18.0229
-5.80065 4.30376 18.0216
-5.82157 4.2001 18.0202
-5.84248 4.09644 18.0188
-5.8634 3.99278 18.0175
-5.98526 3.90296 18.0185
-6.10713 3.81315 18.0196
-6.12804 3.70949 18.0182
-6.14896 3.60583 18.0168
-6.27083 3.51601 18.0179
-6.29174 3.41235 18.0165
-6.31266 3.30869 18.0152
-6.33357 3.20503 18.0138
-6.35449 3.10137 18.0125
-6.3754 2.99771 18.0111
-6.39632 2.89405 18.0097
-6.41723 2.79039 18.0083
-6.3372 2.67288 18.0046
-6.35811 2.56922 18.0032
-6.27807 2.45172 17.9994
-6.29898 2.34806 17.998
-6.3199 2.2444 17.9967
-6.34082 2.14074 17.9953
-6.36173 2.03708 17.9939
-6.38264 1.93342 17.9926
-6.40356 1.82976 17.9912
-6.42448 1.7261 17.9898
-6.34444 1.60859 17.9861
-6.36536 1.50493 17.9847
-6.28532 1.38743 17.9809
-6.30624 1.28377 17.9795
-6.32715 1.18011 17.9782
-6.34807 1.07645 17.9768
-6.26803 0.958943 17.973
-6.28894 0.855282 17.9716
-6.30986 0.751623 17.9703
-6.33077 0.647961 17.9689
-6.25074 0.530458 17.9651
-6.27166 0.426798 17.9638
-6.29257 0.323138 17.9624
-6.31349 0.219479 17.961
-6.3344 0.115817 17.9597
-6.25436 -0.00168669 17.9559
-6.27527 -0.105349 17.9545
-6.29619 -0.209007 17.9531
-6.21615 -0.326512 17.9493
-6.23707 -0.430171 17.948
-6.25799 -0.533831 17.9466
-6.2789 -0.637493 17.9453
-6.19886 -0.754998 17.9415
-6.21978 -0.858657 17.9401
-6.24069 -0.962317 17.9387
-6.16066 -1.07982 17.9349
-6.91955 2.29901 18.021
-6.98018 2.16029 18.022
-6.94646 2.06006 18.0207
-6.91275 1.95983 18.0193
-6.97338 1.82111 18.0204
-6.93966 1.72088 18.019
-6.90595 1.62065 18.0177
-6.87223 1.52042 18.0163
-6.93286 1.38171 18.0173
-6.89914 1.28148 18.016
-6.95978 1.14276 18.017
-7.0204 1.00405 18.0181
-6.98669 0.903816 18.0167
-6.95297 0.803585 18.0154
-7.01361 0.664867 18.0164
-7.07424 0.526151 18.0175
-7.04052 0.425922 18.0161
-7.10115 0.287207 18.0172
-7.06743 0.186977 18.0158
-7.12807 0.0482605 18.0168
-7.09435 -0.051971 18.0155
-7.06063 -0.1522 18.0141
-7.02692 -0.25243 18.0128
-7.08755 -0.391147 18.0138
-7.05383 -0.491377 18.0125
-7.02012 -0.591607 18.0111
-6.9864 -0.691836 18.0097
-7.04703 -0.830553 18.0108
-7.01331 -0.930782 18.0094
-6.9796 -1.03101 18.008
-6.94588 -1.13124 18.0067
-6.91216 -1.23147 18.0053
-6.87844 -1.3317 18.0039
-6.84473 -1.43193 18.0026
-6.81101 -1.53216 18.0012
-6.77729 -1.63239 17.9998
-6.74358 -1.73262 17.9985
-6.70986 -1.83285 17.9971
-6.67614 -1.93308 17.9957
-6.54808 -1.99483 17.992
-6.51436 -2.09506 17.9906
-6.48064 -2.19529 17.9892
-6.44693 -2.29552 17.9879
-6.41321 -2.39574 17.9865
-6.37949 -2.49598 17.9851
-6.34577 -2.5962 17.9838
-6.21771 -2.65795 17.98
-6.18399 -2.75818 17.9786
-6.15028 -2.85841 17.9772
-6.11656 -2.95864 17.9759
-6.08284 -3.05887 17.9745
-6.04912 -3.1591 17.9731
-6.01541 -3.25933 17.9718
-5.98169 -3.35956 17.9704
-5.94797 -3.45979 17.969
-5.91426 -3.56002 17.9677
-5.88054 -3.66025 17.9663
-5.84682 -3.76048 17.965
-5.81311 -3.86071 17.9636
-5.77939 -3.96094 17.9622
-5.74567 -4.06117 17.9608
-5.6176 -4.12291 17.9571
-5.58389 -4.22314 17.9557
-5.55017 -4.32337 17.9543
-5.51645 -4.4236 17.953
-5.48273 -4.52383 17.9516
-5.35467 -4.58558 17.9478
-5.32096 -4.6858 17.9464
-5.28724 -4.78603 17.9451
-5.25352 -4.88626 17.9437
-5.2198 -4.98649 17.9423
-5.18609 -5.08673 17.941
-5.15237 -5.18696 17.9396
-5.11865 -5.28718 17.9382
-5.08493 -5.38741 17.9369
-5.05122 -5.48764 17.9355
-5.0175 -5.58787 17.9341
-4.98379 -5.6881 17.9328
-4.95007 -5.78833 17.9314
-4.91635 -5.88856 17.93
-4.78829 -5.95031 17.9263
-4.75457 -6.05054 17.9249
-4.72085 -6.15077 17.9235
-4.59278 -6.21251 17.9197
-4.46472 -6.27425 17.9159
-4.431 -6.37448 17.9146
-4.39729 -6.47471 17.9132
-4.26922 -6.53646 17.9094
-4.2355 -6.63668 17.9081
-4.20178 -6.73692 17.9067
-4.16807 -6.83715 17.9053
-4.13435 -6.93738 17.904
-4.00628 -6.99912 17.9002
-3.97256 -7.09935 17.8988
-3.93885 -7.19958 17.8974
-3.81078 -7.26132 17.8936
-3.68272 -7.32307 17.8899
-3.649 -7.4233 17.8885
-3.52093 -7.48504 17.8847
-3.48722 -7.58527 17.8833
-3.4535 -7.6855 17.882
-3.41978 -7.78573 17.8806
-3.38606 -7.88596 17.8792
-3.258 -7.9477 17.8755
-3.03559 -7.97096 17.8692
-2.90752 -8.0327 17.8654
-2.8738 -8.13293 17.8641
-2.84008 -8.23316 17.8627
-2.80636 -8.33339 17.8614
-2.6783 -8.39514 17.8576
-2.64459 -8.49537 17.8562
-2.51652 -8.55711 17.8524
-2.2941 -8.58037 17.8462
-5.65393 -4.54369 18.0129
-5.63708 -4.69414 18.0139
-5.62023 -4.84458 18.015
-5.54092 -4.91452 18.0136
-5.52407 -5.06497 18.0147
-5.44475 -5.13492 18.0133
-5.4279 -5.28536 18.0144
-5.41106 -5.43581 18.0154
-5.39421 -5.58626 18.0165
-5.31489 -5.6562 18.0151
-5.23558 -5.72615 18.0138
-5.21873 -5.87659 18.0148
-5.13941 -5.94654 18.0135
-5.12256 -6.09699 18.0145
-5.10572 -6.24743 18.0156
-5.0264 -6.31738 18.0142
-4.94708 -6.38732 18.0128
-4.86777 -6.45726 18.0115
-4.78846 -6.52721 18.0101
-4.77161 -6.67765 18.0112
-4.69229 -6.7476 18.0098
-4.67545 -6.89805 18.0108
-4.59613 -6.96799 18.0095
-4.57928 -7.11843 18.0105
-4.49997 -7.18838 18.0092
-4.42065 -7.25832 18.0078
-4.4038 -7.40877 18.0089
-4.32448 -7.47871 18.0075
-4.30764 -7.62916 18.0086
-4.22833 -7.69911 18.0072
-4.14901 -7.76905 18.0058
-4.06969 -7.83899 18.0045
-4.05284 -7.98944 18.0055
-3.97353 -8.05938 18.0042
-3.89422 -8.12932 18.0028
-3.8149 -8.19927 18.0014
-3.73558 -8.26921 18.0001
-3.65627 -8.33915 17.9987
-3.57696 -8.4091 17.9973
-3.49764 -8.47904 17.996
-3.41832 -8.54898 17.9946
-3.33901 -8.61892 17.9932
-3.2597 -8.68887 17.9919
-3.18038 -8.75881 17.9905
-3.10107 -8.82875 17.9891
-3.08422 -8.9792 17.9902
-3.0049 -9.04915 17.9888
-2.92559 -9.11909 17.9875
-2.84628 -9.18904 17.9861
-2.76696 -9.25898 17.9847
-2.68764 -9.32892 17.9834
-2.60833 -9.39886 17.982
-2.52902 -9.46881 17.9806
-2.4497 -9.53875 17.9792
-2.37039 -9.60869 17.9779
-2.29107 -9.67864 17.9765
-2.21176 -9.74858 17.9752
-2.13244 -9.81852 17.9738
-1.99066 -9.80796 17.97
-1.91135 -9.8779 17.9686
-1.83203 -9.94784 17.9673
-1.75272 -10.0178 17.9659
-1.6734 -10.0877 17.9645
-1.59409 -10.1577 17.9632
-1.51477 -10.2276 17.9618
-1.43546 -10.2976 17.9604
-1.35614 -10.3675 17.9591
-1.27683 -10.4374 17.9577
-1.19751 -10.5074 17.9563
-1.1182 -10.5773 17.955
-1.03889 -10.6473 17.9536
-0.959571 -10.7172 17.9522
-0.817794 -10.7067 17.9485
-0.738477 -10.7766 17.9471
-0.659162 -10.8465 17.9457
-0.579848 -10.9165 17.9444
-0.500535 -10.9864 17.943
-0.358752 -10.9759 17.9392
-0.279436 -11.0458 17.9378
-0.20012 -11.1158 17.9365
-0.058342 -11.1052 17.9327
0.0209718 -11.1751 17.9313
0.10029 -11.2451 17.9299
0.242064 -11.2345 17.9262
0.32138 -11.3045 17.9248
0.463162 -11.2939 17.921
0.729872 -11.1223 17.9124
0.871655 -11.1118 17.9086
1.01344 -11.1012 17.9048
