ply
format ascii 1.0
comment VCGLIB generated
element vertex 958
property float x
property float y
property float z
element face 0
property list uchar int vertex_indices
end_header
2.04826 -11.8664 19.1495
2.1987 -11.8495 19.1506
2.34915 -11.8327 19.1516
2.4191 -11.7534 19.1503
2.89156 -11.9864 19.161
3.04201 -11.9695 19.1621
3.19246 -11.9527 19.1631
3.58442 -12.1232 19.1715
3.81538 -12.1688 19.1749
3.88532 -12.0895 19.1736
4.03576 -12.0727 19.1746
4.10571 -11.9934 19.1733
4.25615 -11.9765 19.1743
4.4066 -11.9597 19.1754
4.47655 -11.8803 19.174
4.7075 -11.926 19.1775
4.77744 -11.8466 19.1761
4.92789 -11.8298 19.1772
5.07834 -11.8129 19.1782
5.14828 -11.7336 19.1769
5.29873 -11.7168 19.1779
5.44917 -11.6999 19.179
5.59962 -11.6831 19.1801
5.75007 -11.6662 19.1811
5.90052 -11.6494 19.1822
5.97046 -11.5701 19.1808
6.12091 -11.5532 19.1819
6.19086 -11.4739 19.1805
6.2608 -11.3946 19.1791
6.33074 -11.3153 19.1777
6.40068 -11.236 19.1764
6.55113 -11.2191 19.1774
6.62108 -11.1398 19.1761
6.77152 -11.123 19.1771
6.92197 -11.1061 19.1782
6.99191 -11.0268 19.1768
7.14236 -11.0099 19.1779
7.2123 -10.9306 19.1765
7.28225 -10.8513 19.1752
7.4327 -10.8345 19.1762
7.50264 -10.7551 19.1748
7.57258 -10.6758 19.1735
7.64253 -10.5965 19.1721
7.71247 -10.5172 19.1707
7.86291 -10.5003 19.1718
7.93286 -10.421 19.1704
8.0028 -10.3417 19.1691
8.07274 -10.2624 19.1677
8.14268 -10.1831 19.1663
8.21263 -10.1038 19.165
8.36308 -10.0869 19.166
8.43302 -10.0076 19.1647
8.58347 -9.99077 19.1657
8.65341 -9.91145 19.1644
8.72336 -9.83214 19.163
8.7933 -9.75282 19.1616
8.94375 -9.73597 19.1627
9.01369 -9.65666 19.1613
9.08363 -9.57734 19.1599
9.15358 -9.49802 19.1586
9.22352 -9.41871 19.1572
9.37397 -9.40186 19.1583
9.44391 -9.32255 19.1569
9.43335 -9.18077 19.1531
9.50329 -9.10145 19.1517
9.57323 -9.02214 19.1504
9.64318 -8.94282 19.149
9.71312 -8.86351 19.1477
9.70256 -8.72173 19.1439
9.77251 -8.64242 19.1425
9.84245 -8.5631 19.1411
9.91239 -8.48379 19.1398
9.90183 -8.342 19.136
9.97177 -8.26269 19.1346
10.0417 -8.18338 19.1332
10.1117 -8.10406 19.1319
10.1816 -8.02475 19.1305
10.2515 -7.94543 19.1292
10.241 -7.80365 19.1254
10.3109 -7.72434 19.124
10.3809 -7.64502 19.1226
10.4508 -7.56571 19.1213
10.5208 -7.48639 19.1199
10.5102 -7.34461 19.1161
10.5801 -7.2653 19.1147
10.5696 -7.12352 19.1109
10.6395 -7.0442 19.1096
10.629 -6.90242 19.1058
10.6184 -6.76064 19.102
10.6883 -6.68133 19.1006
10.6778 -6.53955 19.0968
10.6672 -6.39777 19.0931
10.6567 -6.25598 19.0893
10.6461 -6.11421 19.0855
10.4745 -5.8475 19.0768
10.464 -5.70572 19.0731
10.4534 -5.56393 19.0693
10.4428 -5.42215 19.0655
10.5128 -5.34284 19.0641
10.5827 -5.26353 19.0627
10.5722 -5.12175 19.059
10.5616 -4.97996 19.0552
10.551 -4.83818 19.0514
10.5405 -4.6964 19.0476
10.5299 -4.55463 19.0438
10.4389 -4.35038 19.0376
10.3478 -4.14613 19.0314
10.3372 -4.00435 19.0276
6.76306 -11.3601 19.1661
6.98588 -11.2841 19.1696
7.10775 -11.1943 19.1706
7.33056 -11.1183 19.1741
7.45243 -11.0285 19.1752
7.5743 -10.9387 19.1762
7.69617 -10.8489 19.1773
7.81803 -10.7591 19.1783
7.83894 -10.6554 19.177
7.85986 -10.5517 19.1756
8.08268 -10.4758 19.1791
8.3055 -10.3998 19.1826
8.42737 -10.31 19.1836
8.54923 -10.2202 19.1847
8.57015 -10.1165 19.1833
8.69202 -10.0267 19.1844
8.81388 -9.93688 19.1854
8.93575 -9.84706 19.1865
9.15857 -9.77109 19.19
9.28044 -9.68127 19.191
9.30135 -9.57761 19.1897
9.42322 -9.4878 19.1907
9.44413 -9.38414 19.1893
9.46505 -9.28048 19.188
9.58692 -9.19066 19.189
9.70879 -9.10085 19.1901
9.83065 -9.01103 19.1911
9.95252 -8.92122 19.1922
10.0744 -8.8314 19.1933
10.1963 -8.74158 19.1943
10.2172 -8.63792 19.193
10.2381 -8.53426 19.1916
10.3599 -8.44445 19.1926
10.3809 -8.34079 19.1913
10.5027 -8.25097 19.1923
10.5237 -8.14731 19.191
10.5446 -8.04365 19.1896
10.6664 -7.95384 19.1907
10.6873 -7.85018 19.1893
10.7083 -7.74651 19.1879
10.7292 -7.64285 19.1866
10.7501 -7.53919 19.1852
10.872 -7.44938 19.1863
10.8929 -7.34572 19.1849
10.9138 -7.24206 19.1835
10.9347 -7.1384 19.1822
10.9556 -7.03474 19.1808
11.0775 -6.94492 19.1819
11.0984 -6.84126 19.1805
11.1193 -6.7376 19.1791
11.1402 -6.63394 19.1777
11.1611 -6.53028 19.1764
11.1821 -6.42662 19.175
11.203 -6.32296 19.1737
11.2239 -6.2193 19.1723
11.1438 -6.1018 19.1685
11.1648 -5.99814 19.1671
11.1857 -5.89447 19.1658
11.2066 -5.79082 19.1644
11.1266 -5.67331 19.1606
11.1475 -5.56965 19.1592
11.1684 -5.46599 19.1579
11.1893 -5.36233 19.1565
11.2102 -5.25867 19.1552
11.2311 -5.15501 19.1538
11.1511 -5.03751 19.15
11.172 -4.93385 19.1486
11.092 -4.81634 19.1448
11.1129 -4.71268 19.1435
11.0329 -4.59518 19.1397
11.0538 -4.49152 19.1383
10.9737 -4.37401 19.1345
10.9947 -4.27035 19.1332
11.0156 -4.16669 19.1318
10.9355 -4.04919 19.128
10.9564 -3.94553 19.1266
10.9774 -3.84187 19.1253
10.9983 -3.73821 19.1239
10.9182 -3.6207 19.1201
10.9392 -3.51704 19.1188
10.9601 -3.41338 19.1174
10.88 -3.29588 19.1136
10.9009 -3.19222 19.1122
10.8209 -3.07471 19.1084
10.7409 -2.95721 19.1047
10.6608 -2.8397 19.1009
10.3198 -2.47334 19.0871
10.3407 -2.36969 19.0857
10.3616 -2.26603 19.0843
10.3825 -2.16237 19.083
10.4034 -2.0587 19.0816
10.4243 -1.95504 19.0802
10.4453 -1.85138 19.0789
10.3652 -1.73388 19.0751
10.3861 -1.63022 19.0737
10.3061 -1.51272 19.0699
10.327 -1.40906 19.0686
10.3479 -1.3054 19.0672
10.3689 -1.20174 19.0658
10.2888 -1.08423 19.062
10.3097 -0.980571 19.0607
10.3306 -0.876911 19.0593
10.3516 -0.773251 19.058
10.3725 -0.66959 19.0566
10.3934 -0.56593 19.0552
10.4143 -0.462268 19.0538
10.3343 -0.344767 19.0501
10.3552 -0.241105 19.0487
10.2751 -0.123602 19.0449
10.2961 -0.0199425 19.0435
10.216 0.0975651 19.0397
10.035 0.228913 19.0335
9.75309 0.374105 19.0249
9.77401 0.477765 19.0235
9.69397 0.59527 19.0197
9.71489 0.698932 19.0184
9.63485 0.816435 19.0146
9.45387 0.947786 19.0084
9.37383 1.06529 19.0046
9.39474 1.16895 19.0032
9.41566 1.27261 19.0019
9.43657 1.37627 19.0005
9.45749 1.47993 18.9991
9.57936 1.56975 19.0002
9.60027 1.67341 18.9988
9.62118 1.77707 18.9975
9.6421 1.88072 18.9961
9.66302 1.98439 18.9947
9.58298 2.10189 18.9909
9.60389 2.20555 18.9896
9.62481 2.30921 18.9882
9.54477 2.42671 18.9844
9.46474 2.54422 18.9806
9.48565 2.64788 18.9792
9.40561 2.76538 18.9755
9.32558 2.88289 18.9717
9.14459 3.01424 18.9655
11.052 -7.56633 19.1576
11.2069 -7.38913 19.1611
11.2676 -7.25041 19.1622
11.3282 -7.1117 19.1632
11.3888 -6.97298 19.1643
11.3551 -6.87275 19.1629
11.4158 -6.73403 19.164
11.4764 -6.59532 19.165
11.4427 -6.49509 19.1637
11.5033 -6.35637 19.1647
11.5639 -6.21765 19.1658
11.5302 -6.11742 19.1644
11.5909 -5.97871 19.1655
11.5571 -5.87848 19.1641
11.6178 -5.73976 19.1652
11.584 -5.63953 19.1638
11.5503 -5.5393 19.1624
11.611 -5.40059 19.1635
11.6716 -5.26187 19.1646
11.6379 -5.16164 19.1632
11.6985 -5.02292 19.1642
11.6648 -4.92269 19.1629
11.6311 -4.82246 19.1615
11.5974 -4.72223 19.1601
11.5636 -4.622 19.1588
11.5299 -4.52177 19.1574
11.5906 -4.38306 19.1585
11.5568 -4.28283 19.1571
11.6175 -4.14411 19.1582
11.5838 -4.04388 19.1568
11.6444 -3.90517 19.1579
11.6107 -3.80493 19.1565
11.577 -3.70471 19.1551
11.5432 -3.60447 19.1537
11.5095 -3.50425 19.1524
11.5702 -3.36553 19.1534
11.5364 -3.2653 19.1521
11.5027 -3.16507 19.1507
11.469 -3.06484 19.1493
11.4353 -2.96461 19.148
11.4016 -2.86438 19.1466
11.3679 -2.76415 19.1452
11.3341 -2.66392 19.1439
11.3004 -2.56369 19.1425
11.2667 -2.46346 19.1411
11.233 -2.36323 19.1398
11.2936 -2.22451 19.1408
11.2599 -2.12428 19.1395
11.2262 -2.02405 19.1381
11.1925 -1.92382 19.1367
11.2531 -1.78511 19.1378
11.2194 -1.68488 19.1364
11.1857 -1.58465 19.1351
11.1519 -1.48442 19.1337
11.1182 -1.38419 19.1323
11.0845 -1.28396 19.131
11.0508 -1.18373 19.1296
11.0171 -1.0835 19.1282
10.9834 -0.983268 19.1269
10.9496 -0.883037 19.1255
11.0103 -0.744321 19.1266
10.9766 -0.64409 19.1252
10.9428 -0.543861 19.1238
10.9091 -0.443633 19.1225
10.8754 -0.343402 19.1211
10.8417 -0.243171 19.1197
10.808 -0.142942 19.1184
10.7743 -0.0427117 19.117
10.8349 0.0960042 19.1181
10.8012 0.196235 19.1167
10.7675 0.296465 19.1153
10.7337 0.396695 19.114
10.7944 0.53541 19.115
10.7607 0.635639 19.1136
10.7269 0.73587 19.1123
10.6932 0.836101 19.1109
10.6595 0.936331 19.1095
10.6258 1.03656 19.1082
10.5921 1.13679 19.1068
10.5584 1.23702 19.1055
10.619 1.37574 19.1065
10.4909 1.43748 19.1027
10.4572 1.53771 19.1013
10.4235 1.63794 19.1
10.3898 1.73817 19.0986
10.3561 1.8384 19.0973
10.3223 1.93863 19.0959
10.2886 2.03886 19.0945
10.2549 2.13909 19.0932
10.2212 2.23932 19.0918
10.1875 2.33955 19.0904
10.1537 2.43978 19.0891
10.12 2.54001 19.0877
10.0863 2.64024 19.0863
10.0526 2.74047 19.085
10.0189 2.8407 19.0836
9.98516 2.94093 19.0822
9.95145 3.04116 19.0809
9.91773 3.14139 19.0795
9.88401 3.24162 19.0781
9.75595 3.30336 19.0743
9.72223 3.40359 19.073
9.68851 3.50382 19.0716
9.6548 3.60405 19.0702
9.52673 3.66579 19.0665
9.49301 3.76603 19.0651
9.45929 3.86625 19.0637
9.42558 3.96648 19.0624
9.39186 4.06672 19.061
9.35814 4.16695 19.0596
9.32443 4.26718 19.0583
9.29071 4.3674 19.0569
9.16264 4.42915 19.0531
9.12893 4.52938 19.0517
9.09521 4.62961 19.0504
9.06149 4.72984 19.049
8.93343 4.79158 19.0452
8.89971 4.89181 19.0439
8.86599 4.99204 19.0425
8.83228 5.09227 19.0411
8.70421 5.15402 19.0373
8.67049 5.25425 19.036
8.54243 5.31599 19.0322
8.50871 5.41622 19.0308
8.47499 5.51645 19.0294
8.34692 5.57819 19.0257
8.03016 5.56296 19.017
7.99644 5.66319 19.0157
7.96273 5.76342 19.0143
7.92901 5.86365 19.0129
7.80094 5.9254 19.0091
7.76723 6.02563 19.0078
7.73351 6.12586 19.0064
7.60545 6.1876 19.0026
7.47738 6.24934 18.9988
10.3931 3.07629 19.1214
10.3762 3.22674 19.1225
10.3594 3.37719 19.1236
10.2801 3.44713 19.1222
10.2632 3.59758 19.1233
10.1839 3.66752 19.1219
10.1046 3.73746 19.1205
10.0253 3.8074 19.1192
10.0084 3.95786 19.1202
9.92912 4.0278 19.1189
9.84981 4.09774 19.1175
9.83296 4.24819 19.1185
9.75364 4.31813 19.1172
9.73679 4.46858 19.1182
9.65748 4.53852 19.1169
9.64063 4.68897 19.1179
9.56132 4.75892 19.1166
9.482 4.82886 19.1152
9.46515 4.97931 19.1162
9.38584 5.04925 19.1149
9.30652 5.11919 19.1135
9.28967 5.26964 19.1146
9.21036 5.33958 19.1132
9.13104 5.40953 19.1118
9.05173 5.47947 19.1105
8.97241 5.54941 19.1091
8.8931 5.61935 19.1077
8.87625 5.7698 19.1088
8.79694 5.83975 19.1074
8.71762 5.90969 19.1061
8.63831 5.97963 19.1047
8.55899 6.04957 19.1033
8.47968 6.11952 19.102
8.46283 6.26997 19.103
8.38351 6.33991 19.1017
8.3042 6.40985 19.1003
8.22488 6.4798 19.0989
8.14557 6.54974 19.0976
8.06625 6.61968 19.0962
7.98694 6.68963 19.0948
7.97009 6.84008 19.0959
7.89077 6.91002 19.0945
7.81146 6.97996 19.0932
7.73214 7.0499 19.0918
7.65283 7.11985 19.0904
7.57352 7.18979 19.0891
7.43173 7.17923 19.0853
7.35242 7.24917 19.0839
7.2731 7.31911 19.0825
7.19379 7.38906 19.0812
7.11447 7.459 19.0798
7.03516 7.52894 19.0784
6.89338 7.51838 19.0746
6.81407 7.58833 19.0733
6.73475 7.65827 19.0719
6.59297 7.64771 19.0681
6.51366 7.71765 19.0668
6.43434 7.78759 19.0654
6.35503 7.85754 19.064
6.21325 7.84698 19.0602
6.13393 7.91692 19.0589
5.99215 7.90636 19.0551
5.91284 7.9763 19.0537
5.70859 7.88523 19.0475
5.56681 7.87467 19.0437
5.42503 7.86411 19.0399
5.28325 7.85355 19.0361
5.20393 7.92349 19.0348
5.06215 7.91293 19.031
4.92037 7.90237 19.0272
4.77859 7.89181 19.0234
4.63681 7.88125 19.0196
4.49503 7.87068 19.0158
4.35325 7.86012 19.012
4.21147 7.84956 19.0083
4.06969 7.839 19.0045
3.99038 7.90894 19.0031
3.8486 7.89838 18.9993
3.70682 7.88782 18.9955
3.37764 7.63574 18.9845
3.29832 7.70568 18.9831
3.15654 7.69513 18.9793
3.01477 7.68456 18.9755
2.93545 7.75451 18.9742
2.79367 7.74394 18.9704
8.85806 5.60796 19.0973
8.78208 5.83078 19.1008
8.69227 5.95265 19.1018
8.58861 5.97357 19.1004
8.49879 6.09543 19.1015
8.39513 6.11634 19.1001
8.29147 6.13726 19.0988
8.18781 6.15817 19.0974
8.09799 6.28005 19.0984
8.00818 6.40191 19.0995
7.90452 6.42282 19.0981
7.8147 6.54469 19.0992
7.72489 6.66656 19.1003
7.63507 6.78843 19.1013
7.5591 7.01124 19.1048
7.46928 7.13311 19.1059
7.37947 7.25498 19.1069
7.28965 7.37684 19.108
7.18599 7.39776 19.1066
7.08233 7.41867 19.1052
6.99252 7.54054 19.1063
6.88886 7.56146 19.1049
6.79904 7.68333 19.106
6.72307 7.90614 19.1095
6.61941 7.92706 19.1081
6.52959 8.04893 19.1092
6.42593 8.06984 19.1078
6.32227 8.09076 19.1064
6.23246 8.21262 19.1075
6.1288 8.23354 19.1061
6.02514 8.25445 19.1048
5.93532 8.37632 19.1058
5.83166 8.39724 19.1044
5.728 8.41815 19.1031
5.62434 8.43907 19.1017
5.52068 8.45998 19.1003
5.41702 8.4809 19.099
5.31336 8.50181 19.0976
5.2097 8.52273 19.0963
5.10604 8.54364 19.0949
5.00238 8.56456 19.0935
4.88487 8.48452 19.0897
4.78121 8.50543 19.0884
4.67755 8.52635 19.087
4.57389 8.54727 19.0856
4.45639 8.46723 19.0818
4.35273 8.48815 19.0805
4.24907 8.50906 19.0791
4.14541 8.52997 19.0777
4.04175 8.55089 19.0764
3.93809 8.57181 19.075
3.83443 8.59272 19.0736
3.73077 8.61363 19.0723
3.62711 8.63455 19.0709
3.5096 8.55451 19.0671
3.40594 8.57543 19.0658
3.28844 8.49539 19.062
3.18478 8.51631 19.0606
3.08112 8.53722 19.0592
2.96361 8.45719 19.0555
2.85995 8.4781 19.0541
2.74245 8.39807 19.0503
2.6111 8.21708 19.0441
2.50744 8.23799 19.0427
2.40378 8.25891 19.0414
2.30012 8.27982 19.04
2.18261 8.19978 19.0362
2.07896 8.2207 19.0348
1.9753 8.24161 19.0335
1.87164 8.26253 19.0321
1.76797 8.28344 19.0307
1.65047 8.2034 19.0269
1.54681 8.22432 19.0256
1.44315 8.24524 19.0242
1.33949 8.26615 19.0228
1.23583 8.28707 19.0215
1.11833 8.20703 19.0177
1.01467 8.22795 19.0163
0.911004 8.24886 19.015
0.807345 8.26978 19.0136
0.68984 8.18974 19.0098
0.586179 8.21065 19.0084
0.468676 8.13062 19.0046
0.351171 8.05058 19.0009
0.219823 7.8696 18.9946
5.02127 8.90827 19.0876
4.92104 8.87455 19.0862
4.78232 8.93518 19.0873
4.68209 8.90147 19.0859
4.58186 8.86775 19.0845
4.48163 8.83403 19.0832
4.34292 8.89466 19.0842
4.24269 8.86095 19.0829
4.14246 8.82723 19.0815
4.00374 8.88786 19.0826
3.90351 8.85414 19.0812
3.76479 8.91478 19.0822
3.66456 8.88106 19.0809
3.56433 8.84735 19.0795
3.4641 8.81363 19.0781
3.32539 8.87426 19.0792
3.22516 8.84054 19.0778
3.12493 8.80682 19.0765
3.0247 8.77311 19.0751
2.88598 8.83373 19.0762
2.78575 8.80002 19.0748
2.68552 8.7663 19.0734
2.58529 8.73259 19.0721
2.48506 8.69887 19.0707
2.34635 8.7595 19.0717
2.24612 8.72579 19.0704
2.14589 8.69207 19.069
2.00717 8.7527 19.0701
1.90694 8.71898 19.0687
1.80671 8.68526 19.0674
1.70648 8.65155 19.066
1.60625 8.61783 19.0646
1.50602 8.58412 19.0632
1.36731 8.64475 19.0643
1.26707 8.61103 19.0629
1.16684 8.57731 19.0616
1.06661 8.5436 19.0602
0.966384 8.50988 19.0588
0.866155 8.47616 19.0575
0.765924 8.44245 19.0561
0.665695 8.40873 19.0547
0.565464 8.37501 19.0534
0.465235 8.34129 19.052
0.365006 8.30758 19.0506
0.264775 8.27386 19.0493
0.164544 8.24014 19.0479
0.0258286 8.30078 19.049
-0.0743997 8.26706 19.0476
-0.17463 8.23334 19.0462
-0.27486 8.19963 19.0449
-0.37509 8.16591 19.0435
-0.475322 8.13219 19.0421
-0.57555 8.09847 19.0408
-0.675781 8.06476 19.0394
-0.77601 8.03104 19.038
-0.87624 7.99732 19.0367
-0.976471 7.96361 19.0353
-1.0767 7.92989 19.034
-1.17693 7.89617 19.0326
-1.27716 7.86246 19.0312
-1.33891 7.73439 19.0274
-1.43913 7.70067 19.0261
-1.53936 7.66695 19.0247
-1.63959 7.63324 19.0233
-1.73982 7.59952 19.022
-1.84006 7.5658 19.0206
-1.94028 7.53208 19.0192
-2.04051 7.49837 19.0179
-2.14074 7.46465 19.0165
-2.24097 7.43094 19.0151
-2.30272 7.30287 19.0113
-2.40294 7.26915 19.01
-2.50317 7.23543 19.0086
-2.56492 7.10737 19.0048
-2.62666 6.9793 19.001
-2.72689 6.94559 18.9997
-2.78864 6.81752 18.9959
-2.85038 6.68946 18.9921
-2.95061 6.65574 18.9907
-3.01235 6.52767 18.9869
-3.0741 6.39961 18.9831
-3.17433 6.36589 18.9818
-3.27456 6.33217 18.9804
-3.37479 6.29845 18.979
-3.43653 6.17039 18.9753
-3.49828 6.04232 18.9715
-3.52153 5.8199 18.9653
-3.58328 5.69184 18.9615
-3.64502 5.56378 18.9577
-3.74525 5.53006 18.9563
-3.84548 5.49634 18.9549
-3.94571 5.46262 18.9536
-4.04594 5.42891 18.9522
-4.14617 5.39519 18.9509
-4.2464 5.36147 18.9495
-4.34663 5.32775 18.9481
-4.40837 5.19969 18.9443
-4.5086 5.16597 18.943
-4.57034 5.03791 18.9392
-4.67058 5.00419 18.9378
-4.73232 4.87612 18.934
-4.83255 4.8424 18.9326
-1.61265 8.05515 19.0462
-1.76309 8.0383 19.0472
-1.91354 8.02146 19.0483
-2.06399 8.0046 19.0493
-2.13393 7.92529 19.048
-2.20388 7.84597 19.0466
-2.35433 7.82913 19.0477
-2.42427 7.74981 19.0463
-2.49421 7.6705 19.0449
-2.64466 7.65365 19.046
-2.7146 7.57433 19.0446
-2.78455 7.49502 19.0432
-2.85449 7.4157 19.0419
-2.92443 7.33639 19.0405
-2.99438 7.25707 19.0392
-3.14482 7.24022 19.0402
-3.21477 7.16091 19.0388
-3.28471 7.08159 19.0375
-3.35465 7.00228 19.0361
-3.4246 6.92297 19.0347
-3.49454 6.84365 19.0334
-3.56448 6.76434 19.032
-3.63442 6.68502 19.0306
-3.70437 6.60571 19.0293
-3.77431 6.52639 19.0279
-3.92476 6.50955 19.029
-3.99471 6.43023 19.0276
-4.06465 6.35091 19.0262
-4.13459 6.2716 19.0249
-4.20453 6.19229 19.0235
-4.27448 6.11297 19.0221
-4.34442 6.03366 19.0208
-4.41436 5.95434 19.0194
-4.48431 5.87503 19.018
-4.55425 5.79571 19.0167
-4.62419 5.7164 19.0153
-4.69414 5.63708 19.0139
-4.76408 5.55777 19.0126
-4.83402 5.47845 19.0112
-4.90397 5.39914 19.0098
-4.97391 5.31983 19.0085
-5.04385 5.24051 19.0071
-5.11379 5.1612 19.0058
-5.18374 5.08188 19.0044
-5.17317 4.9401 19.0006
-5.24312 4.86078 18.9992
-5.31306 4.78147 18.9979
-5.3025 4.63969 18.9941
-5.37244 4.56038 18.9927
-5.44239 4.48106 18.9913
-5.51233 4.40175 18.99
-5.58227 4.32243 18.9886
-5.65221 4.24312 18.9872
-5.64165 4.10134 18.9834
-5.7116 4.02202 18.9821
-5.70104 3.88024 18.9783
-5.77098 3.80093 18.9769
-5.84092 3.72161 18.9756
-5.83036 3.57983 18.9718
-5.9003 3.50052 18.9704
-5.72873 3.2338 18.9618
-5.71817 3.09202 18.958
-5.70761 2.95025 18.9542
-5.69705 2.80846 18.9504
-5.46963 5.43018 19.0342
-5.5915 5.34036 19.0352
-5.61241 5.2367 19.0339
-5.73428 5.14688 19.0349
-5.75519 5.04322 19.0336
-5.77611 4.93956 19.0322
-5.79702 4.8359 19.0308
-5.81794 4.73224 19.0294
-5.83885 4.62858 19.0281
-5.85977 4.52492 19.0267
-5.88068 4.42126 19.0254
-6.00255 4.33145 19.0264
-6.02347 4.22779 19.0251
-6.14534 4.13797 19.0261
-6.16625 4.03431 19.0247
-6.18716 3.93065 19.0234
-6.20808 3.82699 19.022
-6.229 3.72333 19.0206
-6.24991 3.61967 19.0193
-6.27083 3.51601 19.0179
-6.39269 3.42619 19.019
-6.41361 3.32253 19.0176
-6.43452 3.21887 19.0162
-6.45544 3.11521 19.0149
-6.3754 2.99771 19.0111
-6.39632 2.89405 19.0097
-6.41723 2.79039 19.0083
-6.43815 2.68673 19.007
-6.45906 2.58307 19.0056
-6.37903 2.46556 19.0018
-6.39994 2.3619 19.0005
-6.42086 2.25824 18.9991
-6.34082 2.14074 18.9953
-6.36173 2.03708 18.9939
-6.38264 1.93342 18.9926
-6.40356 1.82976 18.9912
-6.42448 1.7261 18.9898
-6.44539 1.62244 18.9885
-6.46631 1.51878 18.9871
-6.48722 1.41512 18.9857
-6.40719 1.29761 18.9819
-6.4281 1.19395 18.9806
-6.44902 1.09029 18.9792
-6.46994 0.986632 18.9779
-6.49085 0.882971 18.9765
-6.51176 0.779312 18.9751
-6.53268 0.67565 18.9738
-6.45264 0.558147 18.97
-6.47356 0.454488 18.9686
-6.49447 0.350827 18.9672
-6.41443 0.233323 18.9634
-6.43535 0.12966 18.9621
-6.8184 1.99832 19.0169
-6.87903 1.8596 19.018
-6.84531 1.75937 19.0166
-6.90595 1.62065 19.0177
-6.87223 1.52042 19.0163
-7.02721 1.34322 19.0198
-7.08784 1.2045 19.0208
-7.14848 1.06579 19.0219
-7.11476 0.965558 19.0205
-7.17539 0.826842 19.0216
-7.14167 0.726611 19.0202
-7.10796 0.62638 19.0188
-7.16858 0.487666 19.0199
-7.13486 0.387438 19.0185
-7.1955 0.24872 19.0196
-7.16179 0.14849 19.0182
-7.22242 0.00977349 19.0193
-7.1887 -0.0904582 19.0179
-7.15498 -0.190686 19.0165
-7.12126 -0.290917 19.0152
-7.08755 -0.391147 19.0138
-7.05383 -0.491377 19.0125
-7.11446 -0.630093 19.0135
-7.08075 -0.730322 19.0121
-7.04703 -0.830553 19.0108
-7.01331 -0.930782 19.0094
-6.9796 -1.03101 19.008
-6.94588 -1.13124 19.0067
-6.91216 -1.23147 19.0053
-6.87844 -1.3317 19.0039
-6.84473 -1.43193 19.0026
-6.81101 -1.53216 19.0012
-6.77729 -1.63239 18.9998
-6.74358 -1.73262 18.9985
-6.70986 -1.83285 18.9971
-6.67614 -1.93308 18.9957
-6.54808 -1.99483 18.992
-6.51436 -2.09506 18.9906
-6.48064 -2.19529 18.9892
-6.44693 -2.29552 18.9879
-6.41321 -2.39574 18.9865
-6.37949 -2.49598 18.9851
-6.34577 -2.5962 18.9838
-6.31206 -2.69643 18.9824
-6.27834 -2.79667 18.981
-6.24462 -2.8969 18.9797
-6.21091 -2.99713 18.9783
-6.08284 -3.05887 18.9745
-6.04912 -3.1591 18.9731
-6.01541 -3.25933 18.9718
-5.98169 -3.35956 18.9704
-5.94797 -3.45979 18.969
-5.91426 -3.56002 18.9677
-5.88054 -3.66025 18.9663
-5.84682 -3.76048 18.965
-5.81311 -3.86071 18.9636
-5.77939 -3.96094 18.9622
-5.74567 -4.06117 18.9608
-5.71195 -4.1614 18.9595
-5.67824 -4.26163 18.9581
-5.64452 -4.36186 18.9567
-5.51645 -4.4236 18.953
-5.48273 -4.52383 18.9516
-5.44902 -4.62406 18.9502
-5.4153 -4.72429 18.9489
-5.38158 -4.82452 18.9475
-5.25352 -4.88626 18.9437
-5.2198 -4.98649 18.9423
-5.18609 -5.08673 18.941
-5.15237 -5.18696 18.9396
-5.11865 -5.28718 18.9382
-4.99059 -5.34893 18.9344
-4.95687 -5.44916 18.9331
-4.92315 -5.54939 18.9317
-4.88944 -5.64962 18.9304
-4.85572 -5.74985 18.929
-4.822 -5.85008 18.9276
-4.69393 -5.91182 18.9238
-4.66022 -6.01205 18.9225
-4.53215 -6.07379 18.9187
-4.49843 -6.17402 18.9173
-4.37037 -6.23577 18.9135
-4.33665 -6.336 18.9122
-4.30293 -6.43623 18.9108
-4.36357 -6.57494 18.9118
-4.32985 -6.67517 18.9105
-4.29613 -6.7754 18.9091
-4.16807 -6.83715 18.9053
-4.13435 -6.93738 18.904
-4.10063 -7.03761 18.9026
-3.97256 -7.09935 18.8988
-3.93885 -7.19958 18.8974
-3.81078 -7.26132 18.8936
-3.77707 -7.36156 18.8923
-3.649 -7.4233 18.8885
-3.61528 -7.52353 18.8871
-3.58157 -7.62376 18.8858
-3.54785 -7.72399 18.8844
-3.51413 -7.82422 18.883
-3.48041 -7.92445 18.8817
-3.35235 -7.98619 18.8779
-3.22428 -8.04793 18.8741
-3.09622 -8.10968 18.8703
-2.96815 -8.17142 18.8665
-2.84008 -8.23316 18.8627
-2.71202 -8.29491 18.8589
-2.58395 -8.35665 18.8551
-2.55024 -8.45688 18.8538
-2.51652 -8.55711 18.8524
-2.4828 -8.65734 18.851
-2.44909 -8.75757 18.8497
-2.32102 -8.81931 18.8459
-2.19295 -8.88106 18.8421
-5.23558 -5.72615 19.0138
-5.15626 -5.79609 19.0124
-5.13941 -5.94654 19.0135
-5.0601 -6.01648 19.0121
-4.98079 -6.08642 19.0107
-4.90147 -6.15637 19.0094
-4.82215 -6.22631 19.008
-4.80531 -6.37676 19.009
-4.85092 -6.60771 19.0125
-4.83408 -6.75816 19.0136
-4.75476 -6.8281 19.0122
-4.73791 -6.97855 19.0133
-4.65859 -7.04849 19.0119
-4.57928 -7.11843 19.0105
-4.56243 -7.26888 19.0116
-4.48311 -7.33883 19.0102
-4.46627 -7.48927 19.0113
-4.38695 -7.55922 19.0099
-4.30764 -7.62916 19.0086
-4.22833 -7.69911 19.0072
-4.21147 -7.84955 19.0083
-4.13216 -7.91949 19.0069
-4.05284 -7.98944 19.0055
-3.97353 -8.05938 19.0042
-3.89422 -8.12932 19.0028
-3.87736 -8.27977 19.0038
-3.79805 -8.34972 19.0025
-3.71874 -8.41966 19.0011
-3.63942 -8.4896 18.9997
-3.56011 -8.55955 18.9984
-3.48079 -8.62949 18.997
-3.40148 -8.69943 18.9957
-3.32216 -8.76938 18.9943
-3.24285 -8.83932 18.9929
-3.16353 -8.90926 18.9915
-3.08422 -8.9792 18.9902
-3.0049 -9.04915 18.9888
-2.92559 -9.11909 18.9875
-2.84628 -9.18904 18.9861
-2.76696 -9.25898 18.9847
-2.68764 -9.32892 18.9834
-2.60833 -9.39886 18.982
-2.52902 -9.46881 18.9806
-2.4497 -9.53875 18.9792
-2.37039 -9.60869 18.9779
-2.29107 -9.67864 18.9765
-2.21176 -9.74858 18.9752
-2.13244 -9.81852 18.9738
-2.05313 -9.88847 18.9724
-1.97381 -9.95841 18.9711
-1.8945 -10.0284 18.9697
-1.75272 -10.0178 18.9659
-1.6734 -10.0877 18.9645
-1.59409 -10.1577 18.9632
-1.51477 -10.2276 18.9618
-1.43546 -10.2976 18.9604
-1.35614 -10.3675 18.9591
-1.27683 -10.4374 18.9577
-1.19751 -10.5074 18.9563
-1.1182 -10.5773 18.955
-1.03889 -10.6473 18.9536
-0.959571 -10.7172 18.9522
-0.880256 -10.7872 18.9509
-0.738477 -10.7766 18.9471
-0.659162 -10.8465 18.9457
-0.579848 -10.9165 18.9444
-0.500535 -10.9864 18.943
-0.421221 -11.0564 18.9416
-0.279436 -11.0458 18.9378
-0.20012 -11.1158 18.9365
-0.120807 -11.1857 18.9351
0.0209718 -11.1751 18.9313
0.10029 -11.2451 18.9299
0.242064 -11.2345 18.9262
0.32138 -11.3045 18.9248
0.525627 -11.2134 18.9186
0.854804 -10.9613 18.9075
