ply
format ascii 1.0
comment VCGLIB generated
element vertex 942
property float x
property float y
property float z
element face 0
property list uchar int vertex_indices
end_header
3.27296 -12.0151 20.1656
3.58442 -12.1232 20.1715
3.73487 -12.1064 20.1725
3.88532 -12.0895 20.1736
4.03576 -12.0727 20.1746
4.18621 -12.0558 20.1757
4.33666 -12.039 20.1767
4.4066 -11.9597 20.1754
4.55705 -11.9428 20.1764
4.62699 -11.8635 20.1751
4.77744 -11.8466 20.1761
4.84738 -11.7673 20.1748
4.99783 -11.7505 20.1758
5.14828 -11.7336 20.1769
5.37923 -11.7792 20.1804
5.44917 -11.6999 20.179
5.59962 -11.6831 20.1801
5.75007 -11.6662 20.1811
5.82001 -11.5869 20.1797
5.88996 -11.5076 20.1784
6.0404 -11.4908 20.1794
6.11035 -11.4114 20.1781
6.2608 -11.3946 20.1791
6.41124 -11.3777 20.1802
6.48119 -11.2984 20.1788
6.63164 -11.2816 20.1799
6.70158 -11.2023 20.1785
6.77152 -11.123 20.1771
6.84146 -11.0436 20.1758
6.91141 -10.9643 20.1744
6.98135 -10.885 20.173
7.1318 -10.8682 20.1741
7.20174 -10.7888 20.1727
7.35219 -10.772 20.1738
7.42213 -10.6927 20.1724
7.57258 -10.6758 20.1735
7.64253 -10.5965 20.1721
7.71247 -10.5172 20.1707
7.86291 -10.5003 20.1718
7.93286 -10.421 20.1704
8.08331 -10.4042 20.1715
8.15325 -10.3249 20.1701
8.22319 -10.2456 20.1688
8.29313 -10.1662 20.1674
8.36308 -10.0869 20.166
8.43302 -10.0076 20.1647
8.58347 -9.99077 20.1657
8.65341 -9.91145 20.1644
8.72336 -9.83214 20.163
8.7933 -9.75282 20.1616
8.86325 -9.67351 20.1603
9.01369 -9.65666 20.1613
9.08363 -9.57734 20.1599
9.15358 -9.49802 20.1586
9.22352 -9.41871 20.1572
9.29346 -9.3394 20.1559
9.36341 -9.26008 20.1545
9.43335 -9.18077 20.1531
9.50329 -9.10145 20.1517
9.57323 -9.02214 20.1504
9.64318 -8.94282 20.149
9.63262 -8.80104 20.1452
9.70256 -8.72173 20.1439
9.77251 -8.64242 20.1425
9.84245 -8.5631 20.1411
9.83189 -8.42132 20.1373
9.90183 -8.342 20.136
9.97177 -8.26269 20.1346
10.0417 -8.18338 20.1332
10.1117 -8.10406 20.1319
10.1816 -8.02475 20.1305
10.171 -7.88297 20.1267
10.241 -7.80365 20.1254
10.3109 -7.72434 20.124
10.3004 -7.58256 20.1202
10.3703 -7.50325 20.1188
10.4403 -7.42393 20.1175
10.5102 -7.34461 20.1161
10.4996 -7.20283 20.1123
10.5696 -7.12352 20.1109
10.559 -6.98174 20.1072
10.5485 -6.83996 20.1034
10.5379 -6.69818 20.0996
10.5273 -6.5564 20.0958
10.5973 -6.47708 20.0944
10.5867 -6.3353 20.0906
10.6567 -6.25598 20.0893
10.6461 -6.11421 20.0855
10.6355 -5.97243 20.0817
10.5445 -5.76818 20.0755
10.5339 -5.6264 20.0717
10.5233 -5.48462 20.0679
10.5128 -5.34284 20.0641
10.5022 -5.20106 20.0603
10.4917 -5.05928 20.0565
10.4006 -4.85503 20.0503
10.39 -4.71325 20.0465
10.3795 -4.57147 20.0427
10.4494 -4.49216 20.0414
10.4389 -4.35038 20.0376
10.2673 -4.08367 20.029
10.2567 -3.94189 20.0252
10.3267 -3.86257 20.0238
10.3161 -3.72079 20.02
10.3055 -3.57901 20.0162
10.295 -3.43723 20.0124
10.2039 -3.23299 20.0062
6.78398 -11.2564 20.1647
6.90584 -11.1666 20.1658
7.02771 -11.0768 20.1668
7.14958 -10.987 20.1679
7.17049 -10.8833 20.1665
7.49426 -10.8212 20.1724
7.71708 -10.7452 20.1759
7.83894 -10.6554 20.177
7.85986 -10.5517 20.1756
7.98173 -10.4619 20.1767
8.00265 -10.3583 20.1753
8.12451 -10.2685 20.1763
8.24638 -10.1786 20.1774
8.77205 -10.1442 20.1882
8.89392 -10.0544 20.1892
8.91484 -9.95072 20.1879
9.0367 -9.86091 20.1889
9.05762 -9.75725 20.1875
9.17949 -9.66743 20.1886
9.2004 -9.56377 20.1872
9.32227 -9.47396 20.1883
9.34318 -9.37029 20.1869
9.3641 -9.26663 20.1856
9.38501 -9.16297 20.1842
9.50688 -9.07316 20.1852
9.52779 -8.9695 20.1839
9.54871 -8.86584 20.1825
9.67058 -8.77602 20.1836
9.69149 -8.67236 20.1822
9.81336 -8.58255 20.1833
9.83427 -8.47889 20.1819
9.95614 -8.38907 20.183
9.97706 -8.28541 20.1816
10.0989 -8.19559 20.1826
10.3217 -8.11962 20.1861
10.4436 -8.02981 20.1872
10.5655 -7.93999 20.1882
10.5864 -7.83633 20.1869
10.6073 -7.73267 20.1855
10.6282 -7.62901 20.1841
10.6491 -7.52535 20.1828
10.6701 -7.42169 20.1814
10.7919 -7.33188 20.1825
10.8128 -7.22821 20.1811
10.8337 -7.12455 20.1797
10.9556 -7.03474 20.1808
10.9765 -6.93108 20.1794
10.9974 -6.82742 20.1781
11.0184 -6.72376 20.1767
11.0393 -6.6201 20.1753
11.1611 -6.53028 20.1764
11.1821 -6.42662 20.175
11.102 -6.30912 20.1712
11.1229 -6.20546 20.1699
11.1438 -6.1018 20.1685
11.1648 -5.99814 20.1671
11.0847 -5.88063 20.1633
11.1056 -5.77697 20.162
11.1266 -5.67331 20.1606
11.1475 -5.56965 20.1592
11.1684 -5.46599 20.1579
11.1893 -5.36233 20.1565
11.2102 -5.25867 20.1552
11.1302 -5.14117 20.1514
11.1511 -5.03751 20.15
11.0711 -4.92 20.1462
11.092 -4.81634 20.1448
11.0119 -4.69884 20.1411
11.0329 -4.59518 20.1397
10.9528 -4.47767 20.1359
10.9737 -4.37401 20.1345
10.8937 -4.25651 20.1307
10.9146 -4.15285 20.1294
10.8346 -4.03534 20.1256
10.8555 -3.93168 20.1242
10.8764 -3.82802 20.1228
10.8973 -3.72436 20.1215
10.8173 -3.60686 20.1177
10.8382 -3.5032 20.1163
10.7582 -3.38569 20.1125
10.6781 -3.26819 20.1087
10.699 -3.16453 20.1074
10.72 -3.06087 20.106
10.7409 -2.95721 20.1047
10.6608 -2.8397 20.1009
10.6818 -2.73604 20.0995
10.7027 -2.63238 20.0981
10.6226 -2.51488 20.0943
10.6435 -2.41122 20.093
10.6645 -2.30756 20.0916
10.6854 -2.2039 20.0902
10.6053 -2.08639 20.0865
10.6263 -1.98273 20.0851
10.5462 -1.86523 20.0813
10.5671 -1.76157 20.0799
10.4871 -1.64407 20.0761
10.4071 -1.52656 20.0724
10.327 -1.40906 20.0686
10.3479 -1.3054 20.0672
10.2679 -1.18789 20.0634
10.2888 -1.08423 20.062
10.3097 -0.980571 20.0607
10.3306 -0.876911 20.0593
10.2506 -0.759408 20.0555
10.2715 -0.655746 20.0542
10.2924 -0.552087 20.0528
10.2124 -0.434581 20.049
10.2333 -0.330923 20.0476
10.2542 -0.227262 20.0463
10.2751 -0.123602 20.0449
10.1951 -0.00609708 20.0411
10.216 0.0975651 20.0397
10.136 0.215068 20.036
10.1569 0.318728 20.0346
10.0769 0.436232 20.0308
9.99683 0.553737 20.027
9.51298 0.726619 20.0135
9.5339 0.830279 20.0122
9.45387 0.947786 20.0084
9.47478 1.05144 20.007
9.4957 1.1551 20.0056
9.51661 1.25876 20.0043
9.53753 1.36242 20.0029
9.55844 1.46609 20.0016
9.4784 1.58359 19.9978
9.49932 1.68725 19.9964
9.52023 1.79091 19.995
9.4402 1.90841 19.9912
9.46111 2.01207 19.9899
9.48203 2.11573 19.9885
9.40199 2.23324 19.9847
9.42291 2.3369 19.9834
9.34287 2.4544 19.9796
9.06093 2.5996 19.9709
9.08184 2.70326 19.9696
9.00181 2.82076 19.9658
9.02272 2.92442 19.9644
8.94268 3.04193 19.9606
8.35789 3.22865 19.9447
8.37881 3.33231 19.9433
8.29876 3.44982 19.9396
10.149 -8.3906 20.1364
10.2096 -8.25188 20.1375
10.742 -7.92074 20.1507
10.8026 -7.78202 20.1517
10.7689 -7.68179 20.1504
10.8295 -7.54307 20.1514
10.8902 -7.40436 20.1525
11.0452 -7.22715 20.156
11.1058 -7.08844 20.157
11.4495 -6.83426 20.1653
11.4158 -6.73403 20.164
11.4764 -6.59532 20.165
11.4427 -6.49509 20.1637
11.5033 -6.35637 20.1647
11.5639 -6.21765 20.1658
11.5302 -6.11742 20.1644
11.5909 -5.97871 20.1655
11.5571 -5.87848 20.1641
11.5234 -5.77825 20.1627
11.584 -5.63953 20.1638
11.5503 -5.5393 20.1624
11.5166 -5.43907 20.1611
11.5772 -5.30035 20.1621
11.5435 -5.20013 20.1608
11.5098 -5.0999 20.1594
11.4761 -4.99967 20.158
11.4424 -4.89944 20.1567
11.503 -4.76072 20.1577
11.4693 -4.66049 20.1564
11.4356 -4.56026 20.155
11.4019 -4.46003 20.1536
11.3681 -4.3598 20.1523
11.4288 -4.22108 20.1533
11.4894 -4.08237 20.1544
11.55 -3.94365 20.1554
11.5163 -3.84342 20.1541
11.4826 -3.74319 20.1527
11.4489 -3.64296 20.1513
11.5095 -3.50425 20.1524
11.4758 -3.40402 20.151
11.4421 -3.30379 20.1497
11.4084 -3.20356 20.1483
11.3747 -3.10333 20.1469
11.3409 -3.0031 20.1456
11.3072 -2.90287 20.1442
11.2735 -2.80264 20.1428
11.3341 -2.66392 20.1439
11.3004 -2.56369 20.1425
11.2667 -2.46346 20.1411
11.233 -2.36323 20.1398
11.1993 -2.263 20.1384
11.2599 -2.12428 20.1395
11.2262 -2.02405 20.1381
11.1925 -1.92382 20.1367
11.0644 -1.86208 20.1329
11.125 -1.72336 20.134
11.0913 -1.62313 20.1326
11.0576 -1.5229 20.1313
11.0239 -1.42267 20.1299
10.9902 -1.32244 20.1285
11.0508 -1.18373 20.1296
11.0171 -1.0835 20.1282
10.9834 -0.983268 20.1269
10.9496 -0.883037 20.1255
10.9159 -0.782807 20.1241
10.8822 -0.682577 20.1228
10.9428 -0.543861 20.1238
10.8148 -0.482119 20.12
10.7811 -0.381888 20.1187
10.7473 -0.281657 20.1173
10.808 -0.142942 20.1184
10.7743 -0.0427117 20.117
10.7405 0.0575175 20.1156
10.7068 0.157748 20.1143
10.7675 0.296465 20.1153
10.7337 0.396695 20.114
10.7 0.496924 20.1126
10.6663 0.597154 20.1112
10.6326 0.697384 20.1099
10.6932 0.836101 20.1109
10.6595 0.936331 20.1095
10.6258 1.03656 20.1082
10.5921 1.13679 20.1068
10.5584 1.23702 20.1055
10.5246 1.33725 20.1041
10.4909 1.43748 20.1027
10.4572 1.53771 20.1013
10.4235 1.63794 20.1
10.3898 1.73817 20.0986
10.3561 1.8384 20.0973
10.3223 1.93863 20.0959
10.2886 2.03886 20.0945
10.2549 2.13909 20.0932
10.2212 2.23932 20.0918
10.1875 2.33955 20.0904
10.1537 2.43978 20.0891
10.12 2.54001 20.0877
10.0863 2.64024 20.0863
10.0526 2.74047 20.085
10.0189 2.8407 20.0836
9.98516 2.94093 20.0822
9.95145 3.04116 20.0809
9.91773 3.14139 20.0795
9.78966 3.20313 20.0757
9.75595 3.30336 20.0743
9.72223 3.40359 20.073
9.68851 3.50382 20.0716
9.6548 3.60405 20.0702
9.52673 3.66579 20.0665
9.49301 3.76603 20.0651
9.45929 3.86625 20.0637
9.42558 3.96648 20.0624
9.39186 4.06672 20.061
9.35814 4.16695 20.0596
9.23008 4.22869 20.0558
9.19636 4.32892 20.0545
9.16264 4.42915 20.0531
9.12893 4.52938 20.0517
9.09521 4.62961 20.0504
8.96714 4.69135 20.0466
8.93343 4.79158 20.0452
8.89971 4.89181 20.0439
8.77165 4.95356 20.0401
8.73793 5.05379 20.0387
8.60986 5.11553 20.0349
8.57614 5.21576 20.0335
8.44808 5.2775 20.0298
8.32001 5.33925 20.026
10.2562 2.38344 20.111
10.2394 2.53388 20.1121
10.1601 2.60382 20.1107
10.0808 2.67376 20.1093
10.0015 2.74371 20.108
9.9846 2.89416 20.109
9.90529 2.9641 20.1077
10.1383 3.43657 20.1184
10.059 3.50651 20.1171
9.97967 3.57645 20.1157
9.96282 3.7269 20.1167
9.88351 3.79684 20.1154
9.80419 3.86679 20.114
9.78734 4.01724 20.1151
9.70803 4.08718 20.1137
9.62871 4.15712 20.1123
9.61186 4.30757 20.1134
9.53255 4.37751 20.112
9.5157 4.52796 20.1131
9.49885 4.67841 20.1141
9.482 4.82886 20.1152
9.40269 4.8988 20.1138
9.38584 5.04925 20.1149
9.30652 5.11919 20.1135
9.22721 5.18914 20.1122
9.14789 5.25908 20.1108
9.06858 5.32902 20.1094
8.98926 5.39897 20.108
8.97241 5.54941 20.1091
8.8931 5.61935 20.1077
8.81378 5.6893 20.1064
8.73447 5.75924 20.105
8.71762 5.90969 20.1061
8.63831 5.97963 20.1047
8.55899 6.04957 20.1033
8.47968 6.11952 20.102
8.40036 6.18946 20.1006
8.32105 6.25941 20.0992
8.24173 6.32935 20.0979
8.16242 6.39929 20.0965
8.0831 6.46923 20.0951
8.00379 6.53918 20.0938
7.92447 6.60912 20.0924
7.84516 6.67907 20.091
7.82831 6.82951 20.0921
7.74899 6.89946 20.0907
7.66968 6.9694 20.0894
7.59036 7.03934 20.088
7.51105 7.10929 20.0866
7.43173 7.17923 20.0853
7.28995 7.16867 20.0815
7.21064 7.23861 20.0801
7.13132 7.30855 20.0788
7.05201 7.3785 20.0774
6.9727 7.44844 20.076
6.89338 7.51838 20.0746
6.81407 7.58833 20.0733
6.67229 7.57777 20.0695
6.59297 7.64771 20.0681
6.51366 7.71765 20.0668
6.43434 7.78759 20.0654
6.35503 7.85754 20.064
6.27571 7.92748 20.0627
6.1964 7.99742 20.0613
6.05462 7.98686 20.0575
5.9753 8.05681 20.0561
5.89599 8.12675 20.0548
5.75421 8.11619 20.051
5.61242 8.10562 20.0472
5.28325 7.85355 20.0361
5.14147 7.84299 20.0323
5.06215 7.91293 20.031
4.92037 7.90237 20.0272
4.77859 7.89181 20.0234
4.69928 7.96175 20.022
4.5575 7.95119 20.0182
4.41572 7.94063 20.0145
4.27394 7.93007 20.0107
3.94476 7.67799 19.9996
3.86545 7.74793 19.9982
3.72367 7.73737 19.9945
3.64435 7.80732 19.9931
3.50257 7.79675 19.9893
3.42325 7.86669 19.9879
3.28147 7.85613 19.9841
3.1397 7.84557 19.9804
3.06038 7.91552 19.979
2.9186 7.90495 19.9752
7.66276 6.99033 20.1062
7.57294 7.11219 20.1072
7.48313 7.23407 20.1083
7.39331 7.35593 20.1093
7.28965 7.37684 20.108
7.19984 7.49872 20.109
7.09618 7.51963 20.1077
7.00636 7.6415 20.1087
6.9027 7.66241 20.1073
6.82673 7.88523 20.1108
6.73691 8.00709 20.1119
6.63325 8.02801 20.1105
6.52959 8.04893 20.1092
6.41209 7.96889 20.1054
6.32227 8.09076 20.1064
6.21861 8.11167 20.1051
6.1288 8.23354 20.1061
6.02514 8.25445 20.1048
5.92148 8.27537 20.1034
5.83166 8.39724 20.1044
5.728 8.41815 20.1031
5.62434 8.43907 20.1017
5.52068 8.45998 20.1003
5.41702 8.4809 20.099
5.31336 8.50181 20.0976
5.2097 8.52273 20.0963
5.10604 8.54364 20.0949
5.00238 8.56456 20.0935
4.88487 8.48452 20.0897
4.78121 8.50543 20.0884
4.67755 8.52635 20.087
4.57389 8.54727 20.0856
4.47023 8.56818 20.0843
4.35273 8.48815 20.0805
4.24907 8.50906 20.0791
4.14541 8.52997 20.0777
4.04175 8.55089 20.0764
3.93809 8.57181 20.075
3.83443 8.59272 20.0736
3.73077 8.61363 20.0723
3.62711 8.63455 20.0709
3.5096 8.55451 20.0671
3.40594 8.57543 20.0658
3.30228 8.59634 20.0644
3.18478 8.51631 20.0606
3.08112 8.53722 20.0592
2.97746 8.55814 20.0579
2.8738 8.57905 20.0565
2.75629 8.49902 20.0527
2.65263 8.51993 20.0513
2.53513 8.43989 20.0476
2.41762 8.35986 20.0438
2.31396 8.38077 20.0424
2.2103 8.40168 20.041
2.10664 8.4226 20.0397
1.98914 8.34257 20.0359
1.87164 8.26253 20.0321
1.76797 8.28344 20.0307
1.66431 8.30436 20.0294
1.56065 8.32527 20.028
1.45699 8.34619 20.0266
1.33949 8.26615 20.0228
1.23583 8.28707 20.0215
1.11833 8.20703 20.0177
1.00082 8.12699 20.0139
0.89716 8.14791 20.0125
0.779656 8.06787 20.0087
0.675996 8.08879 20.0074
0.558492 8.00875 20.0036
0.454833 8.02967 20.0022
0.323482 7.84868 19.996
0.205978 7.76864 19.9922
0.0884712 7.6886 19.9884
5.35242 8.37589 20.0744
5.2137 8.43652 20.0755
5.11347 8.4028 20.0741
4.82081 8.84083 20.0848
4.68209 8.90147 20.0859
4.58186 8.86775 20.0845
4.44315 8.92838 20.0856
4.34292 8.89466 20.0842
4.24269 8.86095 20.0829
4.10397 8.92158 20.0839
4.00374 8.88786 20.0826
3.86502 8.94849 20.0836
3.76479 8.91478 20.0822
3.62608 8.97541 20.0833
3.52585 8.94169 20.0819
3.42562 8.90797 20.0806
3.32539 8.87426 20.0792
3.18667 8.93489 20.0803
3.08644 8.90117 20.0789
2.98621 8.86745 20.0775
2.88598 8.83373 20.0762
2.78575 8.80002 20.0748
2.64704 8.86065 20.0759
2.54681 8.82694 20.0745
2.44658 8.79322 20.0731
2.34635 8.7595 20.0717
2.24612 8.72579 20.0704
2.14589 8.69207 20.069
2.00717 8.7527 20.0701
1.90694 8.71898 20.0687
1.80671 8.68526 20.0674
1.70648 8.65155 20.066
1.60625 8.61783 20.0646
1.50602 8.58412 20.0632
1.40579 8.5504 20.0619
1.30556 8.51668 20.0605
1.16684 8.57731 20.0616
1.06661 8.5436 20.0602
0.966384 8.50988 20.0588
0.866155 8.47616 20.0575
0.765924 8.44245 20.0561
0.665695 8.40873 20.0547
0.565464 8.37501 20.0534
0.465235 8.34129 20.052
0.365006 8.30758 20.0506
0.264775 8.27386 20.0493
0.164544 8.24014 20.0479
0.0643146 8.20643 20.0466
-0.0359137 8.17271 20.0452
-0.17463 8.23334 20.0462
-0.27486 8.19963 20.0449
-0.37509 8.16591 20.0435
-0.475322 8.13219 20.0421
-0.57555 8.09847 20.0408
-0.675781 8.06476 20.0394
-0.77601 8.03104 20.038
-0.837754 7.90298 20.0343
-0.937985 7.86926 20.0329
-1.03821 7.83554 20.0315
-1.13844 7.80182 20.0302
-1.23867 7.76811 20.0288
-1.33891 7.73439 20.0274
-1.43913 7.70067 20.0261
-1.50087 7.5726 20.0223
-1.60111 7.53889 20.0209
-1.70134 7.50517 20.0195
-1.80157 7.47145 20.0182
-1.9018 7.43773 20.0168
-2.00202 7.40402 20.0154
-2.10225 7.3703 20.0141
-2.20248 7.33658 20.0127
-2.26423 7.20852 20.0089
-2.36446 7.1748 20.0076
-2.46469 7.14109 20.0062
-2.52643 7.01302 20.0024
-2.62666 6.9793 20.001
-2.68841 6.85124 19.9972
-2.78864 6.81752 19.9959
-2.85038 6.68946 19.9921
-2.91212 6.56139 19.9883
-2.97387 6.43332 19.9845
-3.03561 6.30526 19.9807
-3.13584 6.27154 19.9794
-3.19758 6.14347 19.9756
-3.29782 6.10976 19.9742
-3.35956 5.98169 19.9704
-3.45979 5.94797 19.969
-3.52153 5.8199 19.9653
-3.62176 5.78619 19.9639
-3.72199 5.75247 19.9625
-3.78374 5.62441 19.9587
-3.84548 5.49634 19.9549
-3.90722 5.36827 19.9512
-4.00745 5.33455 19.9498
-4.0692 5.20649 19.946
-4.16943 5.17278 19.9446
-4.26966 5.13906 19.9433
-4.3314 5.01099 19.9395
-4.39314 4.88292 19.9357
-4.45489 4.75486 19.9319
-4.51663 4.62679 19.9281
-4.57837 4.49873 19.9243
-1.10192 8.32679 20.0481
-1.25237 8.30995 20.0492
-1.32232 8.23063 20.0478
-1.39226 8.15132 20.0465
-1.54271 8.13447 20.0475
-1.61265 8.05515 20.0462
-1.76309 8.0383 20.0472
-1.91354 8.02146 20.0483
-2.06399 8.0046 20.0493
-2.13393 7.92529 20.048
-2.20388 7.84597 20.0466
-2.27382 7.76666 20.0452
-2.34377 7.68735 20.0439
-2.49421 7.6705 20.0449
-2.56415 7.59118 20.0435
-2.6341 7.51187 20.0422
-2.70404 7.43255 20.0408
-2.77399 7.35324 20.0395
-2.92443 7.33639 20.0405
-2.99438 7.25707 20.0392
-3.06432 7.17776 20.0378
-3.13426 7.09844 20.0364
-3.2042 7.01913 20.035
-3.35465 7.00228 20.0361
-3.4246 6.92297 20.0347
-3.49454 6.84365 20.0334
-3.56448 6.76434 20.032
-3.63442 6.68502 20.0306
-3.70437 6.60571 20.0293
-3.77431 6.52639 20.0279
-3.84425 6.44708 20.0266
-3.99471 6.43023 20.0276
-4.06465 6.35091 20.0262
-4.13459 6.2716 20.0249
-4.20453 6.19229 20.0235
-4.27448 6.11297 20.0221
-4.34442 6.03366 20.0208
-4.41436 5.95434 20.0194
-4.48431 5.87503 20.018
-4.55425 5.79571 20.0167
-4.7047 5.77886 20.0177
-4.77464 5.69955 20.0164
-4.84458 5.62023 20.015
-4.91452 5.54092 20.0136
-4.98447 5.4616 20.0123
-5.05441 5.38229 20.0109
-5.12435 5.30297 20.0095
-5.11379 5.1612 20.0058
-5.18374 5.08188 20.0044
-5.25368 5.00257 20.003
-5.32363 4.92325 20.0016
-5.39357 4.84394 20.0003
-5.383 4.70215 19.9965
-5.45295 4.62284 19.9951
-5.52289 4.54353 19.9938
-5.59283 4.46421 19.9924
-5.66278 4.38489 19.991
-5.73272 4.30558 19.9897
-5.80266 4.22627 19.9883
-5.87261 4.14695 19.9869
-5.86205 4.00517 19.9831
-5.85148 3.86339 19.9794
-5.84092 3.72161 19.9756
-5.83036 3.57983 19.9718
-5.9003 3.50052 19.9704
-5.88974 3.35873 19.9666
-5.95968 3.27942 19.9653
-5.94913 3.13764 19.9615
-5.93856 2.99586 19.9577
-5.34776 5.51999 20.0331
-5.36868 5.41633 20.0318
-5.49055 5.32652 20.0328
-5.51146 5.22285 20.0314
-5.53238 5.11919 20.0301
-5.65425 5.02938 20.0311
-5.67516 4.92572 20.0298
-5.69607 4.82206 20.0284
-5.71699 4.7184 20.027
-5.83885 4.62858 20.0281
-5.96072 4.53877 20.0291
-5.98164 4.43511 20.0278
-6.00255 4.33145 20.0264
-6.12442 4.24163 20.0275
-6.14534 4.13797 20.0261
-6.16625 4.03431 20.0247
-6.18716 3.93065 20.0234
-6.30903 3.84083 20.0244
-6.32995 3.73717 20.0231
-6.35086 3.63351 20.0217
-6.37178 3.52985 20.0203
-6.39269 3.42619 20.019
-6.41361 3.32253 20.0176
-6.43452 3.21887 20.0162
-6.45544 3.11521 20.0149
-6.47636 3.01155 20.0135
-6.39632 2.89405 20.0097
-6.41723 2.79039 20.0083
-6.43815 2.68673 20.007
-6.45906 2.58307 20.0056
-6.47998 2.47941 20.0042
-6.50089 2.37575 20.0029
-6.42086 2.25824 19.9991
-6.44177 2.15458 19.9977
-6.46269 2.05092 19.9964
-6.38264 1.93342 19.9926
-6.40356 1.82976 19.9912
-6.32353 1.71225 19.9874
-6.34444 1.60859 19.9861
-6.36536 1.50493 19.9847
-6.28532 1.38743 19.9809
-6.30624 1.28377 19.9795
-6.32715 1.18011 19.9782
-6.34807 1.07645 19.9768
-6.46994 0.986632 19.9779
-6.49085 0.882971 19.9765
-6.41081 0.765468 19.9727
-6.43173 0.661807 19.9713
-6.45264 0.558147 19.97
-6.47356 0.454488 19.9686
-6.49447 0.350827 19.9672
-6.51539 0.247168 19.9659
-6.5363 0.143506 19.9645
-6.55722 0.0398468 19.9631
-6.57813 -0.0638152 19.9618
-6.49809 -0.181319 19.958
-7.07453 2.1218 20.0245
-7.13516 1.98309 20.0255
-7.10144 1.88286 20.0242
-7.16208 1.74414 20.0252
-7.12836 1.64391 20.0239
-7.09465 1.54368 20.0225
-7.15527 1.40497 20.0236
-7.21591 1.26625 20.0246
-7.46524 1.05056 20.0305
-7.52587 0.911841 20.0316
-7.49215 0.811613 20.0302
-7.55278 0.672897 20.0313
-7.51907 0.572666 20.0299
-7.48535 0.472436 20.0285
-7.45163 0.372206 20.0272
-7.41791 0.271978 20.0258
-7.3842 0.171747 20.0244
-7.35048 0.0715172 20.0231
-7.31677 -0.0287123 20.0217
-7.28305 -0.128944 20.0203
-7.24933 -0.229172 20.019
-7.30996 -0.367889 20.02
-7.27625 -0.468119 20.0187
-7.24253 -0.568348 20.0173
-7.20881 -0.668579 20.0159
-7.17509 -0.768808 20.0146
-7.14138 -0.869039 20.0132
-7.10766 -0.969268 20.0118
-7.07394 -1.0695 20.0105
-7.04023 -1.16973 20.0091
-7.00651 -1.26996 20.0077
-6.97279 -1.37019 20.0064
-6.93908 -1.47042 20.005
-6.90536 -1.57065 20.0036
-6.87164 -1.67088 20.0023
-6.83792 -1.77111 20.0009
-6.70986 -1.83285 19.9971
-6.67614 -1.93308 19.9957
-6.64243 -2.03331 19.9944
-6.60871 -2.13354 19.993
-6.57499 -2.23377 19.9917
-6.54127 -2.334 19.9903
-6.50756 -2.43423 19.9889
-6.47384 -2.53446 19.9875
-6.44012 -2.63469 19.9862
-6.40641 -2.73492 19.9848
-6.37269 -2.83515 19.9834
-6.33897 -2.93538 19.9821
-6.21091 -2.99713 19.9783
-6.17719 -3.09735 19.9769
-6.14347 -3.19758 19.9756
-6.10976 -3.29782 19.9742
-6.07604 -3.39805 19.9728
-6.04232 -3.49828 19.9715
-6.0086 -3.5985 19.9701
-5.97489 -3.69873 19.9687
-5.94117 -3.79896 19.9674
-5.90745 -3.89919 19.966
-5.87373 -3.99942 19.9646
-5.84002 -4.09965 19.9633
-5.71195 -4.1614 19.9595
-5.67824 -4.26163 19.9581
-5.64452 -4.36186 19.9567
-5.6108 -4.46209 19.9554
-5.57709 -4.56232 19.954
-5.54337 -4.66255 19.9527
-5.4153 -4.72429 19.9489
-5.38158 -4.82452 19.9475
-5.34786 -4.92475 19.9461
-5.31415 -5.02498 19.9448
-5.28043 -5.12521 19.9434
-5.24672 -5.22544 19.942
-5.213 -5.32567 19.9407
-5.08493 -5.38741 19.9369
-5.05122 -5.48764 19.9355
-5.0175 -5.58787 19.9341
-4.88944 -5.64962 19.9304
-4.85572 -5.74985 19.929
-4.822 -5.85008 19.9276
-4.78829 -5.95031 19.9263
-4.75457 -6.05054 19.9249
-4.72085 -6.15077 19.9235
-4.68713 -6.251 19.9222
-4.65342 -6.35123 19.9208
-4.6197 -6.45146 19.9194
-4.58598 -6.55169 19.9181
-4.45791 -6.61343 19.9143
-4.4242 -6.71366 19.9129
-4.29613 -6.7754 19.9091
-4.26242 -6.87563 19.9077
-4.2287 -6.97587 19.9064
-4.10063 -7.03761 19.9026
-4.06691 -7.13784 19.9012
-3.93885 -7.19958 19.8974
-3.90513 -7.29981 19.8961
-3.77707 -7.36156 19.8923
-3.74335 -7.46178 19.8909
-3.70963 -7.56201 19.8896
-3.58157 -7.62376 19.8858
-3.54785 -7.72399 19.8844
-3.41978 -7.78573 19.8806
-3.29171 -7.84747 19.8768
-3.0693 -7.87073 19.8706
-2.94123 -7.93247 19.8668
-5.00955 -6.46782 20.0153
-4.9927 -6.61827 20.0163
-4.97585 -6.76872 20.0174
-4.89654 -6.83866 20.016
-4.81722 -6.90861 20.0146
-4.73791 -6.97855 20.0133
-4.65859 -7.04849 20.0119
-4.57928 -7.11843 20.0105
-4.56243 -7.26888 20.0116
-4.48311 -7.33883 20.0102
-4.4038 -7.40877 20.0089
-4.38695 -7.55922 20.0099
-4.30764 -7.62916 20.0086
-4.22833 -7.69911 20.0072
-4.14901 -7.76905 20.0058
-4.06969 -7.83899 20.0045
-3.99038 -7.90893 20.0031
-3.97353 -8.05938 20.0042
-3.89422 -8.12932 20.0028
-3.8149 -8.19927 20.0014
-3.73558 -8.26921 20.0001
-3.65627 -8.33915 19.9987
-3.57696 -8.4091 19.9973
-3.49764 -8.47904 19.996
-3.41832 -8.54898 19.9946
-3.40148 -8.69943 19.9957
-3.32216 -8.76938 19.9943
-3.24285 -8.83932 19.9929
-3.16353 -8.90926 19.9915
-3.08422 -8.9792 19.9902
-3.0049 -9.04915 19.9888
-2.92559 -9.11909 19.9875
-2.84628 -9.18904 19.9861
-2.76696 -9.25898 19.9847
-2.68764 -9.32892 19.9834
-2.60833 -9.39886 19.982
-2.52902 -9.46881 19.9806
-2.4497 -9.53875 19.9792
-2.37039 -9.60869 19.9779
-2.29107 -9.67864 19.9765
-2.21176 -9.74858 19.9752
-2.13244 -9.81852 19.9738
-2.05313 -9.88847 19.9724
-1.97381 -9.95841 19.9711
-1.8945 -10.0284 19.9697
-1.81518 -10.0983 19.9683
-1.73587 -10.1682 19.967
-1.65655 -10.2382 19.9656
-1.57724 -10.3081 19.9642
-1.49793 -10.3781 19.9629
-1.35614 -10.3675 19.9591
-1.27683 -10.4374 19.9577
-1.19751 -10.5074 19.9563
-1.1182 -10.5773 19.955
-1.03889 -10.6473 19.9536
-0.959571 -10.7172 19.9522
-0.817794 -10.7067 19.9485
-0.738477 -10.7766 19.9471
-0.659162 -10.8465 19.9457
-0.51738 -10.836 19.9419
-0.438066 -10.9059 19.9406
-0.358752 -10.9759 19.9392
-0.216971 -10.9653 19.9354
-0.137656 -11.0353 19.9341
0.00412035 -11.0247 19.9303
0.145903 -11.0141 19.9265
0.287686 -11.0036 19.9227
0.366998 -11.0735 19.9213
0.571245 -10.9824 19.9151
0.713023 -10.9719 19.9113
0.854804 -10.9613 19.9075
0.996585 -10.9508 19.9037
1.0759 -11.0207 19.9024
1.21768 -11.0101 19.8986
