ply
format ascii 1.0
comment VCGLIB generated
element vertex 920
property float x
property float y
property float z
element face 0
property list uchar int vertex_indices
end_header
2.37028 -12.1162 21.1592
2.52072 -12.0994 21.1603
2.67117 -12.0825 21.1613
2.98263 -12.1906 21.1672
3.13308 -12.1738 21.1683
3.28352 -12.1569 21.1693
3.43397 -12.1401 21.1704
3.58442 -12.1232 21.1715
3.73487 -12.1064 21.1725
3.88532 -12.0895 21.1736
4.03576 -12.0727 21.1746
4.18621 -12.0558 21.1757
4.33666 -12.039 21.1767
4.4066 -11.9597 21.1754
4.55705 -11.9428 21.1764
4.7075 -11.926 21.1775
4.77744 -11.8466 21.1761
4.84738 -11.7673 21.1748
4.99783 -11.7505 21.1758
5.06778 -11.6712 21.1745
5.13772 -11.5919 21.1731
5.20766 -11.5125 21.1717
5.35811 -11.4957 21.1728
5.42805 -11.4164 21.1714
5.49799 -11.3371 21.17
5.64844 -11.3202 21.1711
5.8794 -11.3658 21.1746
6.02985 -11.349 21.1756
6.18029 -11.3321 21.1767
6.25023 -11.2528 21.1753
6.32018 -11.1735 21.174
6.47063 -11.1566 21.175
6.54057 -11.0773 21.1737
6.61051 -10.998 21.1723
6.68045 -10.9187 21.1709
6.8309 -10.9019 21.172
6.90085 -10.8225 21.1706
7.0513 -10.8057 21.1717
7.20174 -10.7888 21.1727
7.27168 -10.7095 21.1714
7.42213 -10.6927 21.1724
7.49208 -10.6134 21.1711
7.64253 -10.5965 21.1721
7.71247 -10.5172 21.1707
7.78241 -10.4379 21.1694
7.93286 -10.421 21.1704
8.0028 -10.3417 21.1691
8.07274 -10.2624 21.1677
8.14268 -10.1831 21.1663
8.21263 -10.1038 21.165
8.36308 -10.0869 21.166
8.43302 -10.0076 21.1647
8.50297 -9.9283 21.1633
8.57291 -9.84898 21.1619
8.64285 -9.76967 21.1606
8.7933 -9.75282 21.1616
8.86325 -9.67351 21.1603
8.93319 -9.59419 21.1589
9.00313 -9.51488 21.1575
9.07307 -9.43556 21.1562
9.14302 -9.35625 21.1548
9.21296 -9.27693 21.1534
9.2829 -9.19762 21.1521
9.35284 -9.1183 21.1507
9.42279 -9.03899 21.1493
9.49273 -8.95967 21.148
9.48217 -8.81789 21.1442
9.55211 -8.73858 21.1428
9.62205 -8.65926 21.1414
9.61149 -8.51748 21.1376
9.68144 -8.43817 21.1363
9.75138 -8.35885 21.1349
9.82132 -8.27954 21.1336
9.89126 -8.20022 21.1322
9.96121 -8.12091 21.1308
10.0312 -8.0416 21.1295
10.0206 -7.89982 21.1257
10.0905 -7.8205 21.1243
10.1605 -7.74119 21.1229
10.2304 -7.66187 21.1216
10.2199 -7.52009 21.1178
10.2898 -7.44078 21.1164
10.2792 -7.299 21.1126
10.2687 -7.15722 21.1088
10.3386 -7.0779 21.1075
10.3281 -6.93612 21.1037
10.398 -6.85681 21.1023
10.3874 -6.71503 21.0985
10.4574 -6.63571 21.0972
10.4468 -6.49393 21.0934
10.4363 -6.35215 21.0896
10.5062 -6.27284 21.0882
10.4956 -6.13106 21.0844
10.4851 -5.98927 21.0806
10.4745 -5.8475 21.0768
10.464 -5.70572 21.0731
10.4534 -5.56393 21.0693
10.3623 -5.35969 21.063
10.3518 -5.21791 21.0593
10.3412 -5.07613 21.0555
10.4111 -4.99681 21.0541
10.4006 -4.85503 21.0503
10.4705 -4.77572 21.049
10.299 -4.50901 21.0403
10.2079 -4.30476 21.0341
10.1973 -4.16298 21.0303
10.1868 -4.0212 21.0265
8.20455 -10.386 21.1801
8.32642 -10.2961 21.1812
8.34733 -10.1925 21.1798
8.4692 -10.1027 21.1809
8.69202 -10.0267 21.1844
8.81388 -9.93688 21.1854
8.8348 -9.83322 21.1841
8.95667 -9.7434 21.1851
9.07853 -9.65359 21.1862
9.09945 -9.54993 21.1848
9.12036 -9.44627 21.1834
9.24223 -9.35645 21.1845
9.26315 -9.25279 21.1831
9.48596 -9.17682 21.1866
9.60783 -9.087 21.1877
9.7297 -8.99719 21.1887
9.75061 -8.89353 21.1874
9.87248 -8.80371 21.1884
9.8934 -8.70005 21.1871
9.91431 -8.59639 21.1857
10.0362 -8.50657 21.1868
10.0571 -8.40291 21.1854
10.179 -8.3131 21.1864
10.3008 -8.22328 21.1875
10.3217 -8.11962 21.1861
10.4436 -8.02981 21.1872
10.4645 -7.92615 21.1858
10.4854 -7.82249 21.1844
10.5064 -7.71883 21.1831
10.5273 -7.61517 21.1817
10.6491 -7.52535 21.1828
10.6701 -7.42169 21.1814
10.7919 -7.33188 21.1825
10.8128 -7.22821 21.1811
10.8337 -7.12455 21.1797
10.8547 -7.02089 21.1784
10.9765 -6.93108 21.1794
10.9974 -6.82742 21.1781
11.0184 -6.72376 21.1767
11.0393 -6.6201 21.1753
11.0602 -6.51644 21.174
11.0811 -6.41278 21.1726
11.102 -6.30912 21.1712
11.1229 -6.20546 21.1699
11.0429 -6.08795 21.1661
11.0638 -5.98429 21.1647
11.0847 -5.88063 21.1633
11.0047 -5.76313 21.1596
11.0256 -5.65947 21.1582
10.9456 -5.54196 21.1544
10.9665 -5.4383 21.153
10.9874 -5.33464 21.1517
11.0083 -5.23098 21.1503
11.0292 -5.12732 21.1489
11.0501 -5.02366 21.1476
10.9701 -4.90616 21.1438
10.8901 -4.78865 21.14
10.911 -4.68499 21.1386
10.9319 -4.58133 21.1373
10.8519 -4.46383 21.1335
10.8728 -4.36017 21.1321
10.7927 -4.24266 21.1283
10.7127 -4.12516 21.1245
10.7336 -4.0215 21.1232
10.6536 -3.90399 21.1194
10.6745 -3.80033 21.118
10.6954 -3.69667 21.1166
10.7163 -3.59301 21.1153
10.7372 -3.48935 21.1139
10.6572 -3.37185 21.1101
10.5772 -3.25435 21.1063
10.5981 -3.15068 21.105
10.619 -3.04702 21.1036
10.6399 -2.94337 21.1022
10.6608 -2.8397 21.1009
10.6818 -2.73604 21.0995
10.6017 -2.61854 21.0957
10.3616 -2.26603 21.0843
10.4835 -2.17621 21.0854
10.5044 -2.07255 21.084
10.5253 -1.96889 21.0827
10.4453 -1.85138 21.0789
10.4662 -1.74773 21.0775
10.4871 -1.64407 21.0761
10.4071 -1.52656 21.0724
10.327 -1.40906 21.0686
10.3479 -1.3054 21.0672
10.2679 -1.18789 21.0634
10.2888 -1.08423 21.062
10.3097 -0.980571 21.0607
10.3306 -0.876911 21.0593
10.2506 -0.759408 21.0555
10.2715 -0.655746 21.0542
10.1915 -0.538243 21.0504
10.1114 -0.420735 21.0466
10.1324 -0.317078 21.0452
10.0523 -0.199572 21.0414
10.0732 -0.0959129 21.0401
9.99321 0.0215909 21.0363
9.91317 0.139099 21.0325
9.93408 0.242758 21.0311
9.955 0.346418 21.0298
9.87497 0.46392 21.026
9.79493 0.581424 21.0222
9.71489 0.698932 21.0184
9.7358 0.802591 21.017
9.65577 0.920096 21.0132
9.67668 1.02375 21.0119
9.6976 1.12741 21.0105
9.71851 1.23108 21.0091
9.63848 1.34858 21.0053
9.65939 1.45224 21.004
9.68031 1.5559 21.0026
9.60027 1.67341 20.9988
9.62118 1.77707 20.9975
9.54115 1.89457 20.9937
9.46111 2.01207 20.9899
9.48203 2.11573 20.9885
9.30103 2.24708 20.9823
9.12005 2.37843 20.9761
9.14096 2.48209 20.9747
9.06093 2.5996 20.9709
9.08184 2.70326 20.9696
9.00181 2.82076 20.9658
9.02272 2.92442 20.9644
8.94268 3.04193 20.9606
8.9636 3.14559 20.9593
8.88356 3.26309 20.9555
8.90448 3.36675 20.9541
8.82444 3.48425 20.9503
8.7444 3.60176 20.9465
8.66437 3.71926 20.9427
8.58433 3.83677 20.9389
8.50429 3.95427 20.9352
8.42426 4.07178 20.9314
8.34422 4.18928 20.9276
10.8902 -7.40436 21.1525
11.0452 -7.22715 21.156
11.0114 -7.12692 21.1546
11.0721 -6.98821 21.1557
11.1327 -6.84949 21.1567
11.099 -6.74926 21.1553
11.0653 -6.64903 21.154
11.1259 -6.51032 21.155
11.2809 -6.33311 21.1585
11.3415 -6.1944 21.1596
11.4022 -6.05568 21.1606
11.3684 -5.95545 21.1593
11.3347 -5.85522 21.1579
11.3954 -5.7165 21.159
11.3616 -5.61627 21.1576
11.3279 -5.51604 21.1562
11.3886 -5.37733 21.1573
11.3548 -5.2771 21.1559
11.4155 -5.13838 21.157
11.3817 -5.03815 21.1556
11.348 -4.93792 21.1542
11.3143 -4.83769 21.1529
11.2806 -4.73746 21.1515
11.2469 -4.63723 21.1501
11.3075 -4.49852 21.1512
11.3681 -4.3598 21.1523
11.4288 -4.22108 21.1533
11.3951 -4.12085 21.1519
11.3613 -4.02062 21.1506
11.422 -3.88191 21.1516
11.3883 -3.78168 21.1503
11.3545 -3.68145 21.1489
11.4152 -3.54273 21.15
11.3815 -3.4425 21.1486
11.3477 -3.34227 21.1472
11.314 -3.24204 21.1459
11.2803 -3.14181 21.1445
11.2466 -3.04158 21.1431
11.3072 -2.90287 21.1442
11.2735 -2.80264 21.1428
11.2398 -2.70241 21.1414
11.2061 -2.60217 21.1401
11.1723 -2.50195 21.1387
11.1386 -2.40172 21.1374
11.1049 -2.30149 21.136
11.0712 -2.20126 21.1346
11.0375 -2.10103 21.1333
11.0038 -2.0008 21.1319
11.0644 -1.86208 21.1329
11.0307 -1.76185 21.1316
10.997 -1.66162 21.1302
11.0576 -1.5229 21.1313
11.0239 -1.42267 21.1299
10.9902 -1.32244 21.1285
10.9564 -1.22221 21.1272
10.9227 -1.12198 21.1258
10.889 -1.02175 21.1245
10.9496 -0.883037 21.1255
10.9159 -0.782807 21.1241
10.8822 -0.682577 21.1228
10.8485 -0.582347 21.1214
10.8148 -0.482119 21.12
10.7811 -0.381888 21.1187
10.7473 -0.281657 21.1173
10.7136 -0.181427 21.1159
10.6799 -0.0811977 21.1146
10.6462 0.0190315 21.1132
10.7068 0.157748 21.1143
10.6731 0.257978 21.1129
10.6394 0.358209 21.1115
10.6057 0.458437 21.1102
10.572 0.558667 21.1088
10.6326 0.697384 21.1099
10.5989 0.797615 21.1085
10.5652 0.897845 21.1071
10.5314 0.998073 21.1058
10.4977 1.0983 21.1044
10.464 1.19853 21.103
10.4303 1.29876 21.1017
10.3966 1.39899 21.1003
10.3629 1.49922 21.0989
10.3291 1.59945 21.0976
10.2954 1.69968 21.0962
10.2617 1.79991 21.0948
10.228 1.90014 21.0935
10.1943 2.00037 21.0921
10.1605 2.1006 21.0907
10.1268 2.20083 21.0894
10.0931 2.30106 21.088
10.0594 2.40129 21.0866
10.0257 2.50152 21.0853
9.99196 2.60175 21.0839
9.95825 2.70198 21.0825
9.92453 2.80221 21.0812
9.89081 2.90244 21.0798
9.8571 3.00267 21.0784
9.72903 3.06442 21.0746
9.69531 3.16465 21.0733
9.6616 3.26488 21.0719
9.62788 3.36511 21.0706
9.59416 3.46534 21.0692
9.56045 3.56556 21.0678
9.52673 3.66579 21.0665
9.39866 3.72754 21.0627
9.36495 3.82777 21.0613
9.33123 3.928 21.0599
9.29751 4.02823 21.0586
9.2638 4.12846 21.0572
9.23008 4.22869 21.0558
9.19636 4.32892 21.0545
9.16264 4.42915 21.0531
9.12893 4.52938 21.0517
9.00086 4.59112 21.0479
8.96714 4.69135 21.0466
8.93343 4.79158 21.0452
8.89971 4.89181 21.0439
8.77165 4.95356 21.0401
8.73793 5.05379 21.0387
8.70421 5.15402 21.0373
8.67049 5.25425 21.036
8.54243 5.31599 21.0322
8.50871 5.41622 21.0308
8.38064 5.47796 21.027
8.25258 5.53971 21.0232
9.63364 3.47483 21.1057
9.61679 3.62527 21.1067
9.72488 3.93673 21.1126
9.70803 4.08718 21.1137
9.69118 4.23763 21.1147
9.61186 4.30757 21.1134
9.59501 4.45802 21.1144
9.5157 4.52796 21.1131
9.49885 4.67841 21.1141
9.482 4.82886 21.1152
9.46515 4.97931 21.1162
9.38584 5.04925 21.1149
9.30652 5.11919 21.1135
9.22721 5.18914 21.1122
9.14789 5.25908 21.1108
9.13104 5.40953 21.1118
9.05173 5.47947 21.1105
8.97241 5.54941 21.1091
8.8931 5.61935 21.1077
8.81378 5.6893 21.1064
8.73447 5.75924 21.105
8.65516 5.82919 21.1037
8.57584 5.89913 21.1023
8.49652 5.96907 21.1009
8.47968 6.11952 21.102
8.3379 6.10896 21.0982
8.25858 6.1789 21.0968
8.24173 6.32935 21.0979
8.16242 6.39929 21.0965
8.0831 6.46923 21.0951
8.00379 6.53918 21.0938
7.92447 6.60912 21.0924
7.84516 6.67907 21.091
7.76584 6.74901 21.0897
7.68653 6.81895 21.0883
7.60721 6.88889 21.0869
7.5279 6.95884 21.0856
7.44858 7.02878 21.0842
7.36927 7.09872 21.0828
7.28995 7.16867 21.0815
7.21064 7.23861 21.0801
7.13132 7.30855 21.0788
7.05201 7.3785 21.0774
6.91023 7.36793 21.0736
6.83091 7.43788 21.0722
6.7516 7.50782 21.0709
6.67229 7.57777 21.0695
6.59297 7.64771 21.0681
6.51366 7.71765 21.0668
6.43434 7.78759 21.0654
6.35503 7.85754 21.064
6.27571 7.92748 21.0627
6.1964 7.99742 21.0613
6.11708 8.06737 21.0599
5.9753 8.05681 21.0561
5.89599 8.12675 21.0548
5.81667 8.19669 21.0534
5.73736 8.26663 21.052
5.65804 8.33658 21.0507
5.51626 8.32602 21.0469
5.43695 8.39596 21.0455
5.29516 8.38539 21.0417
5.21585 8.45534 21.0404
4.69928 7.96175 21.022
4.61996 8.03169 21.0207
4.47818 8.02113 21.0169
4.3364 8.01057 21.0131
4.19462 8.00001 21.0093
4.05284 7.98944 21.0055
3.91106 7.97889 21.0017
3.76928 7.96832 20.9979
3.6275 7.95776 20.9942
3.48572 7.9472 20.9904
3.34394 7.93664 20.9866
3.20216 7.92608 20.9828
2.99792 7.83501 20.9766
2.85613 7.82445 20.9728
2.77682 7.89439 20.9714
2.63504 7.88383 20.9676
7.90452 6.42282 21.0981
7.8147 6.54469 21.0992
7.72489 6.66656 21.1003
7.63507 6.78843 21.1013
7.53141 6.80934 21.0999
7.4416 6.93121 21.101
7.35178 7.05307 21.1021
7.24812 7.07399 21.1007
7.1583 7.19586 21.1018
7.12386 7.72153 21.1125
7.0202 7.74245 21.1111
6.93039 7.86431 21.1122
6.82673 7.88523 21.1108
6.72307 7.90614 21.1095
6.61941 7.92706 21.1081
6.51575 7.94797 21.1067
6.41209 7.96889 21.1054
6.32227 8.09076 21.1064
6.21861 8.11167 21.1051
6.11495 8.13259 21.1037
6.01129 8.1535 21.1023
5.92148 8.27537 21.1034
5.81782 8.29629 21.102
5.71416 8.3172 21.1006
5.6105 8.33811 21.0993
5.50683 8.35903 21.0979
5.40318 8.37995 21.0966
5.29952 8.40086 21.0952
5.19585 8.42177 21.0938
5.09219 8.44269 21.0925
4.98853 8.4636 21.0911
4.87103 8.38357 21.0873
4.76737 8.40448 21.0859
4.66371 8.4254 21.0846
4.56005 8.44631 21.0832
4.45639 8.46723 21.0818
4.35273 8.48815 21.0805
4.23523 8.40811 21.0767
4.13156 8.42902 21.0753
4.0279 8.44994 21.0739
3.92425 8.47085 21.0726
3.82058 8.49177 21.0712
3.71692 8.51268 21.0699
3.61326 8.5336 21.0685
3.5096 8.55451 21.0671
3.3921 8.47448 21.0633
3.28844 8.49539 21.062
3.18478 8.51631 21.0606
3.08112 8.53722 21.0592
2.96361 8.45719 21.0555
2.85995 8.4781 21.0541
2.75629 8.49902 21.0527
2.63879 8.41898 21.0489
2.53513 8.43989 21.0476
2.43147 8.46081 21.0462
2.32781 8.48173 21.0448
2.22415 8.50264 21.0435
2.12049 8.52355 21.0421
2.00298 8.44351 21.0383
1.89932 8.46443 21.0369
1.78182 8.3844 21.0331
1.66431 8.30436 21.0294
1.54681 8.22432 21.0256
1.44315 8.24524 21.0242
1.32565 8.16521 21.0204
1.22199 8.18612 21.019
1.11833 8.20703 21.0177
1.00082 8.12699 21.0139
0.89716 8.14791 21.0125
0.765812 7.96692 21.0063
0.620619 7.68498 20.9977
0.516959 7.70589 20.9963
0.399454 7.62586 20.9925
0.295793 7.64678 20.9912
0.192133 7.66769 20.9898
0.0746269 7.58765 20.986
5.49113 8.31526 21.0733
5.3909 8.28154 21.072
5.25219 8.34217 21.073
4.99801 8.68585 21.0814
4.8593 8.74648 21.0824
4.75906 8.71277 21.0811
4.62035 8.7734 21.0821
4.52012 8.73968 21.0807
4.41989 8.70596 21.0794
4.28117 8.7666 21.0804
4.18094 8.73288 21.0791
4.04223 8.79351 21.0801
3.90351 8.85414 21.0812
3.76479 8.91478 21.0822
3.66456 8.88106 21.0809
3.52585 8.94169 21.0819
3.42562 8.90797 21.0806
3.32539 8.87426 21.0792
3.22516 8.84054 21.0778
3.08644 8.90117 21.0789
2.98621 8.86745 21.0775
2.88598 8.83373 21.0762
2.78575 8.80002 21.0748
2.64704 8.86065 21.0759
2.54681 8.82694 21.0745
2.44658 8.79322 21.0731
2.34635 8.7595 21.0717
2.24612 8.72579 21.0704
2.14589 8.69207 21.069
2.04566 8.65835 21.0677
1.90694 8.71898 21.0687
1.80671 8.68526 21.0674
1.70648 8.65155 21.066
1.60625 8.61783 21.0646
1.50602 8.58412 21.0632
1.40579 8.5504 21.0619
1.30556 8.51668 21.0605
1.20533 8.48296 21.0591
1.1051 8.44925 21.0578
1.00487 8.41553 21.0564
0.904642 8.38181 21.0551
0.765924 8.44245 21.0561
0.665695 8.40873 21.0547
0.565464 8.37501 21.0534
0.465235 8.34129 21.052
0.365006 8.30758 21.0506
0.264775 8.27386 21.0493
0.164544 8.24014 21.0479
0.0643146 8.20643 21.0466
-0.0359137 8.17271 21.0452
-0.136145 8.13899 21.0438
-0.236374 8.10528 21.0424
-0.336604 8.07156 21.0411
-0.436836 8.03784 21.0397
-0.537064 8.00412 21.0383
-0.637294 7.97041 21.037
-0.737524 7.93669 21.0356
-0.837754 7.90298 21.0343
-0.937985 7.86926 21.0329
-1.03821 7.83554 21.0315
-1.13844 7.80182 21.0302
-1.23867 7.76811 21.0288
-1.33891 7.73439 21.0274
-1.40065 7.60632 21.0236
-1.50087 7.5726 21.0223
-1.60111 7.53889 21.0209
-1.66285 7.41082 21.0171
-1.76308 7.37711 21.0157
-1.86331 7.34339 21.0144
-1.96354 7.30967 21.013
-2.02528 7.1816 21.0092
-2.12551 7.14789 21.0079
-2.22574 7.11417 21.0065
-2.32597 7.08045 21.0051
-2.4262 7.04673 21.0038
-2.52643 7.01302 21.0024
-2.62666 6.9793 21.001
-2.68841 6.85124 20.9972
-2.78864 6.81752 20.9959
-2.88886 6.7838 20.9945
-2.95061 6.65574 20.9907
-3.05084 6.62202 20.9893
-3.11258 6.49395 20.9856
-3.17433 6.36589 20.9818
-3.27456 6.33217 20.9804
-3.3363 6.2041 20.9766
-3.43653 6.17039 20.9753
-3.49828 6.04232 20.9715
-3.5985 6.0086 20.9701
-3.69873 5.97489 20.9687
-3.79896 5.94117 20.9674
-3.86071 5.81311 20.9636
-3.96094 5.77939 20.9622
-4.02268 5.65132 20.9584
-4.12291 5.6176 20.9571
-4.22314 5.58389 20.9557
-4.28488 5.45582 20.9519
-4.34663 5.32775 20.9481
-4.44686 5.29404 20.9467
-4.5086 5.16597 20.943
-4.57034 5.03791 20.9392
-4.67058 5.00419 20.9378
-4.69383 4.78177 20.9316
-4.6786 4.46501 20.923
-2.05343 7.86282 21.0455
-2.20388 7.84597 21.0466
-2.27382 7.76666 21.0452
-2.34377 7.68735 21.0439
-2.49421 7.6705 21.0449
-2.56415 7.59118 21.0435
-2.6341 7.51187 21.0422
-2.78455 7.49502 21.0432
-2.85449 7.4157 21.0419
-2.92443 7.33639 21.0405
-2.99438 7.25707 21.0392
-3.14482 7.24022 21.0402
-3.21477 7.16091 21.0388
-3.28471 7.08159 21.0375
-3.35465 7.00228 21.0361
-3.5051 6.98543 21.0372
-3.57505 6.90612 21.0358
-3.64499 6.82681 21.0344
-3.71493 6.74749 21.0331
-3.78487 6.66817 21.0317
-3.85482 6.58886 21.0303
-3.92476 6.50955 21.029
-3.99471 6.43023 21.0276
-4.06465 6.35091 21.0262
-4.13459 6.2716 21.0249
-4.28504 6.25475 21.0259
-4.35498 6.17544 21.0246
-4.42492 6.09612 21.0232
-4.49486 6.01681 21.0218
-4.56481 5.93749 21.0205
-4.63475 5.85818 21.0191
-4.7047 5.77886 21.0177
-4.77464 5.69955 21.0164
-4.84458 5.62023 21.015
-4.91452 5.54092 21.0136
-4.98447 5.4616 21.0123
-5.05441 5.38229 21.0109
-5.12435 5.30297 21.0095
-5.19429 5.22366 21.0082
-5.26424 5.14434 21.0068
-5.33418 5.06503 21.0054
-5.40413 4.98571 21.0041
-5.39357 4.84394 21.0003
-5.46351 4.76462 20.9989
-5.53345 4.68531 20.9975
-5.6034 4.60599 20.9962
-5.67334 4.52668 20.9948
-5.74328 4.44736 20.9935
-5.81323 4.36805 20.9921
-5.88317 4.28873 20.9907
-5.95311 4.20942 20.9893
-5.94255 4.06764 20.9856
-6.01249 3.98832 20.9842
-6.08243 3.90901 20.9828
-6.07187 3.76723 20.979
-5.9003 3.50052 20.9704
-5.88974 3.35873 20.9666
-5.87918 3.21696 20.9628
-5.94913 3.13764 20.9615
-6.01907 3.05833 20.9601
-6.00851 2.91655 20.9563
-4.83938 5.98291 21.0303
-4.96125 5.8931 21.0313
-5.08311 5.80328 21.0324
-5.10403 5.69962 21.031
-5.12494 5.59596 21.0296
-5.24682 5.50615 21.0307
-5.26773 5.40249 21.0293
-5.28864 5.29883 21.028
-5.41051 5.20901 21.029
-5.63333 5.13304 21.0325
-5.75519 5.04322 21.0336
-5.77611 4.93956 21.0322
-5.89798 4.84975 21.0332
-5.91889 4.74609 21.0319
-6.04076 4.65627 21.0329
-6.06168 4.55261 21.0316
-6.08259 4.44895 21.0302
-6.1035 4.34529 21.0288
-6.22537 4.25547 21.0299
-6.24629 4.15181 21.0285
-6.36816 4.062 21.0296
-6.38907 3.95834 21.0282
-6.40998 3.85468 21.0269
-6.4309 3.75102 21.0255
-6.55277 3.6612 21.0266
-6.57368 3.55754 21.0252
-6.59459 3.45388 21.0238
-6.61551 3.35022 21.0224
-6.63643 3.24656 21.0211
-6.65734 3.1429 21.0197
-6.57731 3.0254 21.0159
-6.59822 2.92174 21.0146
-6.61913 2.81808 21.0132
-6.5391 2.70057 21.0094
-6.56002 2.59691 21.008
-6.47998 2.47941 21.0042
-6.50089 2.37575 21.0029
-6.52181 2.27209 21.0015
-6.54272 2.16843 21.0002
-6.56364 2.06476 20.9988
-6.58455 1.9611 20.9974
-6.60547 1.85745 20.996
-6.52543 1.73994 20.9923
-6.54635 1.63628 20.9909
-6.46631 1.51878 20.9871
-6.48722 1.41512 20.9857
-6.60909 1.3253 20.9868
-6.63001 1.22164 20.9854
-6.65092 1.11798 20.9841
-6.67184 1.01432 20.9827
-6.69275 0.910661 20.9813
-6.71367 0.807001 20.98
-6.73458 0.703339 20.9786
-6.7555 0.59968 20.9772
-6.67546 0.482176 20.9734
-6.69637 0.378516 20.9721
-6.71729 0.274856 20.9707
-6.7382 0.171193 20.9693
-6.75912 0.0675335 20.968
-6.67908 -0.0499717 20.9642
-6.7 -0.153629 20.9628
-6.72092 -0.257291 20.9615
-6.74183 -0.36095 20.9601
-6.6618 -0.478454 20.9563
-6.68271 -0.582116 20.9549
-6.70362 -0.685775 20.9536
-6.72454 -0.789435 20.9522
-6.6445 -0.906941 20.9484
-7.41141 1.52845 21.0311
-7.47204 1.38974 21.0322
-7.43832 1.28951 21.0308
-7.49895 1.15079 21.0319
-7.46524 1.05056 21.0305
-7.52587 0.911841 21.0316
-7.49215 0.811613 21.0302
-7.45843 0.711383 21.0288
-7.42472 0.611152 21.0275
-7.391 0.510922 21.0261
-7.45163 0.372206 21.0272
-7.41791 0.271978 21.0258
-7.3842 0.171747 21.0244
-7.35048 0.0715172 21.0231
-7.31677 -0.0287123 21.0217
-7.3774 -0.16743 21.0228
-7.34368 -0.267658 21.0214
-7.30996 -0.367889 21.02
-7.27625 -0.468119 21.0187
-7.24253 -0.568348 21.0173
-7.20881 -0.668579 21.0159
-7.17509 -0.768808 21.0146
-7.14138 -0.869039 21.0132
-7.10766 -0.969268 21.0118
-7.07394 -1.0695 21.0105
-7.13458 -1.20822 21.0115
-7.10086 -1.30844 21.0101
-7.06714 -1.40868 21.0088
-7.03343 -1.5089 21.0074
-6.99971 -1.60914 21.0061
-6.87164 -1.67088 21.0023
-6.83792 -1.77111 21.0009
-6.80421 -1.87134 20.9995
-6.77049 -1.97157 20.9982
-6.73678 -2.0718 20.9968
-6.60871 -2.13354 20.993
-6.57499 -2.23377 20.9917
-6.54127 -2.334 20.9903
-6.50756 -2.43423 20.9889
-6.47384 -2.53446 20.9875
-6.44012 -2.63469 20.9862
-6.40641 -2.73492 20.9848
-6.37269 -2.83515 20.9834
-6.33897 -2.93538 20.9821
-6.30526 -3.03561 20.9807
-6.27154 -3.13584 20.9794
-6.14347 -3.19758 20.9756
-6.10976 -3.29782 20.9742
-6.07604 -3.39805 20.9728
-6.04232 -3.49828 20.9715
-6.0086 -3.5985 20.9701
-5.97489 -3.69873 20.9687
-5.94117 -3.79896 20.9674
-5.90745 -3.89919 20.966
-5.87373 -3.99942 20.9646
-5.84002 -4.09965 20.9633
-5.8063 -4.19988 20.9619
-5.67824 -4.26163 20.9581
-5.64452 -4.36186 20.9567
-5.6108 -4.46209 20.9554
-5.57709 -4.56232 20.954
-5.54337 -4.66255 20.9527
-5.50965 -4.76278 20.9513
-5.47594 -4.86301 20.9499
-5.44222 -4.96324 20.9485
-5.4085 -5.06347 20.9472
-5.28043 -5.12521 20.9434
-5.24672 -5.22544 20.942
-5.213 -5.32567 20.9407
-5.17928 -5.4259 20.9393
-5.14556 -5.52613 20.9379
-5.11185 -5.62636 20.9366
-5.07813 -5.72659 20.9352
-5.04441 -5.82682 20.9338
-4.91635 -5.88856 20.93
-4.88263 -5.98879 20.9287
-4.84892 -6.08902 20.9273
-4.72085 -6.15077 20.9235
-4.68713 -6.251 20.9222
-4.65342 -6.35123 20.9208
-4.52535 -6.41297 20.917
-4.49163 -6.5132 20.9156
-4.36357 -6.57494 20.9118
-4.32985 -6.67517 20.9105
-4.20178 -6.73692 20.9067
-4.16807 -6.83715 20.9053
-4.13435 -6.93738 20.904
-4.10063 -7.03761 20.9026
-3.97256 -7.09935 20.8988
-3.93885 -7.19958 20.8974
-3.90513 -7.29981 20.8961
-5.39421 -5.58626 21.0165
-5.43982 -5.81721 21.02
-5.36051 -5.88716 21.0186
-5.34366 -6.0376 21.0197
-5.32681 -6.18805 21.0207
-5.2475 -6.25799 21.0194
-5.23065 -6.40844 21.0204
-5.15133 -6.47839 21.019
-5.07202 -6.54833 21.0177
-4.9927 -6.61827 21.0163
-4.91339 -6.68822 21.015
-4.89654 -6.83866 21.016
-4.81722 -6.90861 21.0146
-4.73791 -6.97855 21.0133
-4.65859 -7.04849 21.0119
-4.64174 -7.19894 21.013
-4.56243 -7.26888 21.0116
-4.48311 -7.33883 21.0102
-4.4038 -7.40877 21.0089
-4.38695 -7.55922 21.0099
-4.30764 -7.62916 21.0086
-4.29079 -7.77961 21.0096
-4.21147 -7.84955 21.0083
-4.13216 -7.91949 21.0069
-4.05284 -7.98944 21.0055
-3.97353 -8.05938 21.0042
-3.95668 -8.20983 21.0052
-3.87736 -8.27977 21.0038
-3.79805 -8.34972 21.0025
-3.71874 -8.41966 21.0011
-3.63942 -8.4896 20.9997
-3.56011 -8.55955 20.9984
-3.48079 -8.62949 20.997
-3.40148 -8.69943 20.9957
-3.32216 -8.76938 20.9943
-3.24285 -8.83932 20.9929
-3.16353 -8.90926 20.9915
-3.08422 -8.9792 20.9902
-3.0049 -9.04915 20.9888
-2.98806 -9.1996 20.9899
-2.90874 -9.26954 20.9885
-2.82943 -9.33948 20.9871
-2.75011 -9.40942 20.9858
-2.6708 -9.47937 20.9844
-2.52902 -9.46881 20.9806
-2.4497 -9.53875 20.9792
-2.37039 -9.60869 20.9779
-2.29107 -9.67864 20.9765
-2.21176 -9.74858 20.9752
-2.13244 -9.81852 20.9738
-2.05313 -9.88847 20.9724
-1.97381 -9.95841 20.9711
-1.8945 -10.0284 20.9697
-1.81518 -10.0983 20.9683
-1.73587 -10.1682 20.967
-1.65655 -10.2382 20.9656
-1.57724 -10.3081 20.9642
-1.49793 -10.3781 20.9629
-1.35614 -10.3675 20.9591
-1.27683 -10.4374 20.9577
-1.19751 -10.5074 20.9563
-1.1182 -10.5773 20.955
-1.03889 -10.6473 20.9536
-0.959571 -10.7172 20.9522
-0.880256 -10.7872 20.9509
-0.738477 -10.7766 20.9471
-0.659162 -10.8465 20.9457
-0.579848 -10.9165 20.9444
-0.500535 -10.9864 20.943
-0.358752 -10.9759 20.9392
-0.279436 -11.0458 20.9378
-0.20012 -11.1158 20.9365
-0.058342 -11.1052 20.9327
0.0834346 -11.0946 20.9289
