ply
format ascii 1.0
comment VCGLIB generated
element vertex 1008
property float x
property float y
property float z
element face 0
property list uchar int vertex_indices
end_header
2.45078 -12.1787 22.1616
2.60123 -12.1618 22.1627
2.75168 -12.145 22.1638
2.82162 -12.0657 22.1624
2.97207 -12.0488 22.1634
3.36403 -12.2194 22.1718
3.51448 -12.2025 22.1728
3.66492 -12.1857 22.1739
3.81538 -12.1688 22.1749
3.88532 -12.0895 22.1736
4.03576 -12.0727 22.1746
4.10571 -11.9934 22.1733
4.25615 -11.9765 22.1743
4.3261 -11.8972 22.173
4.47655 -11.8803 22.174
4.62699 -11.8635 22.1751
4.77744 -11.8466 22.1761
4.84738 -11.7673 22.1748
4.99783 -11.7505 22.1758
5.14828 -11.7336 22.1769
5.21822 -11.6543 22.1755
5.36867 -11.6375 22.1766
5.43862 -11.5582 22.1752
5.50856 -11.4788 22.1738
5.5785 -11.3995 22.1725
5.64844 -11.3202 22.1711
5.71839 -11.2409 22.1697
5.94934 -11.2865 22.1732
6.09979 -11.2697 22.1743
6.16973 -11.1903 22.1729
6.32018 -11.1735 22.174
6.47063 -11.1566 22.175
6.54057 -11.0773 22.1737
6.69102 -11.0605 22.1747
6.76096 -10.9812 22.1733
6.8309 -10.9019 22.172
6.90085 -10.8225 22.1706
7.0513 -10.8057 22.1717
7.12124 -10.7264 22.1703
7.19118 -10.6471 22.1689
7.26112 -10.5677 22.1676
7.41157 -10.5509 22.1686
7.48152 -10.4716 22.1673
7.55146 -10.3923 22.1659
7.7019 -10.3754 22.167
7.77185 -10.2961 22.1656
7.9223 -10.2793 22.1666
7.99224 -10.1999 22.1653
8.06218 -10.1206 22.1639
8.13213 -10.0413 22.1626
8.20207 -9.962 22.1612
8.27201 -9.88269 22.1598
8.34196 -9.80337 22.1584
8.4924 -9.78652 22.1595
8.56235 -9.7072 22.1581
8.71279 -9.69035 22.1592
8.78274 -9.61104 22.1578
8.85268 -9.53173 22.1565
8.92262 -9.45241 22.1551
9.07307 -9.43556 22.1562
9.14302 -9.35625 22.1548
9.21296 -9.27693 22.1534
9.2829 -9.19762 22.1521
9.27234 -9.05584 22.1483
9.34228 -8.97652 22.1469
9.41223 -8.89721 22.1455
9.40166 -8.75543 22.1418
9.47161 -8.67611 22.1404
9.54155 -8.5968 22.139
9.61149 -8.51748 22.1376
9.68144 -8.43817 22.1363
9.67088 -8.29639 22.1325
9.74082 -8.21707 22.1311
9.81076 -8.13776 22.1298
9.8002 -7.99598 22.126
9.87014 -7.91667 22.1246
9.94009 -7.83735 22.1232
10.01 -7.75803 22.1219
10.08 -7.67872 22.1205
10.1499 -7.59941 22.1191
10.2199 -7.52009 22.1178
10.2093 -7.37831 22.114
10.2792 -7.299 22.1126
10.2687 -7.15722 22.1088
10.2581 -7.01544 22.105
10.3281 -6.93612 22.1037
10.3175 -6.79434 22.0999
10.3874 -6.71503 22.0985
10.3769 -6.57324 22.0947
10.4468 -6.49393 22.0934
10.4363 -6.35215 22.0896
10.4257 -6.21037 22.0858
10.2541 -5.94366 22.0771
10.2436 -5.80188 22.0734
10.3135 -5.72257 22.072
10.303 -5.58079 22.0682
10.3729 -5.50147 22.0668
10.3623 -5.35969 22.063
10.4323 -5.28037 22.0617
10.4217 -5.1386 22.0579
10.4111 -4.99681 22.0541
10.4006 -4.85503 22.0503
10.39 -4.71325 22.0465
10.3795 -4.57147 22.0427
10.2884 -4.36723 22.0365
9.95582 -3.97559 22.0231
10.0258 -3.89627 22.0217
10.0957 -3.81696 22.0203
10.0851 -3.67518 22.0165
10.1551 -3.59586 22.0152
10.1445 -3.45408 22.0114
10.2145 -3.37477 22.01
10.1234 -3.17052 22.0038
9.95183 -2.90381 21.9952
9.94127 -2.76203 21.9914
9.93071 -2.62025 21.9876
9.75914 -2.35354 21.9789
9.66807 -2.14929 21.9727
9.73802 -2.06998 21.9714
9.72746 -1.9282 21.9676
9.63639 -1.72395 21.9614
8.04448 -10.1509 22.1726
8.26729 -10.075 22.176
8.49011 -9.999 22.1795
8.61198 -9.90919 22.1806
8.73385 -9.81937 22.1816
8.75476 -9.71571 22.1803
8.87663 -9.6259 22.1813
8.9985 -9.53608 22.1824
9.12036 -9.44627 22.1834
9.24223 -9.35645 22.1845
9.3641 -9.26663 22.1856
9.38501 -9.16297 22.1842
9.50688 -9.07316 22.1852
9.52779 -8.9695 22.1839
9.64966 -8.87968 22.1849
9.67058 -8.77602 22.1836
9.69149 -8.67236 22.1822
9.81336 -8.58255 22.1833
9.83427 -8.47889 22.1819
9.95614 -8.38907 22.183
9.97706 -8.28541 22.1816
10.0989 -8.19559 22.1826
10.1198 -8.09193 22.1813
10.1408 -7.98827 22.1799
10.1617 -7.88461 22.1785
10.2835 -7.7948 22.1796
10.3045 -7.69114 22.1782
10.4263 -7.60132 22.1793
10.4472 -7.49766 22.1779
10.5691 -7.40784 22.179
10.59 -7.30419 22.1776
10.6109 -7.20053 22.1763
10.7328 -7.11071 22.1773
10.7537 -7.00705 22.1759
10.7746 -6.90339 22.1746
10.7955 -6.79973 22.1732
10.9174 -6.70991 22.1743
10.9383 -6.60625 22.1729
10.9592 -6.50259 22.1715
10.9802 -6.39893 22.1702
11.0011 -6.29527 22.1688
10.921 -6.17777 22.165
10.9419 -6.07411 22.1637
10.9629 -5.97045 22.1623
10.8828 -5.85294 22.1585
10.9037 -5.74928 22.1571
10.8237 -5.63178 22.1534
10.8446 -5.52812 22.152
10.8655 -5.42446 22.1506
10.7855 -5.30695 22.1468
10.8064 -5.20329 22.1455
10.8273 -5.09963 22.1441
10.7473 -4.98213 22.1403
10.7682 -4.87847 22.1389
10.7891 -4.77481 22.1376
10.7091 -4.6573 22.1338
10.73 -4.55364 22.1324
10.7509 -4.44998 22.131
10.6709 -4.33248 22.1273
10.6918 -4.22882 22.1259
10.6118 -4.11131 22.1221
10.5317 -3.99381 22.1183
10.4517 -3.87631 22.1145
10.4726 -3.77265 22.1132
10.4935 -3.66899 22.1118
10.6154 -3.57917 22.1129
10.6363 -3.47551 22.1115
10.6572 -3.37185 22.1101
10.5772 -3.25435 22.1063
10.5981 -3.15068 22.105
10.5181 -3.03318 22.1012
10.438 -2.91568 22.0974
10.4589 -2.81201 22.096
10.4798 -2.70836 22.0947
10.5008 -2.60469 22.0933
10.5217 -2.50103 22.0919
10.5426 -2.39738 22.0906
10.5635 -2.29371 22.0892
10.5844 -2.19006 22.0878
10.5044 -2.07255 22.084
10.4243 -1.95504 22.0802
10.3443 -1.83754 22.0765
10.3652 -1.73388 22.0751
10.3861 -1.63022 22.0737
10.3061 -1.51272 22.0699
10.327 -1.40906 22.0686
10.3479 -1.3054 22.0672
10.1669 -1.17405 22.061
10.1879 -1.07039 22.0596
10.1078 -0.952884 22.0558
10.1287 -0.849223 22.0545
10.1497 -0.745564 22.0531
10.1706 -0.641902 22.0517
10.0905 -0.524397 22.0479
10.1114 -0.420735 22.0466
10.1324 -0.317078 22.0452
10.0523 -0.199572 22.0414
10.0732 -0.0959129 22.0401
9.99321 0.0215909 22.0363
10.0141 0.125253 22.0349
9.93408 0.242758 22.0311
9.85405 0.360261 22.0273
9.77401 0.477765 22.0235
9.59302 0.609113 22.0173
9.61394 0.712775 22.016
9.5339 0.830279 22.0122
9.55482 0.93394 22.0108
9.57573 1.0376 22.0094
9.4957 1.1551 22.0056
9.51661 1.25876 22.0043
9.53753 1.36242 22.0029
9.55844 1.46609 22.0016
9.4784 1.58359 21.9978
9.49932 1.68725 21.9964
9.52023 1.79091 21.995
9.4402 1.90841 21.9912
9.46111 2.01207 21.9899
9.38108 2.12958 21.9861
9.30103 2.24708 21.9823
9.32195 2.35074 21.9809
9.24192 2.46825 21.9771
9.26283 2.57191 21.9758
9.28375 2.67557 21.9744
9.30466 2.77923 21.973
9.32558 2.88289 21.9717
9.24554 3.00039 21.9679
9.26645 3.10405 21.9665
9.08547 3.2354 21.9603
8.60162 3.40828 21.9468
10.6139 -7.85899 22.1469
10.6746 -7.72028 22.1479
10.8295 -7.54307 22.1514
10.9845 -7.36587 22.1549
11.0452 -7.22715 22.156
11.0114 -7.12692 22.1546
11.0721 -6.98821 22.1557
11.1327 -6.84949 22.1567
11.099 -6.74926 22.1553
11.0653 -6.64903 22.154
11.0316 -6.5488 22.1526
10.9978 -6.44857 22.1512
10.9641 -6.34834 22.1499
10.9304 -6.24811 22.1485
10.8967 -6.14788 22.1471
11.2404 -5.89371 22.1555
11.301 -5.75499 22.1565
11.2673 -5.65476 22.1552
11.3279 -5.51604 22.1562
11.2942 -5.41581 22.1549
11.2605 -5.31558 22.1535
11.2268 -5.21536 22.1521
11.1931 -5.11512 22.1508
11.1593 -5.01489 22.1494
11.22 -4.87618 22.1505
11.1863 -4.77595 22.1491
11.1525 -4.67572 22.1477
11.1188 -4.57549 22.1463
11.0851 -4.47526 22.145
11.1457 -4.33654 22.146
11.112 -4.23631 22.1447
11.0783 -4.13608 22.1433
11.1389 -3.99737 22.1444
11.2939 -3.82016 22.1478
11.2602 -3.71993 22.1465
11.3208 -3.58122 22.1475
11.2871 -3.48099 22.1462
11.2534 -3.38076 22.1448
11.2197 -3.28053 22.1434
11.186 -3.1803 22.1421
11.1522 -3.08007 22.1407
11.1185 -2.97984 22.1393
11.0848 -2.87961 22.138
11.0511 -2.77938 22.1366
11.0174 -2.67915 22.1352
11.078 -2.54043 22.1363
11.0443 -2.4402 22.1349
11.0106 -2.33997 22.1336
10.9769 -2.23974 22.1322
10.9431 -2.13951 22.1308
11.0038 -2.0008 22.1319
10.97 -1.90057 22.1305
10.9363 -1.80034 22.1292
10.9026 -1.70011 22.1278
10.9632 -1.56139 22.1288
10.9295 -1.46116 22.1275
10.8958 -1.36093 22.1261
10.9564 -1.22221 22.1272
10.9227 -1.12198 22.1258
10.889 -1.02175 22.1245
10.8553 -0.921523 22.1231
10.8216 -0.821293 22.1217
10.8822 -0.682577 22.1228
10.8485 -0.582347 22.1214
10.7204 -0.520604 22.1176
10.6867 -0.420374 22.1162
10.653 -0.320143 22.1149
10.7136 -0.181427 22.1159
10.6799 -0.0811977 22.1146
10.6462 0.0190315 22.1132
10.6125 0.119262 22.1118
10.5788 0.219492 22.1105
10.6394 0.358209 22.1115
10.6057 0.458437 22.1102
10.572 0.558667 22.1088
10.5382 0.658898 22.1074
10.5045 0.759128 22.1061
10.4708 0.859358 22.1047
10.4371 0.959586 22.1033
10.4034 1.05982 22.102
10.3697 1.16005 22.1006
10.3359 1.26028 22.0992
10.3022 1.36051 22.0979
10.2685 1.46074 22.0965
10.2348 1.56097 22.0951
10.2011 1.6612 22.0938
10.1674 1.76143 22.0924
10.1336 1.86166 22.091
10.0999 1.96189 22.0897
10.0662 2.06212 22.0883
10.0325 2.16235 22.0869
9.99877 2.26258 22.0856
9.96505 2.36281 22.0842
9.93133 2.46303 22.0828
9.89762 2.56327 22.0815
9.8639 2.6635 22.0801
9.83018 2.76373 22.0788
9.79646 2.86396 22.0774
9.76275 2.96418 22.076
9.72903 3.06442 22.0746
9.69531 3.16465 22.0733
9.6616 3.26488 22.0719
9.62788 3.36511 22.0706
9.59416 3.46534 22.0692
9.56045 3.56556 22.0678
9.52673 3.66579 22.0665
9.49301 3.76603 22.0651
9.36495 3.82777 22.0613
9.33123 3.928 22.0599
9.29751 4.02823 22.0586
9.2638 4.12846 22.0572
9.23008 4.22869 22.0558
9.19636 4.32892 22.0545
9.0683 4.39066 22.0507
9.03458 4.49089 22.0493
9.00086 4.59112 22.0479
8.87279 4.65287 22.0442
8.74473 4.71461 22.0404
8.71101 4.81484 22.039
8.67729 4.91507 22.0376
8.64358 5.0153 22.0363
8.60986 5.11553 22.0349
8.48179 5.17727 22.0311
8.44808 5.2775 22.0298
8.32001 5.33925 22.026
8.2863 5.43948 22.0246
8.06388 5.46273 22.0184
10.9343 0.158396 22.1065
10.9175 0.308844 22.1076
10.8382 0.378788 22.1062
10.8213 0.529239 22.1073
10.742 0.599183 22.1059
10.7251 0.749625 22.107
10.6458 0.819569 22.1056
10.629 0.97002 22.1067
10.5497 1.03996 22.1053
10.4704 1.1099 22.1039
10.391 1.17985 22.1026
10.3742 1.3303 22.1036
10.2949 1.40024 22.1022
10.2156 1.47018 22.1009
10.1987 1.62063 22.1019
10.1194 1.69057 22.1006
10.165 1.92153 22.104
10.1482 2.07198 22.1051
10.1313 2.22242 22.1062
10.052 2.29236 22.1048
10.0351 2.44281 22.1059
10.0808 2.67376 22.1093
10.0639 2.82422 22.1104
10.0471 2.97466 22.1115
10.0302 3.12511 22.1125
10.0134 3.27556 22.1136
9.93406 3.3455 22.1122
9.91721 3.49595 22.1133
9.83789 3.56589 22.1119
9.75857 3.63583 22.1105
9.74173 3.78628 22.1116
9.84981 4.09774 22.1175
9.83296 4.24819 22.1185
9.75364 4.31813 22.1172
9.67433 4.38807 22.1158
9.59501 4.45802 22.1144
9.5157 4.52796 22.1131
9.49885 4.67841 22.1141
9.41953 4.74835 22.1128
9.34022 4.81829 22.1114
9.32337 4.96875 22.1125
9.24406 5.03869 22.1111
9.16474 5.10863 22.1097
9.08543 5.17857 22.1084
9.06858 5.32902 22.1094
8.98926 5.39897 22.108
8.90995 5.46891 22.1067
8.83063 5.53885 22.1053
8.75132 5.60879 22.104
8.73447 5.75924 22.105
8.65516 5.82919 22.1037
8.57584 5.89913 22.1023
8.49652 5.96907 22.1009
8.41721 6.03901 22.0995
8.3379 6.10896 22.0982
8.25858 6.1789 22.0968
8.17927 6.24885 22.0954
8.09995 6.31879 22.0941
8.02064 6.38873 22.0927
7.94132 6.45867 22.0914
7.86201 6.52862 22.09
7.78269 6.59856 22.0886
7.70338 6.6685 22.0872
7.62406 6.73845 22.0859
7.54475 6.80839 22.0845
7.46543 6.87833 22.0832
7.38612 6.94828 22.0818
7.3068 7.01822 22.0804
7.22749 7.08816 22.0791
7.14817 7.15811 22.0777
7.06886 7.22805 22.0763
6.98954 7.29799 22.075
6.91023 7.36793 22.0736
6.83091 7.43788 22.0722
6.7516 7.50782 22.0709
6.67229 7.57777 22.0695
6.59297 7.64771 22.0681
6.51366 7.71765 22.0668
6.43434 7.78759 22.0654
6.35503 7.85754 22.064
6.27571 7.92748 22.0627
6.13393 7.91692 22.0589
6.05462 7.98686 22.0575
5.9753 8.05681 22.0561
5.89599 8.12675 22.0548
5.75421 8.11619 22.051
5.67489 8.18613 22.0496
5.53311 8.17556 22.0458
5.4538 8.24551 22.0445
5.31202 8.23495 22.0407
4.92037 7.90237 22.0272
4.77859 7.89181 22.0234
4.63681 7.88125 22.0196
4.5575 7.95119 22.0182
4.41572 7.94063 22.0145
4.21147 7.84956 22.0083
4.06969 7.839 22.0045
3.92791 7.82844 22.0007
3.78613 7.81787 21.9969
3.64435 7.80732 21.9931
3.50257 7.79675 21.9893
3.42325 7.86669 21.9879
3.28147 7.85613 21.9841
3.1397 7.84557 21.9804
3.06038 7.91552 21.979
2.9186 7.90495 21.9752
2.77682 7.89439 21.9714
2.6975 7.96434 21.97
2.55572 7.95377 21.9663
7.90452 6.42282 22.0981
7.8147 6.54469 22.0992
7.71104 6.56561 22.0978
7.62123 6.68748 22.0989
7.53141 6.80934 22.0999
7.4416 6.93121 22.101
7.35178 7.05307 22.1021
7.26196 7.17494 22.1031
7.17215 7.29681 22.1042
7.09618 7.51963 22.1077
7.00636 7.6415 22.1087
6.91655 7.76336 22.1098
6.81288 7.78428 22.1084
6.72307 7.90614 22.1095
6.61941 7.92706 22.1081
6.51575 7.94797 22.1067
6.41209 7.96889 22.1054
6.30843 7.98981 22.104
6.20477 8.01072 22.1026
6.10111 8.03163 22.1013
6.01129 8.1535 22.1023
5.90763 8.17442 22.101
5.80397 8.19533 22.0996
5.70031 8.21625 22.0982
5.59665 8.23716 22.0969
5.49299 8.25808 22.0955
5.40318 8.37995 22.0966
5.29952 8.40086 22.0952
5.19585 8.42177 22.0938
5.09219 8.44269 22.0925
4.97469 8.36265 22.0887
4.87103 8.38357 22.0873
4.76737 8.40448 22.0859
4.66371 8.4254 22.0846
4.56005 8.44631 22.0832
4.45639 8.46723 22.0818
4.33889 8.38719 22.078
4.23523 8.40811 22.0767
4.13156 8.42902 22.0753
4.0279 8.44994 22.0739
3.92425 8.47085 22.0726
3.82058 8.49177 22.0712
3.71692 8.51268 22.0699
3.61326 8.5336 22.0685
3.49576 8.45356 22.0647
3.3921 8.47448 22.0633
3.28844 8.49539 22.062
3.18478 8.51631 22.0606
3.06727 8.43627 22.0568
2.96361 8.45719 22.0555
2.85995 8.4781 22.0541
2.75629 8.49902 22.0527
2.63879 8.41898 22.0489
2.53513 8.43989 22.0476
2.43147 8.46081 22.0462
2.31396 8.38077 22.0424
2.2103 8.40168 22.041
2.10664 8.4226 22.0397
2.00298 8.44351 22.0383
1.88548 8.36348 22.0345
1.78182 8.3844 22.0331
1.67816 8.40531 22.0318
1.56065 8.32527 22.028
1.45699 8.34619 22.0266
1.33949 8.26615 22.0228
1.22199 8.18612 22.019
1.10448 8.10608 22.0153
1.00082 8.12699 22.0139
0.89716 8.14791 22.0125
0.779656 8.06787 22.0087
0.675996 8.08879 22.0074
0.558492 8.00875 22.0036
0.454833 8.02967 22.0022
0.337326 7.94963 21.9984
0.219823 7.8696 21.9946
0.0746269 7.58765 21.986
-0.0290308 7.60856 21.9846
-0.132692 7.62948 21.9833
-0.250195 7.54944 21.9795
-0.353855 7.57036 21.9781
-0.471362 7.49032 21.9743
-0.602709 7.30933 21.9681
-0.734058 7.12835 21.9619
-0.851561 7.04831 21.9581
-0.955221 7.06923 21.9567
-1.07273 6.98918 21.953
-1.17639 7.0101 21.9516
-1.29389 6.93007 21.9478
4.97475 8.46344 22.0751
4.79755 8.61841 22.0786
4.58186 8.86775 22.0845
4.44315 8.92838 22.0856
4.30443 8.98901 22.0867
4.2042 8.95529 22.0853
4.10397 8.92158 22.0839
4.00374 8.88786 22.0826
3.86502 8.94849 22.0836
3.76479 8.91478 22.0822
3.62608 8.97541 22.0833
3.52585 8.94169 22.0819
3.42562 8.90797 22.0806
3.32539 8.87426 22.0792
3.22516 8.84054 22.0778
3.12493 8.80682 22.0765
3.0247 8.77311 22.0751
2.92447 8.73939 22.0737
2.78575 8.80002 22.0748
2.68552 8.7663 22.0734
2.58529 8.73259 22.0721
2.48506 8.69887 22.0707
2.34635 8.7595 22.0717
2.24612 8.72579 22.0704
2.14589 8.69207 22.069
2.00717 8.7527 22.0701
1.90694 8.71898 22.0687
1.80671 8.68526 22.0674
1.70648 8.65155 22.066
1.60625 8.61783 22.0646
1.50602 8.58412 22.0632
1.40579 8.5504 22.0619
1.30556 8.51668 22.0605
1.20533 8.48296 22.0591
1.06661 8.5436 22.0602
0.966384 8.50988 22.0588
0.866155 8.47616 22.0575
0.765924 8.44245 22.0561
0.665695 8.40873 22.0547
0.565464 8.37501 22.0534
0.465235 8.34129 22.052
0.365006 8.30758 22.0506
0.264775 8.27386 22.0493
0.164544 8.24014 22.0479
0.0643146 8.20643 22.0466
-0.0359137 8.17271 22.0452
-0.136145 8.13899 22.0438
-0.236374 8.10528 22.0424
-0.336604 8.07156 22.0411
-0.436836 8.03784 22.0397
-0.537064 8.00412 22.0383
-0.637294 7.97041 22.037
-0.737524 7.93669 22.0356
-0.837754 7.90298 22.0343
-0.937985 7.86926 22.0329
-1.03821 7.83554 22.0315
-1.09996 7.70747 22.0277
-1.20019 7.67375 22.0264
-1.30042 7.64004 22.025
-1.40065 7.60632 22.0236
-1.50087 7.5726 22.0223
-1.60111 7.53889 22.0209
-1.70134 7.50517 22.0195
-1.80157 7.47145 22.0182
-1.9018 7.43773 22.0168
-2.00202 7.40402 22.0154
-2.10225 7.3703 22.0141
-2.20248 7.33658 22.0127
-2.26423 7.20852 22.0089
-2.36446 7.1748 22.0076
-2.46469 7.14109 22.0062
-2.56492 7.10737 22.0048
-2.66515 7.07365 22.0034
-2.76538 7.03994 22.0021
-2.82712 6.91187 21.9983
-2.92735 6.87815 21.9969
-3.02758 6.84443 21.9956
-3.08933 6.71637 21.9918
-3.18956 6.68265 21.9904
-3.28978 6.64893 21.989
-3.39001 6.61522 21.9877
-3.49025 6.5815 21.9863
-3.59048 6.54778 21.9849
-3.65222 6.41972 21.9812
-3.75245 6.386 21.9798
-3.81419 6.25793 21.976
-3.91442 6.22422 21.9746
-3.97617 6.09615 21.9708
-4.0764 6.06243 21.9695
-4.17663 6.02872 21.9681
-4.23837 5.90065 21.9643
-4.26163 5.67824 21.9581
-4.36186 5.64452 21.9567
-4.4236 5.51645 21.953
-4.52383 5.48273 21.9516
-4.58558 5.35467 21.9478
-4.64732 5.22661 21.944
-4.70906 5.09854 21.9402
-1.30119 7.94707 22.0403
-1.53214 7.99269 22.0437
-1.60209 7.91337 22.0424
-1.75254 7.89652 22.0434
-1.82248 7.81721 22.0421
-1.97292 7.80036 22.0431
-2.04287 7.72104 22.0417
-2.11281 7.64173 22.0404
-2.18275 7.56241 22.039
-2.25269 7.4831 22.0377
-2.40315 7.46625 22.0387
-2.55359 7.4494 22.0398
-2.70404 7.43255 22.0408
-2.85449 7.4157 22.0419
-3.00494 7.39885 22.0429
-3.07488 7.31954 22.0416
-3.14482 7.24022 22.0402
-3.21477 7.16091 22.0388
-3.36522 7.14406 22.0399
-3.43516 7.06475 22.0385
-3.5051 6.98543 22.0372
-3.57505 6.90612 22.0358
-3.64499 6.82681 22.0344
-3.71493 6.74749 22.0331
-3.78487 6.66817 22.0317
-3.85482 6.58886 22.0303
-3.92476 6.50955 22.029
-4.07521 6.49269 22.03
-4.14515 6.41338 22.0287
-4.21509 6.33406 22.0273
-4.28504 6.25475 22.0259
-4.35498 6.17544 22.0246
-4.42492 6.09612 22.0232
-4.49486 6.01681 22.0218
-4.56481 5.93749 22.0205
-4.63475 5.85818 22.0191
-4.7047 5.77886 22.0177
-4.77464 5.69955 22.0164
-4.84458 5.62023 22.015
-4.91452 5.54092 22.0136
-4.98447 5.4616 22.0123
-5.05441 5.38229 22.0109
-5.12435 5.30297 22.0095
-5.19429 5.22366 22.0082
-5.26424 5.14434 22.0068
-5.33418 5.06503 22.0054
-5.40413 4.98571 22.0041
-5.47407 4.9064 22.0027
-5.54401 4.82709 22.0013
-5.61396 4.74777 22
-5.6034 4.60599 21.9962
-5.67334 4.52668 21.9948
-5.74328 4.44736 21.9935
-5.81323 4.36805 21.9921
-5.88317 4.28873 21.9907
-5.95311 4.20942 21.9893
-5.94255 4.06764 21.9856
-6.01249 3.98832 21.9842
-6.08243 3.90901 21.9828
-6.07187 3.76723 21.979
-5.46963 5.43018 22.0342
-5.5915 5.34036 22.0352
-5.71336 5.25054 22.0363
-5.73428 5.14688 22.0349
-5.85615 5.05707 22.036
-5.97802 4.96725 22.037
-5.99893 4.86359 22.0357
-6.1208 4.77377 22.0367
-6.14171 4.67011 22.0354
-6.26358 4.5803 22.0364
-6.28449 4.47664 22.035
-6.30541 4.37298 22.0337
-6.42727 4.28316 22.0347
-6.44819 4.1795 22.0334
-6.46911 4.07584 22.032
-6.49002 3.97218 22.0306
-6.51093 3.86852 22.0293
-6.53185 3.76486 22.0279
-6.55277 3.6612 22.0266
-6.67464 3.57139 22.0276
-6.69555 3.46773 22.0262
-6.71647 3.36407 22.0249
-6.73738 3.26041 22.0235
-6.7583 3.15675 22.0221
-6.77921 3.05309 22.0208
-6.80013 2.94943 22.0194
-6.72009 2.83192 22.0156
-6.741 2.72826 22.0143
-6.76192 2.6246 22.0129
-6.68188 2.5071 22.0091
-6.70279 2.40344 22.0077
-6.72371 2.29978 22.0064
-6.74463 2.19612 22.005
-6.76554 2.09245 22.0036
-6.78645 1.98879 22.0023
-6.80737 1.88514 22.0009
-6.82829 1.78147 21.9995
-6.8492 1.67782 21.9982
-6.76917 1.56031 21.9944
-6.79008 1.45665 21.993
-6.81099 1.35299 21.9917
-6.73096 1.23549 21.9879
-6.75188 1.13183 21.9865
-6.77279 1.02816 21.9851
-6.7937 0.924504 21.9838
-6.71367 0.807001 21.98
-6.73458 0.703339 21.9786
-6.7555 0.59968 21.9772
-6.77642 0.49602 21.9759
-6.79733 0.39236 21.9745
-6.81824 0.288701 21.9731
-6.83916 0.185039 21.9718
-6.75912 0.0675335 21.968
-6.78003 -0.0361269 21.9666
-6.80095 -0.139786 21.9653
-6.72092 -0.257291 21.9615
-6.64088 -0.374794 21.9577
-7.39129 2.10657 22.0331
-7.45193 1.96786 22.0342
-7.41821 1.86763 22.0328
-7.47884 1.72891 22.0339
-7.44512 1.62868 22.0325
-7.50575 1.48997 22.0336
-7.47204 1.38974 22.0322
-7.43832 1.28951 22.0308
-7.49895 1.15079 22.0319
-7.46524 1.05056 22.0305
-7.52587 0.911841 22.0316
-7.49215 0.811613 22.0302
-7.55278 0.672897 22.0313
-7.51907 0.572666 22.0299
-7.48535 0.472436 22.0285
-7.45163 0.372206 22.0272
-7.41791 0.271978 22.0258
-7.3842 0.171747 22.0244
-7.35048 0.0715172 22.0231
-7.31677 -0.0287123 22.0217
-7.28305 -0.128944 22.0203
-7.34368 -0.267658 22.0214
-7.30996 -0.367889 22.02
-7.37059 -0.506606 22.0211
-7.33688 -0.606835 22.0197
-7.30316 -0.707066 22.0183
-7.26944 -0.807294 22.017
-7.23573 -0.907526 22.0156
-7.20201 -1.00775 22.0143
-7.16829 -1.10799 22.0129
-7.13458 -1.20822 22.0115
-7.10086 -1.30844 22.0101
-7.06714 -1.40868 22.0088
-7.03343 -1.5089 22.0074
-6.99971 -1.60914 22.0061
-6.96599 -1.70936 22.0047
-6.83792 -1.77111 22.0009
-6.80421 -1.87134 21.9995
-6.77049 -1.97157 21.9982
-6.73678 -2.0718 21.9968
-6.70306 -2.17203 21.9954
-6.66934 -2.27226 21.9941
-6.63562 -2.37249 21.9927
-6.60191 -2.47272 21.9913
-6.56819 -2.57295 21.99
-6.53447 -2.67318 21.9886
-6.40641 -2.73492 21.9848
-6.37269 -2.83515 21.9834
-6.33897 -2.93538 21.9821
-6.30526 -3.03561 21.9807
-6.27154 -3.13584 21.9794
-6.14347 -3.19758 21.9756
-6.10976 -3.29782 21.9742
-6.07604 -3.39805 21.9728
-6.04232 -3.49828 21.9715
-6.0086 -3.5985 21.9701
-5.97489 -3.69873 21.9687
-5.94117 -3.79896 21.9674
-5.90745 -3.89919 21.966
-5.87373 -3.99942 21.9646
-5.84002 -4.09965 21.9633
-5.8063 -4.19988 21.9619
-5.77259 -4.30011 21.9605
-5.73887 -4.40034 21.9592
-5.6108 -4.46209 21.9554
-5.57709 -4.56232 21.954
-5.54337 -4.66255 21.9527
-5.50965 -4.76278 21.9513
-5.47594 -4.86301 21.9499
-5.34786 -4.92475 21.9461
-5.31415 -5.02498 21.9448
-5.28043 -5.12521 21.9434
-5.24672 -5.22544 21.942
-5.213 -5.32567 21.9407
-5.08493 -5.38741 21.9369
-5.05122 -5.48764 21.9355
-5.0175 -5.58787 21.9341
-4.98379 -5.6881 21.9328
-4.95007 -5.78833 21.9314
-4.91635 -5.88856 21.93
-4.78829 -5.95031 21.9263
-4.75457 -6.05054 21.9249
-4.72085 -6.15077 21.9235
-4.68713 -6.251 21.9222
-4.65342 -6.35123 21.9208
-4.6197 -6.45146 21.9194
-4.58598 -6.55169 21.9181
-4.45791 -6.61343 21.9143
-4.4242 -6.71366 21.9129
-4.29613 -6.7754 21.9091
-4.26242 -6.87563 21.9077
-4.13435 -6.93738 21.904
-4.00628 -6.99912 21.9002
-7.27187 -0.947489 22.0192
-7.25502 -1.09793 22.0202
-7.30063 -1.32889 22.0237
-7.28379 -1.47933 22.0248
-7.26694 -1.62978 22.0258
-7.25009 -1.78023 22.0269
-7.23324 -1.93068 22.028
-7.15392 -2.00062 22.0266
-7.13707 -2.15107 22.0276
-7.05776 -2.22101 22.0263
-7.04091 -2.37146 22.0273
-6.9616 -2.4414 22.026
-6.94475 -2.59185 22.027
-6.86543 -2.6618 22.0257
-6.84858 -2.81224 22.0267
-6.76927 -2.88218 22.0254
-6.68995 -2.95213 22.024
-6.6731 -3.10258 22.0251
-6.59379 -3.17252 22.0237
-6.51448 -3.24247 22.0223
-6.43516 -3.31241 22.021
-6.35585 -3.38235 22.0196
-6.339 -3.5328 22.0206
-6.25968 -3.60274 22.0193
-6.24283 -3.75319 22.0203
-6.22598 -3.90364 22.0214
-6.20913 -4.05408 22.0224
-6.19229 -4.20453 22.0235
-6.11297 -4.27448 22.0221
-6.09612 -4.42492 22.0232
-6.01681 -4.49486 22.0218
-5.99995 -4.64531 22.0229
-5.92064 -4.71526 22.0215
-5.84133 -4.7852 22.0202
-5.82448 -4.93565 22.0212
-5.80763 -5.08609 22.0223
-5.79078 -5.23655 22.0233
-5.77393 -5.38699 22.0244
-5.69462 -5.45694 22.023
-5.67777 -5.60738 22.0241
-5.59845 -5.67732 22.0227
-5.51914 -5.74727 22.0213
-5.43982 -5.81721 22.02
-5.42297 -5.96766 22.021
-5.34366 -6.0376 22.0197
-5.26434 -6.10755 22.0183
-5.2475 -6.25799 22.0194
-5.16818 -6.32794 22.018
-5.08887 -6.39788 22.0166
-5.00955 -6.46782 22.0153
-4.93024 -6.53777 22.0139
-4.91339 -6.68822 22.015
-4.83408 -6.75816 22.0136
-4.81722 -6.90861 22.0146
-4.80037 -7.05905 22.0157
-4.72106 -7.129 22.0143
-4.64174 -7.19894 22.013
-4.6249 -7.34939 22.014
-4.54558 -7.41933 22.0127
-4.46627 -7.48927 22.0113
-4.44942 -7.63972 22.0123
-4.3701 -7.70966 22.011
-4.29079 -7.77961 22.0096
-4.21147 -7.84955 22.0083
-4.19462 -8 22.0093
-4.11531 -8.06994 22.0079
-4.036 -8.13989 22.0066
-3.95668 -8.20983 22.0052
-3.87736 -8.27977 22.0038
-3.79805 -8.34972 22.0025
-3.71874 -8.41966 22.0011
-3.63942 -8.4896 21.9997
-3.56011 -8.55955 21.9984
-3.48079 -8.62949 21.997
-3.40148 -8.69943 21.9957
-3.38463 -8.84988 21.9967
-3.30532 -8.91982 21.9953
-3.226 -8.98976 21.994
-3.14669 -9.05971 21.9926
-3.06737 -9.12965 21.9912
-2.98806 -9.1996 21.9899
-2.90874 -9.26954 21.9885
-2.82943 -9.33948 21.9871
-2.75011 -9.40942 21.9858
-2.6708 -9.47937 21.9844
-2.59148 -9.54931 21.983
-2.51217 -9.61926 21.9817
-2.37039 -9.60869 21.9779
-2.29107 -9.67864 21.9765
-2.21176 -9.74858 21.9752
-2.13244 -9.81852 21.9738
-2.05313 -9.88847 21.9724
-1.97381 -9.95841 21.9711
-1.8945 -10.0284 21.9697
-1.81518 -10.0983 21.9683
-1.73587 -10.1682 21.967
-1.65655 -10.2382 21.9656
-1.57724 -10.3081 21.9642
-1.49793 -10.3781 21.9629
-1.41861 -10.448 21.9615
-1.3393 -10.518 21.9601
-1.25998 -10.5879 21.9588
-1.18067 -10.6578 21.9574
-1.10135 -10.7278 21.956
-0.959571 -10.7172 21.9522
-0.880256 -10.7872 21.9509
-0.80094 -10.8571 21.9495
-0.721625 -10.927 21.9482
-0.642311 -10.997 21.9468
-0.500535 -10.9864 21.943
-0.421221 -11.0564 21.9416
-0.341905 -11.1263 21.9403
-0.262589 -11.1963 21.9389
-0.120807 -11.1857 21.9351
0.0209718 -11.1751 21.9313
0.225221 -11.0841 21.9251
0.366998 -11.0735 21.9213
0.446313 -11.1435 21.92
0.525627 -11.2134 21.9186
0.604941 -11.2833 21.9172
0.746724 -11.2728 21.9134
0.950969 -11.1817 21.9072
1.15521 -11.0906 21.901
1.29699 -11.0801 21.8972
1.43877 -11.0695 21.8934
1.58055 -11.059 21.8896
