ply
format ascii 1.0
comment VCGLIB generated
element vertex 991
property float x
property float y
property float z
element face 0
property list uchar int vertex_indices
end_header
6.30962 -11.0317 23.1702
6.46006 -11.0149 23.1712
6.53001 -10.9356 23.1699
6.68045 -10.9187 23.1709
6.7504 -10.8394 23.1696
6.82034 -10.7601 23.1682
6.89029 -10.6808 23.1668
7.04073 -10.6639 23.1679
7.19118 -10.6471 23.1689
7.26112 -10.5677 23.1676
7.41157 -10.5509 23.1686
7.48152 -10.4716 23.1673
7.55146 -10.3923 23.1659
7.6214 -10.313 23.1645
7.69134 -10.2336 23.1632
7.84179 -10.2168 23.1642
7.91174 -10.1375 23.1629
7.98168 -10.0582 23.1615
8.05162 -9.97885 23.1601
8.20207 -9.962 23.1612
8.27201 -9.88269 23.1598
8.34196 -9.80337 23.1584
8.4924 -9.78652 23.1595
8.56235 -9.7072 23.1581
8.63229 -9.62789 23.1568
8.70223 -9.54858 23.1554
8.85268 -9.53173 23.1565
8.92262 -9.45241 23.1551
8.99257 -9.37309 23.1537
9.06251 -9.29378 23.1524
9.13245 -9.21447 23.151
9.2024 -9.13515 23.1496
9.27234 -9.05584 23.1483
9.26178 -8.91406 23.1445
9.33172 -8.83474 23.1431
9.40166 -8.75543 23.1418
9.3911 -8.61365 23.138
9.46105 -8.53434 23.1366
9.53099 -8.45502 23.1352
9.60093 -8.37571 23.1339
9.59037 -8.23392 23.1301
9.66031 -8.15461 23.1287
9.73026 -8.07529 23.1273
9.7197 -7.93351 23.1236
9.78964 -7.8542 23.1222
9.85958 -7.77489 23.1208
9.92952 -7.69557 23.1195
9.91896 -7.55379 23.1157
9.98891 -7.47447 23.1143
10.0589 -7.39516 23.1129
10.1288 -7.31585 23.1116
10.1987 -7.23653 23.1102
10.1882 -7.09475 23.1064
10.1776 -6.95297 23.1026
10.1671 -6.81119 23.0988
10.1565 -6.66941 23.095
10.1459 -6.52763 23.0912
10.2159 -6.44832 23.0899
10.2858 -6.369 23.0885
10.2753 -6.22722 23.0847
10.3452 -6.1479 23.0834
10.3346 -6.00613 23.0796
10.3241 -5.86434 23.0758
10.233 -5.6601 23.0696
10.2224 -5.51832 23.0658
10.2119 -5.37654 23.062
10.2013 -5.23476 23.0582
10.1908 -5.09298 23.0544
10.0997 -4.88873 23.0482
10.0086 -4.68449 23.042
9.99807 -4.54271 23.0382
9.9875 -4.40093 23.0344
8.71656 -9.39089 23.1738
8.83842 -9.30107 23.1748
8.85934 -9.19741 23.1734
8.88025 -9.09375 23.1721
9.00212 -9.00394 23.1731
9.12399 -8.91412 23.1742
9.24585 -8.82431 23.1752
9.36772 -8.73449 23.1763
9.48959 -8.64467 23.1774
9.61145 -8.55486 23.1784
9.73332 -8.46504 23.1795
9.75424 -8.36138 23.1781
9.87611 -8.27157 23.1792
9.99797 -8.18175 23.1802
10.0189 -8.07809 23.1789
10.1408 -7.98827 23.1799
10.1617 -7.88461 23.1785
10.1826 -7.78095 23.1772
10.3045 -7.69114 23.1782
10.3254 -7.58748 23.1769
10.3463 -7.48382 23.1755
10.4682 -7.394 23.1766
10.4891 -7.29034 23.1752
10.51 -7.18668 23.1738
10.5309 -7.08302 23.1725
10.6528 -6.99321 23.1735
10.6737 -6.88954 23.1722
10.6946 -6.78588 23.1708
10.7155 -6.68223 23.1694
10.7364 -6.57856 23.1681
10.7573 -6.4749 23.1667
10.7783 -6.37124 23.1653
10.7992 -6.26758 23.164
10.8201 -6.16392 23.1626
10.74 -6.04642 23.1588
10.761 -5.94276 23.1574
10.7819 -5.8391 23.1561
10.7018 -5.72159 23.1523
10.7228 -5.61794 23.1509
10.6427 -5.50043 23.1471
10.6636 -5.39677 23.1458
10.6845 -5.29311 23.1444
10.6045 -5.17561 23.1406
10.6254 -5.07195 23.1393
10.6463 -4.96829 23.1379
10.6673 -4.86462 23.1365
10.6882 -4.76096 23.1351
10.7091 -4.6573 23.1338
10.629 -4.5398 23.13
10.65 -4.43614 23.1286
10.6709 -4.33248 23.1273
10.5908 -4.21498 23.1235
10.6118 -4.11131 23.1221
10.6327 -4.00765 23.1207
10.5526 -3.89015 23.1169
10.5735 -3.78649 23.1156
10.5945 -3.68283 23.1142
10.5144 -3.56533 23.1104
10.5353 -3.46167 23.1091
10.5563 -3.358 23.1077
10.5772 -3.25435 23.1063
10.5981 -3.15068 23.105
10.5181 -3.03318 23.1012
10.539 -2.92952 23.0998
10.4589 -2.81201 23.096
10.4798 -2.70836 23.0947
10.5008 -2.60469 23.0933
10.5217 -2.50103 23.0919
10.5426 -2.39738 23.0906
10.4626 -2.27987 23.0868
10.4835 -2.17621 23.0854
10.5044 -2.07255 23.084
10.4243 -1.95504 23.0802
10.3443 -1.83754 23.0765
10.2643 -1.72004 23.0727
10.2852 -1.61638 23.0713
10.3061 -1.51272 23.0699
10.2261 -1.39521 23.0661
10.247 -1.29155 23.0648
10.1669 -1.17405 23.061
10.1879 -1.07039 23.0596
10.2088 -0.966727 23.0583
10.1287 -0.849223 23.0545
10.1497 -0.745564 23.0531
10.0696 -0.628057 23.0493
9.98958 -0.510554 23.0455
10.0105 -0.406892 23.0442
9.93046 -0.28939 23.0404
9.85042 -0.171883 23.0366
9.87134 -0.0682231 23.0352
9.79131 0.0492796 23.0314
9.81222 0.152942 23.0301
9.83313 0.256601 23.0287
9.85405 0.360261 23.0273
9.87497 0.46392 23.026
9.89588 0.56758 23.0246
9.81584 0.685086 23.0208
9.83675 0.788746 23.0194
9.75672 0.906253 23.0157
9.67668 1.02375 23.0119
9.59665 1.14126 23.0081
9.51661 1.25876 23.0043
9.43657 1.37627 23.0005
9.45749 1.47993 22.9991
9.4784 1.58359 22.9978
9.39837 1.70109 22.994
9.41928 1.80475 22.9926
9.33925 1.92226 22.9888
10.6947 -7.14215 23.146
10.7553 -7.00344 23.147
10.9103 -6.82623 23.1505
11.0653 -6.64903 23.154
11.0316 -6.5488 23.1526
11.0922 -6.41009 23.1537
11.0585 -6.30986 23.1523
11.0248 -6.20963 23.1509
10.991 -6.1094 23.1496
10.863 -6.04765 23.1458
10.9236 -5.90894 23.1468
10.8899 -5.80871 23.1455
10.9505 -5.66999 23.1465
11.1055 -5.49279 23.15
11.1661 -5.35407 23.1511
11.1324 -5.25384 23.1497
11.1931 -5.11512 23.1508
11.1593 -5.01489 23.1494
11.1256 -4.91466 23.148
11.1863 -4.77595 23.1491
11.1525 -4.67572 23.1477
11.1188 -4.57549 23.1463
11.1794 -4.43677 23.1474
11.1457 -4.33654 23.146
11.2064 -4.19783 23.1471
11.1726 -4.0976 23.1457
11.1389 -3.99737 23.1444
11.1996 -3.85865 23.1454
11.1658 -3.75842 23.1441
11.1321 -3.65819 23.1427
11.0984 -3.55796 23.1413
11.0647 -3.45773 23.14
11.031 -3.3575 23.1386
11.0916 -3.21878 23.1396
11.0579 -3.11855 23.1383
11.0242 -3.01832 23.1369
11.0848 -2.87961 23.138
11.0511 -2.77938 23.1366
11.0174 -2.67915 23.1352
10.8893 -2.61741 23.1315
10.8556 -2.51718 23.1301
10.9162 -2.37846 23.1311
10.8825 -2.27823 23.1298
10.9431 -2.13951 23.1308
10.9094 -2.03928 23.1295
10.97 -1.90057 23.1305
10.9363 -1.80034 23.1292
10.9026 -1.70011 23.1278
10.8689 -1.59988 23.1264
10.8352 -1.49965 23.1251
10.8015 -1.39942 23.1237
10.8621 -1.2607 23.1248
10.8284 -1.16047 23.1234
10.7947 -1.06024 23.122
10.8553 -0.921523 23.1231
10.8216 -0.821293 23.1217
10.7879 -0.721063 23.1203
10.7541 -0.620833 23.119
10.7204 -0.520604 23.1176
10.6867 -0.420374 23.1162
10.653 -0.320143 23.1149
10.6193 -0.219913 23.1135
10.5856 -0.119684 23.1122
10.5518 -0.0194542 23.1108
10.5181 0.0807762 23.1094
10.5788 0.219492 23.1105
10.545 0.319723 23.1091
10.5113 0.419951 23.1077
10.4776 0.520181 23.1064
10.4439 0.620411 23.105
10.4102 0.720642 23.1037
10.3765 0.820872 23.1023
10.4371 0.959586 23.1033
10.4034 1.05982 23.102
10.3697 1.16005 23.1006
10.3359 1.26028 23.0992
10.3022 1.36051 23.0979
10.2685 1.46074 23.0965
10.2348 1.56097 23.0951
10.2011 1.6612 23.0938
10.1674 1.76143 23.0924
10.1336 1.86166 23.091
10.0999 1.96189 23.0897
10.0662 2.06212 23.0883
10.0325 2.16235 23.0869
9.99877 2.26258 23.0856
9.96505 2.36281 23.0842
9.93133 2.46303 23.0828
9.89762 2.56327 23.0815
9.8639 2.6635 23.0801
9.83018 2.76373 23.0788
9.79646 2.86396 23.0774
9.76275 2.96418 23.076
9.72903 3.06442 23.0746
9.69531 3.16465 23.0733
9.6616 3.26488 23.0719
9.62788 3.36511 23.0706
9.59416 3.46534 23.0692
9.56045 3.56556 23.0678
9.52673 3.66579 23.0665
9.49301 3.76603 23.0651
9.36495 3.82777 23.0613
9.33123 3.928 23.0599
9.29751 4.02823 23.0586
9.2638 4.12846 23.0572
9.13573 4.1902 23.0534
9.10201 4.29043 23.052
9.0683 4.39066 23.0507
8.94023 4.45241 23.0469
8.90651 4.55264 23.0455
8.87279 4.65287 23.0442
8.74473 4.71461 23.0404
8.71101 4.81484 23.039
8.67729 4.91507 23.0376
8.54923 4.97681 23.0338
8.51551 5.07704 23.0325
8.38745 5.13879 23.0287
8.35373 5.23902 23.0273
8.22566 5.30076 23.0235
8.19195 5.40099 23.0222
8.06388 5.46273 23.0184
7.93581 5.52448 23.0146
10.403 1.7117 23.1082
10.3236 1.78164 23.1068
10.3068 1.93209 23.1078
10.2275 2.00203 23.1065
10.1482 2.07198 23.1051
10.1313 2.22242 23.1062
10.052 2.29236 23.1048
10.0351 2.44281 23.1059
10.1432 2.75427 23.1118
10.1264 2.90472 23.1128
10.1095 3.05517 23.1139
10.0927 3.20561 23.1149
10.0134 3.27556 23.1136
9.93406 3.3455 23.1122
9.91721 3.49595 23.1133
9.83789 3.56589 23.1119
9.75857 3.63583 23.1105
9.74173 3.78628 23.1116
9.78734 4.01724 23.1151
9.7705 4.16769 23.1161
9.75364 4.31813 23.1172
9.67433 4.38807 23.1158
9.59501 4.45802 23.1144
9.5157 4.52796 23.1131
9.43639 4.5979 23.1117
9.41953 4.74835 23.1128
9.34022 4.81829 23.1114
9.2609 4.88824 23.11
9.24406 5.03869 23.1111
9.16474 5.10863 23.1097
9.08543 5.17857 23.1084
9.00611 5.24852 23.107
8.98926 5.39897 23.108
8.90995 5.46891 23.1067
8.83063 5.53885 23.1053
8.75132 5.60879 23.104
8.672 5.67874 23.1026
8.59269 5.74868 23.1012
8.51338 5.81862 23.0999
8.43406 5.88857 23.0985
8.35474 5.95851 23.0971
8.27543 6.02845 23.0958
8.25858 6.1789 23.0968
8.17927 6.24885 23.0954
8.09995 6.31879 23.0941
8.02064 6.38873 23.0927
7.94132 6.45867 23.0914
7.86201 6.52862 23.09
7.78269 6.59856 23.0886
7.70338 6.6685 23.0872
7.62406 6.73845 23.0859
7.54475 6.80839 23.0845
7.46543 6.87833 23.0832
7.38612 6.94828 23.0818
7.3068 7.01822 23.0804
7.22749 7.08816 23.0791
7.14817 7.15811 23.0777
7.06886 7.22805 23.0763
6.98954 7.29799 23.075
6.91023 7.36793 23.0736
6.76845 7.35737 23.0698
6.68914 7.42732 23.0684
6.60982 7.49726 23.0671
6.5305 7.5672 23.0657
6.45119 7.63715 23.0643
6.37188 7.70709 23.063
6.29256 7.77703 23.0616
6.21325 7.84698 23.0602
6.13393 7.91692 23.0589
6.05462 7.98686 23.0575
5.9753 8.05681 23.0561
5.83352 8.04624 23.0524
5.75421 8.11619 23.051
5.67489 8.18613 23.0496
5.53311 8.17556 23.0458
5.4538 8.24551 23.0445
5.31202 8.23495 23.0407
4.98284 7.98287 23.0296
4.84106 7.97231 23.0258
4.69928 7.96175 23.022
4.61996 8.03169 23.0207
4.47818 8.02113 23.0169
4.3364 8.01057 23.0131
4.19462 8.00001 23.0093
4.05284 7.98944 23.0055
3.97353 8.05939 23.0042
3.83175 8.04883 23.0004
3.68996 8.03827 22.9966
3.48572 7.9472 22.9904
3.34394 7.93664 22.9866
3.20216 7.92608 22.9828
3.06038 7.91552 22.979
2.85613 7.82445 22.9728
2.71435 7.81388 22.969
2.57257 7.80333 22.9652
2.43079 7.79276 22.9614
7.91836 6.52378 23.1006
7.82855 6.64564 23.1016
7.72489 6.66656 23.1003
7.63507 6.78843 23.1013
7.53141 6.80934 23.0999
7.4416 6.93121 23.101
7.33794 6.95213 23.0996
7.23427 6.97304 23.0983
7.21368 7.59967 23.1115
7.12386 7.72153 23.1125
7.03405 7.8434 23.1136
6.93039 7.86431 23.1122
6.82673 7.88523 23.1108
6.72307 7.90614 23.1095
6.61941 7.92706 23.1081
6.51575 7.94797 23.1067
6.41209 7.96889 23.1054
6.30843 7.98981 23.104
6.20477 8.01072 23.1026
6.11495 8.13259 23.1037
6.01129 8.1535 23.1023
5.90763 8.17442 23.101
5.80397 8.19533 23.0996
5.70031 8.21625 23.0982
5.59665 8.23716 23.0969
5.49299 8.25808 23.0955
5.38933 8.27899 23.0941
5.28567 8.29991 23.0928
5.18201 8.32082 23.0914
5.07835 8.34174 23.09
4.97469 8.36265 23.0887
4.87103 8.38357 23.0873
4.76737 8.40448 23.0859
4.66371 8.4254 23.0846
4.56005 8.44631 23.0832
4.45639 8.46723 23.0818
4.35273 8.48815 23.0805
4.24907 8.50906 23.0791
4.13156 8.42902 23.0753
4.0279 8.44994 23.0739
3.92425 8.47085 23.0726
3.82058 8.49177 23.0712
3.71692 8.51268 23.0699
3.61326 8.5336 23.0685
3.49576 8.45356 23.0647
3.3921 8.47448 23.0633
3.28844 8.49539 23.062
3.18478 8.51631 23.0606
3.08112 8.53722 23.0592
2.97746 8.55814 23.0579
2.85995 8.4781 23.0541
2.75629 8.49902 23.0527
2.65263 8.51993 23.0513
2.54897 8.54085 23.05
2.44531 8.56176 23.0486
2.32781 8.48173 23.0448
2.2103 8.40168 23.041
2.10664 8.4226 23.0397
1.98914 8.34257 23.0359
1.88548 8.36348 23.0345
1.76797 8.28344 23.0307
1.66431 8.30436 23.0294
1.54681 8.22432 23.0256
1.44315 8.24524 23.0242
1.33949 8.26615 23.0228
1.23583 8.28707 23.0215
1.11833 8.20703 23.0177
1.01467 8.22795 23.0163
0.89716 8.14791 23.0125
0.793499 8.16883 23.0112
0.675996 8.08879 23.0074
0.572336 8.1097 23.006
0.454833 8.02967 23.0022
0.337326 7.94963 22.9984
0.178289 7.56674 22.9874
0.0607831 7.4867 22.9836
-0.0428745 7.50761 22.9822
-0.146536 7.52853 22.9809
-0.26404 7.4485 22.9771
-0.3677 7.46941 22.9757
-0.485206 7.38937 22.9719
-0.602709 7.30933 22.9681
-0.734058 7.12835 22.9619
-0.837718 7.14926 22.9605
-0.955221 7.06923 22.9567
-1.05888 7.09014 22.9554
-1.17639 7.0101 22.9516
-1.28005 7.03102 22.9502
-1.39755 6.95098 22.9464
-1.51505 6.87095 22.9426
-1.63256 6.7909 22.9389
-1.75006 6.71087 22.9351
-1.86757 6.63083 22.9313
-1.97123 6.65175 22.9299
-2.08873 6.57171 22.9261
5.0365 8.5915 23.0789
4.89778 8.65213 23.08
4.75906 8.71277 23.0811
4.58186 8.86775 23.0845
4.44315 8.92838 23.0856
4.34292 8.89466 23.0842
4.2042 8.95529 23.0853
4.10397 8.92158 23.0839
3.96525 8.98221 23.085
3.86502 8.94849 23.0836
3.72631 9.00912 23.0847
3.62608 8.97541 23.0833
3.52585 8.94169 23.0819
3.38713 9.00232 23.083
3.2869 8.9686 23.0816
3.18667 8.93489 23.0803
3.08644 8.90117 23.0789
2.98621 8.86745 23.0775
2.88598 8.83373 23.0762
2.78575 8.80002 23.0748
2.68552 8.7663 23.0734
2.58529 8.73259 23.0721
2.48506 8.69887 23.0707
2.34635 8.7595 23.0717
2.24612 8.72579 23.0704
2.14589 8.69207 23.069
2.04566 8.65835 23.0677
1.90694 8.71898 23.0687
1.80671 8.68526 23.0674
1.70648 8.65155 23.066
1.60625 8.61783 23.0646
1.50602 8.58412 23.0632
1.40579 8.5504 23.0619
1.30556 8.51668 23.0605
1.20533 8.48296 23.0591
1.1051 8.44925 23.0578
1.00487 8.41553 23.0564
0.904642 8.38181 23.0551
0.804412 8.34809 23.0537
0.704183 8.31438 23.0523
0.603951 8.28066 23.0509
0.503723 8.24694 23.0496
0.403493 8.21322 23.0482
0.303263 8.17951 23.0469
0.164544 8.24014 23.0479
0.0643146 8.20643 23.0466
-0.0359137 8.17271 23.0452
-0.136145 8.13899 23.0438
-0.236374 8.10528 23.0424
-0.336604 8.07156 23.0411
-0.398347 7.94349 23.0373
-0.498576 7.90977 23.0359
-0.598807 7.87605 23.0346
-0.699037 7.84234 23.0332
-0.799267 7.80862 23.0318
-0.899497 7.77491 23.0305
-0.999725 7.74119 23.0291
-1.09996 7.70747 23.0277
-1.20019 7.67375 23.0264
-1.30042 7.64004 23.025
-1.40065 7.60632 23.0236
-1.50087 7.5726 23.0223
-1.60111 7.53889 23.0209
-1.70134 7.50517 23.0195
-1.80157 7.47145 23.0182
-1.9018 7.43773 23.0168
-2.00202 7.40402 23.0154
-2.10225 7.3703 23.0141
-2.20248 7.33658 23.0127
-2.30272 7.30287 23.0113
-2.36446 7.1748 23.0076
-2.46469 7.14109 23.0062
-2.56492 7.10737 23.0048
-2.66515 7.07365 23.0034
-2.76538 7.03994 23.0021
-2.86561 7.00622 23.0007
-2.96584 6.9725 22.9994
-3.02758 6.84443 22.9956
-3.12781 6.81072 22.9942
-3.22804 6.777 22.9928
-3.32827 6.74328 22.9915
-3.4285 6.70957 22.9901
-3.52873 6.67585 22.9887
-3.62896 6.64213 22.9874
-3.72919 6.60841 22.986
-3.79093 6.48035 22.9822
-3.89117 6.44663 22.9809
-3.99139 6.41292 22.9795
-4.05314 6.28485 22.9757
-4.15337 6.25113 22.9743
-4.21511 6.12306 22.9705
-4.08442 5.52326 22.9546
-4.14617 5.39519 22.9509
-4.2464 5.36147 22.9495
-4.34663 5.32775 22.9481
-4.40837 5.19969 22.9443
-4.47012 5.07162 22.9405
-4.49337 4.84921 22.9343
-4.51663 4.62679 22.9281
-4.57837 4.49873 22.9243
-4.6786 4.46501 22.923
-4.77883 4.43129 22.9216
-1.61265 8.05515 23.0462
-1.76309 8.0383 23.0472
-1.83304 7.95899 23.0459
-1.90298 7.87967 23.0445
-2.05343 7.86282 23.0455
-2.20388 7.84597 23.0466
-2.35433 7.82913 23.0477
-2.50477 7.81228 23.0487
-2.57471 7.73296 23.0473
-2.72516 7.71611 23.0484
-2.79511 7.6368 23.047
-2.86505 7.55748 23.0457
-3.0155 7.54064 23.0467
-3.08544 7.46132 23.0454
-3.15539 7.38201 23.044
-3.22533 7.30269 23.0426
-3.29527 7.22338 23.0413
-3.44572 7.20652 23.0423
-3.51566 7.12721 23.041
-3.5856 7.0479 23.0396
-3.65555 6.96858 23.0382
-3.72549 6.88927 23.0368
-3.79543 6.80995 23.0355
-3.86538 6.73064 23.0341
-3.93532 6.65132 23.0328
-4.00526 6.57201 23.0314
-4.07521 6.49269 23.03
-4.14515 6.41338 23.0287
-4.21509 6.33406 23.0273
-4.36554 6.31721 23.0284
-4.43548 6.2379 23.027
-4.50543 6.15859 23.0256
-4.57537 6.07927 23.0242
-4.64531 5.99995 23.0229
-4.71526 5.92064 23.0215
-4.7852 5.84133 23.0202
-4.85514 5.76201 23.0188
-4.92508 5.6827 23.0174
-4.99503 5.60338 23.0161
-5.06497 5.52407 23.0147
-5.13492 5.44475 23.0133
-5.20486 5.36544 23.012
-5.2748 5.28612 23.0106
-5.34474 5.20681 23.0092
-5.41469 5.1275 23.0079
-5.48463 5.04818 23.0065
-5.47407 4.9064 23.0027
-5.54401 4.82709 23.0013
-5.61396 4.74777 23
-5.6839 4.66846 22.9986
-5.75384 4.58914 22.9972
-5.82378 4.50983 22.9959
-5.89373 4.43051 22.9945
-5.96367 4.3512 22.9931
-6.03362 4.27188 22.9918
-6.02306 4.13011 22.988
-6.093 4.05079 22.9866
-6.08243 3.90901 22.9828
-6.15238 3.82969 22.9815
-6.14182 3.68791 22.9777
-6.21176 3.6086 22.9763
-6.2012 3.46682 22.9725
-4.93671 6.5289 23.0419
-4.95762 6.42524 23.0406
-5.07949 6.33543 23.0416
-5.10041 6.23177 23.0403
-5.12132 6.12811 23.0389
-5.14224 6.02445 23.0375
-5.16315 5.92079 23.0361
-5.18407 5.81713 23.0348
-5.40689 5.74115 23.0383
-5.4278 5.6375 23.0369
-5.65062 5.56152 23.0404
-5.97439 5.4994 23.0463
-5.9953 5.39574 23.0449
-6.11717 5.30592 23.046
-6.13809 5.20226 23.0446
-6.159 5.0986 23.0432
-6.17992 4.99494 23.0419
-6.30178 4.90512 23.0429
-6.3227 4.80146 23.0416
-6.34362 4.6978 23.0402
-6.36453 4.59414 23.0388
-6.4864 4.50433 23.0399
-6.50731 4.40067 23.0385
-6.52823 4.29701 23.0372
-6.54915 4.19335 23.0358
-6.57006 4.08969 23.0344
-6.59097 3.98603 23.0331
-6.61189 3.88237 23.0317
-6.63281 3.77871 23.0303
-6.65372 3.67505 23.029
-6.77559 3.58523 23.03
-6.7965 3.48157 23.0287
-6.81741 3.37791 23.0273
-6.83833 3.27425 23.0259
-6.85925 3.17059 23.0246
-6.88016 3.06693 23.0232
-6.90107 2.96327 23.0218
-6.92199 2.85961 23.0205
-6.9429 2.75595 23.0191
-6.96382 2.65229 23.0177
-6.98474 2.54863 23.0164
-6.9047 2.43113 23.0126
-6.92562 2.32746 23.0112
-6.84558 2.20996 23.0074
-6.86649 2.1063 23.0061
-6.88741 2.00264 23.0047
-6.90832 1.89898 23.0033
-6.92924 1.79532 23.002
-6.95015 1.69166 23.0006
-6.97107 1.588 22.9992
-6.99198 1.48434 22.9979
-6.91195 1.36683 22.9941
-6.93286 1.26317 22.9927
-6.95378 1.15951 22.9913
-6.97469 1.05585 22.99
-6.99561 0.952193 22.9886
-6.91557 0.834689 22.9848
-6.93649 0.731028 22.9834
-6.9574 0.627368 22.9821
-6.97832 0.52371 22.9807
-6.89828 0.406204 22.9769
-6.9192 0.302544 22.9756
-6.94011 0.198883 22.9742
-6.86007 0.0813795 22.9704
-6.88099 -0.0222825 22.969
-6.9019 -0.12594 22.9677
-6.92282 -0.229602 22.9663
-6.94374 -0.333261 22.965
-6.96465 -0.436921 22.9636
-6.78366 -0.568272 22.9574
-6.70362 -0.685775 22.9536
-6.72454 -0.789435 22.9522
-6.6445 -0.906941 22.9484
-6.26161 -1.06598 22.9374
-6.18157 -1.18348 22.9336
-6.20249 -1.28714 22.9322
-6.2234 -1.3908 22.9308
-6.24432 -1.49446 22.9295
-6.26523 -1.59812 22.9281
-6.28615 -1.70178 22.9267
-6.20611 -1.81929 22.923
-6.22703 -1.92295 22.9216
-6.14699 -2.04045 22.9178
-6.1679 -2.14411 22.9164
-6.08787 -2.26162 22.9126
-6.00783 -2.37912 22.9089
-7.13545 3.57874 23.0325
-7.19609 3.44002 23.0336
-7.16237 3.33979 23.0322
-7.223 3.20107 23.0333
-7.18928 3.10085 23.0319
-7.24991 2.96213 23.033
-7.31055 2.82341 23.034
-7.46553 2.64621 23.0375
-7.52616 2.50749 23.0386
-7.49244 2.40726 23.0372
-7.55308 2.26855 23.0383
-7.61371 2.12983 23.0393
-7.57999 2.0296 23.038
-7.54628 1.92937 23.0366
-7.51256 1.82914 23.0352
-7.57319 1.69043 23.0363
-7.53947 1.5902 23.0349
-7.60011 1.45148 23.036
-7.56639 1.35125 23.0346
-7.62702 1.21253 23.0357
-7.5933 1.1123 23.0343
-7.65394 0.973586 23.0354
-7.62022 0.873355 23.034
-7.5865 0.773127 23.0326
-7.64713 0.634411 23.0337
-7.61342 0.534181 23.0323
-7.5797 0.43395 23.0309
-7.54598 0.33372 23.0296
-7.51226 0.233492 23.0282
-7.5729 0.0947742 23.0293
-7.53918 -0.00545549 23.0279
-7.50546 -0.105685 23.0266
-7.47175 -0.205917 23.0252
-7.43803 -0.306145 23.0238
-7.40431 -0.406376 23.0224
-7.46495 -0.545093 23.0235
-7.43123 -0.645323 23.0221
-7.39751 -0.745553 23.0208
-7.3638 -0.845782 23.0194
-7.33008 -0.946013 23.018
-7.29636 -1.04624 23.0167
-7.26265 -1.14647 23.0153
-7.22893 -1.2467 23.0139
-7.19521 -1.34693 23.0126
-7.16149 -1.44716 23.0112
-7.12778 -1.54739 23.0098
-7.09406 -1.64762 23.0085
-6.96599 -1.70936 23.0047
-6.93227 -1.80959 23.0033
-6.89856 -1.90982 23.002
-6.86484 -2.01005 23.0006
-6.83112 -2.11029 22.9992
-6.70306 -2.17203 22.9954
-6.66934 -2.27226 22.9941
-6.63562 -2.37249 22.9927
-6.60191 -2.47272 22.9913
-6.56819 -2.57295 22.99
-6.53447 -2.67318 22.9886
-6.50075 -2.77341 22.9872
-6.46704 -2.87364 22.9859
-6.43332 -2.97387 22.9845
-6.39961 -3.0741 22.9831
-6.36589 -3.17433 22.9818
-6.23782 -3.23607 22.978
-6.2041 -3.3363 22.9766
-6.17039 -3.43653 22.9753
-6.13667 -3.53676 22.9739
-6.10295 -3.63699 22.9725
-6.06924 -3.73722 22.9712
-6.03552 -3.83745 22.9698
-6.0018 -3.93768 22.9684
-5.96808 -4.03791 22.9671
-5.84002 -4.09965 22.9633
-5.8063 -4.19988 22.9619
-5.77259 -4.30011 22.9605
-5.73887 -4.40034 22.9592
-5.70515 -4.50057 22.9578
-5.67143 -4.6008 22.9564
-5.63772 -4.70103 22.9551
-5.604 -4.80126 22.9537
-5.47594 -4.86301 22.9499
-5.44222 -4.96324 22.9485
-5.4085 -5.06347 22.9472
-5.37478 -5.1637 22.9458
-5.24672 -5.22544 22.942
-5.213 -5.32567 22.9407
-5.17928 -5.4259 22.9393
-5.14556 -5.52613 22.9379
-5.0175 -5.58787 22.9341
-4.98379 -5.6881 22.9328
-4.95007 -5.78833 22.9314
-4.91635 -5.88856 22.93
-4.88263 -5.98879 22.9287
-4.84892 -6.08902 22.9273
-4.8152 -6.18925 22.9259
-4.78148 -6.28948 22.9246
-4.65342 -6.35123 22.9208
-4.6197 -6.45146 22.9194
-4.58598 -6.55169 22.9181
-4.45791 -6.61343 22.9143
-4.4242 -6.71366 22.9129
-4.39048 -6.81389 22.9115
-4.35676 -6.91412 22.9102
-4.32305 -7.01435 22.9088
-4.28933 -7.11458 22.9074
-4.25561 -7.21481 22.9061
-4.12755 -7.27655 22.9023
-4.09383 -7.37678 22.9009
-3.96576 -7.43853 22.8971
-3.93204 -7.53875 22.8958
-3.89833 -7.63899 22.8944
-3.77026 -7.70073 22.8906
-3.73655 -7.80096 22.8892
-3.70283 -7.90119 22.8879
-3.57476 -7.96293 22.8841
-3.4467 -8.02468 22.8803
-3.31863 -8.08642 22.8765
-3.19057 -8.14816 22.8727
-3.15685 -8.24839 22.8714
-3.02878 -8.31014 22.8676
-2.99506 -8.41037 22.8662
-7.52173 -1.26951 23.0289
-7.50488 -1.41995 23.0299
-7.48803 -1.5704 23.031
-7.40872 -1.64034 23.0296
-7.3294 -1.71029 23.0283
-7.31256 -1.86074 23.0293
-7.23324 -1.93068 23.028
-7.15392 -2.00062 23.0266
-7.13707 -2.15107 23.0276
-7.12023 -2.30152 23.0287
-7.04091 -2.37146 23.0273
-7.02406 -2.52191 23.0284
-6.94475 -2.59185 23.027
-6.86543 -2.6618 23.0257
-6.84858 -2.81224 23.0267
-6.83173 -2.96269 23.0278
-6.75242 -3.03263 23.0264
-6.6731 -3.10258 23.0251
-6.59379 -3.17252 23.0237
-6.57694 -3.32297 23.0247
-6.49762 -3.39291 23.0234
-6.48078 -3.54336 23.0244
-6.40146 -3.6133 23.0231
-6.38461 -3.76375 23.0241
-6.36776 -3.9142 23.0252
-6.28845 -3.98414 23.0238
-6.2716 -4.13459 23.0249
-6.19229 -4.20453 23.0235
-6.11297 -4.27448 23.0221
-6.09612 -4.42492 23.0232
-6.01681 -4.49486 23.0218
-5.99995 -4.64531 23.0229
-5.92064 -4.71526 23.0215
-5.90379 -4.86571 23.0226
-5.82448 -4.93565 23.0212
-5.74516 -5.00559 23.0199
-5.72831 -5.15604 23.0209
-5.649 -5.22598 23.0195
-5.56968 -5.29593 23.0182
-5.49037 -5.36587 23.0168
-5.41106 -5.43581 23.0154
-5.33174 -5.50575 23.0141
-5.31489 -5.6562 23.0151
-5.36051 -5.88716 23.0186
-5.40612 -6.11811 23.0221
-5.32681 -6.18805 23.0207
-5.30996 -6.3385 23.0218
-5.23065 -6.40844 23.0204
-5.15133 -6.47839 23.019
-5.07202 -6.54833 23.0177
-5.05517 -6.69877 23.0187
-4.97585 -6.76872 23.0174
-4.89654 -6.83866 23.016
-4.87969 -6.98911 23.0171
-4.80037 -7.05905 23.0157
-4.72106 -7.129 23.0143
-4.70421 -7.27945 23.0154
-4.6249 -7.34939 23.014
-4.60804 -7.49983 23.0151
-4.52873 -7.56978 23.0137
-4.44942 -7.63972 23.0123
-4.43257 -7.79017 23.0134
-4.35326 -7.86012 23.012
-4.27394 -7.93006 23.0107
-4.19462 -8 23.0093
-4.17778 -8.15045 23.0104
-4.09846 -8.22039 23.009
-4.01915 -8.29033 23.0076
-3.93983 -8.36028 23.0063
-3.86052 -8.43022 23.0049
-3.7812 -8.50016 23.0035
-3.70189 -8.57011 23.0022
-3.62258 -8.64005 23.0008
-3.54326 -8.70999 22.9994
-3.46394 -8.77994 22.9981
-3.38463 -8.84988 22.9967
-3.30532 -8.91982 22.9953
-3.226 -8.98976 22.994
-3.14669 -9.05971 22.9926
-3.06737 -9.12965 22.9912
-2.98806 -9.1996 22.9899
-2.90874 -9.26954 22.9885
-2.82943 -9.33948 22.9871
-2.75011 -9.40942 22.9858
-2.6708 -9.47937 22.9844
-2.59148 -9.54931 22.983
-2.51217 -9.61926 22.9817
-2.43285 -9.6892 22.9803
-2.35354 -9.75914 22.9789
-2.27422 -9.82908 22.9776
-2.19491 -9.89903 22.9762
-2.05313 -9.88847 22.9724
-1.97381 -9.95841 22.9711
-1.95696 -10.1089 22.9721
-1.87765 -10.1788 22.9707
-1.79834 -10.2487 22.9694
-1.65655 -10.2382 22.9656
-1.57724 -10.3081 22.9642
-1.49793 -10.3781 22.9629
-1.41861 -10.448 22.9615
-1.3393 -10.518 22.9601
-1.25998 -10.5879 22.9588
-1.18067 -10.6578 22.9574
-1.10135 -10.7278 22.956
-0.959571 -10.7172 22.9522
-0.880256 -10.7872 22.9509
-0.80094 -10.8571 22.9495
-0.721625 -10.927 22.9482
-0.642311 -10.997 22.9468
-0.500535 -10.9864 22.943
-0.421221 -11.0564 22.9416
-0.341905 -11.1263 22.9403
-0.262589 -11.1963 22.9389
-0.183276 -11.2662 22.9375
-0.0414929 -11.2556 22.9337
0.0378246 -11.3256 22.9324
0.429463 -10.993 22.9189
0.571245 -10.9824 22.9151
0.650558 -11.0524 22.9137
0.792337 -11.0418 22.9099
0.934122 -11.0313 22.9062
1.0759 -11.0207 22.9024
1.21768 -11.0101 22.8986
1.29699 -11.0801 22.8972
1.43877 -11.0695 22.8934
1.58055 -11.059 22.8896
1.7848 -10.9679 22.8834
